0	0	0	0	0	0	0	0	0	0	0	0	0	0	0	0	0	2312	2312	2312	2312	2312	2312	2312	2312	2327	0	0	0	0	0	0	0	0	0	0	0	0	2343	2343	2343	2327	2327	2343	2343	2343	2327	2327	2327	2327	2327	2343	2327	2343	2343	2343	2327	2343	2343	2343	2343	2343	2343	2343	2343	2343	2343	2343	2343	2343	2343	2343	2343	2343	2327	2327	2343	2359	2359	2359	2376	2376	2392	2409	2409	2426	2443	2514	2532	2532	2551	2570	2570	2570	2609	2649	2669	2690	2711	2711	2690	2711	2754	2754	2754	2777	2777	2777	2777	2777	2777	2777	2799	2799	2799	3952	3952	3952	3907	3907	3907	3907	3864	3864	3864	3864	3864	3864	3864	3821	3821	3821	3779	3779	3779	3779	3779	3779	3779	3779	3779	3779	3779	3779	3779	3738	3738	3738	3738	3738	3738	3779	3779	3779	3779	3779	3779	3779	3821	3821	3864	3864	3864	3864	3864	3864	3864	3907	3907	3907	3907	3907	3907	3952	3952	3952	3952	3952	3998	3998	4045	4045	4093	4192	4463	4463	4521	4521	4521	4521	4521	4521	4521	4521	4521	4521	4521	4521	4521	4581	4521	4521	4521	4521	4521	4581	4581	4581	4521	4521	4521	4463	4296	4243	4192	4142	4192	4192	4521	4581	4581	4521	4521	4521	4521	4521	4521	4521	4521	4521	4581	4581	4581	4581	4581	4581	4521	4521	4521	4581	4581	4521	4521	4521	4521	4521	4521	4521	4521	4463	4463	4350	4296	4243	4192	4142	4142	4093	4045	3907	3779	3779	3779	3779	3779	3779	3779	3779	3779	3738	3738	3738	3779	3779	3779	3779	3821	3952	3952	3907	3821	3779	3779	3779	3779	3779	3779	3779	3779	3779	3779	3821	3998	4142	4192	4192	4192	4243	4243	4243	4243	4243	4243	4243	4243	4243	4243	4243	4192	4192	4243	4243	4243	4243	4243	4243	4296	4296	4192	4192	4192	4192	4142	4142	4142	4142	4142	4142	4142	4142	4142	4142	4142	4142	4142	4142	4142	4142	4142	4192	4192	4192	4243	4243	4192	4192	4192	4192	4192	4192	4192	4192	4192	4192	4192	4192	4192	4192	4142	4142	4192	4192	4192	4192	4192	4192	4192	4142	4142	4142	4192	4192	4192	4192	4192	4192	4192	4243	4243	4243	4243	4243	4243	4243	4192	4142	4093	4093	4093	4093	4045	4045	4045	4045	4045	0	0	0	0	0	0	0	0	0	0	0	0	0	0	0	0	0	0	0	0	0	0	0	0	0	4045	4093	4093	4045	4093	4045	4045	4045	3998	3907	3864	3864	3821	3779	3779	3779	3779	523	522	522	520	519	519	519	518	517	516	516	516	516	516	516	516	516	516	516	517	517	518	518	518	519	520	0	0	0	0	0	0	0	0	0	0	0	0	0	0	0	0	0	0	0	0	0	0	0	0	0	0	0	0	0	0	0	0	0	0	0	0	0	0	0	0	0	0	0	0	0	0	1287	1282	1282	1282	1282	1272	1259	1254	1254	1254	1254	1249	1245	1245	1245	1245	1245	1245	1245	1245	1245	1245	1245	1245	1240	1240	1240	1240	1240	1240	1236	1236	1236	1236	1236	1236	1236	1236	1240	1236	1236	1236	1240	1236	1236	1236	1236	1236	1236	1232	1240	1240	1259	1259	1142	1142	1134	1134	1131	1131	1127	1127	1123	1120	1120	1120	1120	1120	1120	1120	1120	1120	1120	1120	1120	1120	1120	1120	1120	1120	1120	1123	1123	1123	1120	1123	1123	1123	1123	1123	0	0	0	0	0	0	0	0	0	0	0	0	0	0	0	0	0	0	0	0	0	0	0	0	0	0	0	0	0	0	0	0	0	0	0	0	0	0	0	0	0
0	0	0	0	0	0	0	0	0	0	0	0	0	0	0	0	0	2327	2312	2327	2312	2312	2312	2312	2312	0	0	0	0	0	0	0	0	0	0	0	0	0	2343	2343	2343	2343	2327	2327	2327	2327	2327	2327	2327	2327	2327	2327	2327	2327	2343	2343	2343	2343	2343	2343	2343	2343	2343	2343	2343	2327	2327	2327	2327	2343	2343	2343	2343	2343	2327	2327	2343	2343	2359	2343	2359	2376	2392	2409	2409	2426	2443	2496	2514	2532	2551	2570	2570	2570	2609	2649	2629	2690	2690	2711	2690	2733	2733	2754	2777	2777	2799	2777	2777	2777	2777	2822	2799	2799	3952	3952	3952	3952	3907	3907	3907	3907	3907	3864	3864	3864	3864	3864	3821	3821	3779	3779	3779	3779	3738	3779	3779	3779	3779	3779	3779	3779	3779	3779	3738	3738	3738	3738	3738	3738	3738	3738	3738	3738	3779	3779	3779	3821	3821	3821	3864	3864	3864	3864	3864	3864	3907	3907	3907	3907	3907	3907	3907	3952	3952	3952	3952	3952	3998	3998	3998	4045	4093	4142	4463	4463	4521	4521	4521	4521	4521	4521	4521	4521	4521	4521	4521	4521	4521	4521	4521	4521	4521	4521	4521	4581	4521	4521	4521	4521	4521	4463	4296	4192	4142	4142	4142	4142	4142	4581	4581	4521	4521	4521	4521	4521	4521	4521	4521	4521	4581	4581	4581	4581	4581	4581	4521	4521	4521	4521	4521	4521	4521	4521	4521	4521	4521	4521	4521	4463	4463	4350	4296	4192	4192	4192	4142	4093	4093	3907	3779	3779	3779	3779	3779	3779	3779	3779	3779	3779	3738	3738	3779	3779	3779	3779	3821	3821	3821	3821	3779	3779	3779	3779	3779	3779	3779	3779	3779	3779	3779	3821	4093	4142	4192	4192	4192	4243	4243	4243	4243	4243	4243	4243	4243	4243	4243	4192	4192	4192	4192	4243	4243	4243	4243	4243	4243	4243	4192	4192	4142	4142	4142	4142	4142	4142	4142	4142	4142	4142	4142	4192	4142	4142	4142	4093	4142	4142	4142	4192	4192	4192	4192	4243	4192	4192	4192	4192	4192	4192	4192	4192	4192	4192	4192	4192	4192	4192	4142	4142	4192	4192	4192	4192	4192	4192	4192	4142	4142	4142	4142	4192	4192	4192	4192	4192	4192	4243	4243	4243	4243	4243	4243	4243	4192	4142	4142	4093	4093	4093	4045	4045	4045	4045	4045	0	0	0	0	0	0	0	0	0	0	0	0	0	0	0	0	0	0	0	0	0	0	0	0	4045	4045	4045	4045	4045	4045	4045	4045	3998	3998	3907	3864	3821	3779	3779	3779	3779	523	523	522	521	519	519	519	518	518	517	516	516	516	516	516	516	516	516	516	517	518	518	518	518	518	519	0	0	0	0	0	0	0	0	0	0	0	0	0	0	0	0	0	0	0	0	0	0	0	0	0	0	0	0	0	0	0	0	0	0	0	0	0	0	0	0	0	0	0	0	0	0	0	1287	1287	1282	1282	1277	1272	1259	1254	1254	1254	1254	1249	1245	1245	1245	1245	1245	1240	1240	1240	1245	1245	1245	1245	1240	1245	1245	1240	1240	1240	1240	1236	1236	1236	1236	1236	1236	1240	1240	1236	1236	1236	1236	1236	1236	1236	1236	1236	1236	1236	1240	1240	1240	1263	1142	1142	1138	1134	1131	1127	1127	1123	1123	1120	1120	1120	1120	1120	1120	1120	1120	1120	1120	1120	1120	1120	1120	1120	1120	1120	1120	1123	1120	1123	1120	1120	1123	1123	1123	1123	0	0	0	0	0	0	0	0	0	0	0	0	0	0	0	0	0	0	0	0	0	0	0	0	0	0	0	0	0	0	0	0	0	0	0	0	0	0	0	0	0
0	0	0	0	0	0	0	0	0	0	0	0	0	0	0	0	0	2312	2312	2312	2312	2312	2312	2327	2327	0	0	0	0	0	0	0	0	0	0	0	0	0	0	2359	2343	2343	2327	2327	2327	2343	2327	2327	2327	2343	2343	2327	2327	2343	2343	2343	2343	2343	2343	2343	2343	2343	2343	2343	2327	2327	2327	2327	2327	2343	2343	2327	2343	2327	2327	2327	2343	2343	2343	2343	2359	2376	2392	2409	2409	2426	2460	2460	2496	2496	2532	2551	2570	2570	2609	2609	2609	2649	2669	2669	2711	2754	2754	2754	2777	2777	2777	2777	2777	2777	2777	2799	2799	2799	3952	3952	3907	3907	3907	3864	3864	3864	3864	3864	3864	3864	3864	3864	3821	3821	3779	3779	3779	3779	3779	3779	3779	3779	3779	3779	3779	3779	3779	3779	3738	3738	3738	3738	3738	3738	3738	3738	3738	3779	3779	3779	3779	3821	3821	3821	3864	3864	3864	3864	3864	3864	3907	3907	3907	3907	3907	3907	3907	3952	3952	3952	3952	3952	3998	3998	3998	3998	4045	4045	4406	4406	4463	4463	4521	4521	4521	4521	4521	4521	4521	4521	4521	4521	4521	4521	4521	4521	4521	4521	4581	4581	4521	4521	4521	4521	4521	4463	4192	4142	4142	4093	4142	4142	4142	4581	4581	4521	4521	4521	4521	4521	4521	4521	4521	4581	4581	4581	4581	4581	4581	4581	4581	4581	4521	4521	4521	4521	4521	4521	4521	4521	4521	4521	4521	4463	4463	4350	4296	4192	4192	4142	4142	4142	4045	3864	3779	3779	3779	3779	3779	3779	3779	3779	3738	3738	3738	3738	3738	3779	3779	3779	3821	3821	3821	3821	3779	3779	3779	3779	3779	3779	3779	3779	3779	3779	3779	3821	4045	4142	4192	4192	4192	4243	4243	4243	4243	4243	4243	4243	4243	4243	4243	4192	4192	4192	4192	4243	4243	4243	4296	4243	4243	4243	4192	4192	4142	4142	4142	4192	4142	4192	4192	4192	4192	4142	4142	4192	4142	4142	4142	4093	4142	4142	4142	4142	4192	4192	4192	4192	4192	4192	4192	4192	4192	4192	4192	4192	4192	4192	4192	4192	4192	4192	4142	4192	4243	4192	4192	4192	4192	4192	4142	4142	4142	4142	4142	4192	4192	4192	4192	4192	4192	4243	4243	4243	4243	4243	4243	4243	4192	4192	4142	4093	4093	4045	4045	4045	4045	4045	0	0	0	0	0	0	0	0	0	0	0	0	0	0	0	0	0	0	0	0	0	0	0	0	0	4045	4045	4045	4045	4045	4045	4045	3998	3998	3952	3864	3864	3821	3779	3779	3779	3779	523	523	523	520	519	519	519	519	518	517	516	516	516	516	516	516	516	516	516	517	518	518	518	518	518	0	0	0	0	0	0	0	0	0	0	0	0	0	0	0	0	0	0	0	0	0	0	0	0	0	0	0	0	0	0	0	0	0	0	0	0	0	0	0	0	0	0	0	0	0	0	0	0	1287	1287	1282	1282	1277	1272	1263	1254	1254	1254	1254	1249	1249	1245	1245	1245	1245	1240	1240	1240	1245	1245	1245	1245	1245	1245	1245	1240	1240	1240	1240	1240	1240	1236	1236	1236	1240	1240	1240	1236	1236	1236	1236	1236	1236	1236	1232	1232	1232	1232	1240	1240	1259	1138	1138	1138	1138	1134	1131	1127	1127	1123	1123	1120	1120	1120	1123	1120	1120	1120	1120	1120	1120	1120	1120	1120	1120	1120	1120	1120	1120	1123	1123	1123	1123	1123	1123	1120	1120	1120	0	0	0	0	0	0	0	0	0	0	0	0	0	0	0	0	0	0	0	0	0	0	0	0	0	0	0	0	0	0	0	0	0	0	0	0	0	0	0	0	0
0	0	0	0	0	0	0	0	0	0	0	0	0	0	0	0	0	2297	2297	2312	2312	2312	2327	2327	2327	0	0	0	0	0	0	0	0	0	0	0	0	0	0	2359	2359	2343	2343	2327	2327	2343	2343	2343	2343	2343	2343	2343	2343	2343	2343	2343	2343	2343	2343	2343	2343	2343	2343	2327	2343	2327	2343	2343	2343	2343	2343	2343	2343	2327	2327	2327	2327	2343	2343	2343	2376	2392	2409	2409	2426	2443	2443	2443	2460	2478	2532	2532	2551	2551	2551	2589	2609	2629	2629	2669	2669	2754	2754	2754	2777	2777	2777	2777	2754	2777	2777	2799	2799	2799	3907	3907	3907	3907	3864	3864	3864	3864	3864	3864	3821	3779	3779	3779	3779	3779	3779	3779	3779	3779	3738	3738	3779	3779	3779	3779	3779	3779	3779	3779	3738	3738	3738	3738	3738	3738	3738	3738	3738	3738	3779	3779	3779	3821	3864	3864	3864	3864	3864	3864	3864	3864	3907	3907	3907	3907	3907	3907	3907	3952	3952	3952	3952	3952	3998	3952	3998	3998	4045	4045	4406	4406	4463	4463	4521	4463	4521	4521	4521	4521	4521	4521	4463	4463	4521	4521	4521	4521	4521	4581	4581	4521	4521	4581	4521	4521	4521	4463	4350	4142	4142	4093	4142	4142	4296	4296	4463	4521	4521	4521	4521	4521	4521	4521	4521	4581	4581	4581	4581	4581	4581	4581	4581	4581	4521	4521	4521	4521	4521	4521	4521	4521	4521	4521	4521	4463	4463	4350	4296	4296	4192	4142	4142	4142	4093	3907	3779	3779	3779	3779	3738	3779	3779	3779	3738	3738	3738	3738	3738	3738	3738	3779	3821	3821	3821	3821	3779	3779	3779	3779	3779	3779	3779	3779	3779	3779	3821	3907	4045	4142	4142	4192	4192	4192	4243	4243	4243	4296	4296	4243	4243	4243	4243	4192	4192	4192	4192	4243	4243	4296	4296	4296	4243	4243	4192	4192	4142	4142	4142	4192	4192	4192	4192	4192	4192	4192	4192	4192	4142	4142	4142	4093	4142	4142	4142	4142	4142	4192	4192	4192	4142	4142	4142	4192	4142	4142	4142	4142	4142	4192	4192	4192	4192	4192	4192	4192	4243	4192	4192	4192	4192	4192	4192	4142	4142	4142	4142	4192	4192	4192	4192	4192	4192	4243	4243	4243	4243	4296	4296	4296	4243	4192	4142	4093	4093	4045	4045	4045	4045	4045	0	0	0	0	0	0	0	0	0	0	0	0	0	0	0	0	0	0	0	0	0	0	0	0	0	4045	4045	4045	4045	4045	4045	4045	3998	3998	3907	3864	3821	3821	3779	3779	3779	3779	522	522	521	520	519	519	518	518	518	517	516	516	515	516	515	515	516	516	516	517	518	518	518	518	518	0	0	0	0	0	0	0	0	0	0	0	0	0	0	0	0	0	0	0	0	0	0	0	0	0	0	0	0	0	0	0	0	0	0	0	0	0	0	0	0	0	0	0	0	0	0	0	0	1287	1287	1282	1282	1277	1272	1259	1254	1254	1254	1249	1249	1249	1245	1245	1245	1245	1245	1245	1245	1245	1245	1245	1245	1245	1245	1245	1240	1240	1240	1240	1240	1240	1236	1236	1236	1236	1240	1240	1236	1236	1236	1236	1236	1236	1236	1232	1232	1232	1236	1240	1138	1138	1138	1138	1138	1134	1131	1131	1127	1123	1123	1123	1120	1120	1120	1123	1120	1120	1120	1120	1120	1120	1120	1120	1120	1120	1120	1120	1120	1123	1123	1120	1123	1120	1123	1120	1120	1120	1120	0	0	0	0	0	0	0	0	0	0	0	0	0	0	0	0	0	0	0	0	0	0	0	0	0	0	0	0	0	0	0	0	0	0	0	0	0	0	0	0	0
0	0	0	0	0	0	0	0	0	0	0	0	0	0	0	0	0	2281	2281	2297	2297	2312	2312	2312	2312	0	0	0	0	0	0	0	0	0	0	0	0	0	0	2392	2392	2359	2343	2327	2327	2343	2343	2343	2343	2343	2343	2343	2343	2343	2343	2343	2343	2343	2343	2343	2343	2343	2343	2343	2327	2327	2343	2343	2343	2343	2343	2343	2343	2343	2327	2327	2327	2343	2343	2343	2376	2392	2392	2409	2409	2426	2426	2426	2460	2478	2496	2514	2532	2532	2551	2551	2589	2609	2629	2629	2629	2690	2754	2777	2777	2777	2777	2777	2754	2777	2754	2754	2754	3907	3907	3907	3907	3907	3907	3864	3864	3864	3864	3864	3779	3779	3821	3779	3779	3779	3779	3779	3779	3779	3738	3738	3738	3738	3738	3738	3738	3738	3779	3779	3738	3738	3738	3738	3738	3738	3738	3738	3738	3738	3779	3779	3779	3821	3821	3821	3864	3864	3864	3864	3864	3864	3907	3907	3907	3952	3952	3952	3952	3952	3952	3952	3952	3952	3998	3952	3998	4045	4045	4093	4093	4406	4463	4463	4463	4463	4463	4463	4463	4521	4463	4521	4463	4463	4463	4463	4521	4521	4521	4521	4521	4521	4521	4581	4521	4521	4521	4463	4350	4142	4142	4093	4093	4093	4093	4406	4521	4521	4521	4521	4521	4521	4521	4521	4521	4521	4581	4581	4581	4581	4581	4581	4581	4581	4521	4521	4521	4521	4521	4521	4521	4521	4521	4521	4521	4463	4463	4406	4350	4296	4192	4192	4142	4142	4093	3998	3821	3779	3779	3779	3738	3779	3738	3779	3738	3738	3738	3698	3698	3698	3698	3779	3779	3779	3821	3821	3779	3779	3779	3779	3779	3779	3779	3779	3779	3779	3821	3952	4093	4093	4142	4142	4192	4243	4243	4243	4243	4243	4243	4243	4243	4243	4243	4192	4192	4192	4192	4243	4243	4296	4296	4296	4243	4243	4142	4142	4142	4093	4142	4142	4192	4192	4192	4192	4243	4192	4192	4192	4142	4142	4142	4093	4142	4192	4142	4142	4192	4192	4192	4192	4142	4142	4142	4142	4142	4142	4142	4142	4142	4142	4192	4142	4192	4192	4192	4192	4243	4192	4192	4192	4192	4192	4192	4142	4142	4142	4142	4192	4192	4192	4192	4192	4192	4243	4243	4243	4243	4296	4296	4296	4243	4192	4142	4093	4093	4045	4045	4045	4045	0	0	0	0	0	0	0	0	0	0	0	0	0	0	0	0	0	0	0	0	0	0	0	0	0	0	4045	4045	4045	4045	4045	4045	4045	3998	3998	3952	3864	3821	3821	3779	3738	3738	3779	523	521	520	519	519	518	518	518	518	517	516	516	515	516	515	515	516	516	516	517	518	518	518	517	517	0	0	0	0	0	0	0	0	0	0	0	0	0	0	0	0	0	0	0	0	0	0	0	0	0	0	0	0	0	0	0	0	0	0	0	0	0	0	0	0	0	0	0	0	0	0	0	0	0	0	0	0	1272	1268	1259	1254	1254	1254	1249	1249	1249	1249	1245	1245	1245	1245	1245	1245	1240	1240	1245	1245	1245	1245	1245	1245	1240	1240	1240	1240	1240	1236	1236	1236	1236	1240	1240	1236	1236	1236	1236	1236	1236	1236	1232	1232	1232	1236	1240	1236	1240	1134	1134	1134	1134	1131	1127	1127	1123	1123	1123	1120	1120	1120	1123	1123	1120	1120	1120	1120	1120	1120	1120	1123	1120	1123	1123	1123	1127	1127	1123	1123	1120	1123	1120	1120	1120	1120	0	0	0	0	0	0	0	0	0	0	0	0	0	0	0	0	0	0	0	0	0	0	0	0	0	0	0	0	0	0	0	0	0	0	0	0	0	0	0	0	0
0	0	0	0	0	0	0	0	0	0	0	0	0	0	0	0	0	2281	2297	2297	2297	2297	2281	2281	2312	0	0	0	0	0	0	0	0	0	0	0	0	0	0	2409	2392	2359	2327	2327	2327	2327	2327	2343	2343	2343	2343	2343	2343	2343	2343	2343	2343	2327	2343	2343	2343	2343	2327	2327	2327	2327	2343	2327	2343	2343	2343	2343	2343	2343	2343	2327	2343	2343	2343	2343	2359	2376	2392	2392	2392	2409	2409	2409	2460	2478	2478	2514	2532	2532	2532	2551	2589	2609	2609	2629	2669	2711	2754	2777	2777	2777	2777	2777	2754	2777	2754	2799	2799	3907	3907	3907	3907	3907	3907	3907	3864	3907	3864	3864	3779	3779	3821	3779	3779	3738	3779	3779	3779	3779	3738	3738	3738	3738	3738	3738	3738	3779	3779	3738	3738	3738	3738	3698	3738	3738	3698	3738	3738	3738	3779	3779	3779	3821	3821	3821	3821	3864	3864	3864	3864	3864	3907	3907	3907	3952	3952	3952	3952	3952	3952	3952	3952	3952	3998	3998	3998	3998	4045	4093	4142	4142	4142	4406	4406	4406	4406	4406	4406	4463	4463	4463	4463	4463	4463	4463	4463	4463	4406	4463	4463	4521	4521	4521	4521	4521	4521	4463	4463	4093	4142	4093	4093	4093	4093	4463	4521	4521	4521	4521	4521	4521	4521	4521	4521	4521	4581	4581	4581	4581	4521	4521	4521	4521	4521	4521	4521	4521	4521	4521	4521	4521	4521	4521	4521	4521	4521	4463	4350	4296	4192	4142	4142	4142	4142	4045	3907	3779	3779	3779	3738	3738	3738	3779	3779	3738	3738	3738	3698	3698	3698	3779	3779	3779	3779	3779	3779	3779	3779	3779	3779	3779	3738	3738	3779	3779	3779	3998	4093	4142	4192	4192	4243	4243	4243	4243	4243	4243	4243	4243	4243	4243	4243	4243	4192	4192	4192	4243	4296	4296	4296	4296	4243	4243	4142	4142	4142	4093	4142	4142	4192	4192	4192	4192	4192	4192	4192	4192	4142	4142	4142	4142	4142	4192	4192	4192	4192	4192	4192	4192	4142	4142	4142	4142	4142	4142	4093	4142	4142	4142	4142	4142	4142	4192	4192	4192	4243	4192	4192	4192	4192	4192	4192	4142	4142	4142	4142	4142	4142	4142	4142	4192	4192	4192	4243	4243	4243	4243	4243	4243	4243	4192	4142	4093	4093	4045	4045	4045	4045	0	0	0	0	0	0	0	0	0	0	0	0	0	0	0	0	0	0	0	0	0	0	0	0	0	0	4093	4045	4045	4045	4045	4045	4045	3998	3998	3952	3864	3821	3821	3779	523	522	522	521	520	519	519	519	518	517	517	517	516	516	516	515	516	515	515	516	516	516	516	517	517	517	516	516	0	0	0	0	0	0	0	0	0	0	0	0	0	0	0	0	0	0	0	0	0	0	0	0	0	0	0	0	0	0	0	0	0	0	0	0	0	0	0	0	0	0	0	0	0	0	0	0	0	0	0	0	1268	1263	1259	1259	1254	1254	1249	1249	1245	1245	1245	1245	1245	1245	1245	1245	1240	1240	1240	1245	1240	1245	1240	1240	1240	1240	1240	1236	1240	1236	1236	1236	1236	1240	1240	1236	1236	1236	1236	1236	1236	1232	1236	1236	1236	1236	1236	1240	1245	1134	1134	1134	1131	1131	1127	1123	1123	1120	1120	1120	1120	1120	1120	1123	1123	1123	1120	1120	1120	1120	1120	1120	1120	1123	1123	1123	1127	1127	1127	1123	1123	1123	1120	1120	1120	1120	0	0	0	0	0	0	0	0	0	0	0	0	0	0	0	0	0	0	0	0	0	0	0	0	0	0	0	0	0	0	0	0	0	0	0	0	0	0	0	0	0
0	0	0	0	0	0	0	0	0	0	0	0	0	0	0	0	0	2281	2281	2281	2297	2297	2281	2281	0	0	0	0	0	0	0	0	0	0	0	0	0	0	0	2409	2392	2312	2312	2312	2312	2327	2327	2343	2343	2343	2343	2343	2343	2343	2343	2327	2343	2343	2343	2343	2343	2327	2327	2327	2327	2327	2327	2327	2327	2343	2343	2343	2343	2343	2343	2343	2343	2343	2343	2343	2343	2343	2376	2392	2392	2409	2426	2426	2443	2460	2478	2496	2514	2532	2551	2551	2570	2589	2609	2609	2629	2711	2754	2754	2777	2777	2777	2754	2754	2777	2777	2799	2799	3952	3907	3907	3907	3907	3907	3907	3907	3907	3864	3864	3779	3821	3821	3821	3779	3779	3779	3779	3779	3779	3738	3738	3738	3738	3738	3738	3738	3738	3738	3738	3738	3738	3738	3738	3738	3738	3738	3738	3779	3779	3779	3779	3821	3821	3821	3821	3864	3864	3864	3864	3907	3864	3907	3907	3907	3952	3952	3907	3907	3952	3952	3952	3952	3952	3998	3998	3998	3998	4045	4093	4142	4192	4296	4296	4296	4350	4350	4350	4350	4406	4350	4406	4350	4350	4406	4406	4350	4406	4406	4406	4463	4463	4463	4521	4521	4521	4463	4406	4192	4142	4142	4142	4045	4093	4093	4581	4521	4521	4521	4521	4521	4521	4463	4463	4521	4521	4521	4521	4521	4521	4521	4521	4521	4521	4521	4521	4521	4521	4521	4521	4521	4521	4521	4521	4521	4521	4463	4406	4350	4192	4192	4142	4142	4142	4142	3952	3907	3779	3779	3738	3738	3738	3738	3779	3779	3779	3738	3738	3738	3738	3698	3738	3779	3779	3779	3779	3779	3779	3779	3779	3779	3779	3738	3779	3779	3779	3821	3998	4093	4192	4192	4192	4243	4243	4243	4243	4243	4243	4243	4243	4192	4192	4243	4192	4192	4192	4192	4243	4296	4296	4296	4243	4243	4243	4142	4142	4142	4142	4142	4142	4192	4192	4192	4192	4243	4192	4192	4192	4142	4142	4142	4142	4142	4142	4142	4142	4142	4192	4192	4192	4142	4142	4142	4142	4142	4142	4142	4142	4142	4142	4142	4142	4142	4192	4192	4192	4243	4243	4243	4192	4192	4192	4192	4142	4142	4142	4142	4142	4142	4142	4142	4142	4192	4192	4243	4243	4243	4243	4243	4243	4243	4192	4142	4093	4093	4045	3998	3998	0	0	0	0	0	0	0	0	0	0	0	0	0	0	0	0	0	0	0	0	0	0	0	0	0	0	0	4093	4045	4045	4045	4045	4045	4045	4045	3998	3952	3864	3821	3821	3779	522	522	522	521	520	519	519	518	518	517	517	516	516	516	516	515	516	515	515	516	516	516	517	517	517	517	516	516	0	0	0	0	0	0	0	0	0	0	0	0	0	0	0	0	0	0	0	0	0	0	0	0	0	0	0	0	0	0	0	0	0	0	0	0	0	0	0	0	0	0	0	0	0	0	0	0	0	0	0	0	1263	1263	1259	1254	1254	1249	1249	1245	1245	1245	1245	1245	1245	1245	1245	1240	1240	1240	1240	1240	1240	1240	1240	1240	1240	1240	1236	1236	1236	1236	1236	1236	1240	1240	1240	1240	1236	1236	1236	1236	1236	1236	1232	1236	1236	1236	1240	1240	1245	1134	1134	1134	1131	1127	1127	1123	1120	1120	1120	1120	1120	1120	1123	1123	1120	1120	1120	1120	1120	1120	1120	1120	1120	1123	1123	1123	1127	1127	1127	1123	1123	1123	1123	1120	1120	1120	0	0	0	0	0	0	0	0	0	0	0	0	0	0	0	0	0	0	0	0	0	0	0	0	0	0	0	0	0	0	0	0	0	0	0	0	0	0	0	0	0
0	0	0	0	0	0	0	0	0	0	0	0	0	0	0	0	0	2281	2281	2281	2281	2281	2281	2281	0	0	0	0	0	0	0	0	0	0	0	0	0	0	0	0	2312	2312	2327	2312	2312	2327	2327	2327	2343	2343	2343	2343	2343	2327	2327	2327	2343	2343	2327	2343	2343	2343	2327	2327	2327	2327	2327	2327	2343	2343	2343	2343	2343	2343	2343	2343	2343	2343	2343	2343	2359	2359	2376	2376	2392	2409	2426	2426	2443	2460	2460	2496	2514	2532	2551	2551	2570	2589	2589	2589	2629	2629	2733	2754	2777	2777	2777	2777	2754	2754	2754	2777	2777	3907	3907	3907	3907	3907	3907	3907	3864	3864	3864	3864	3864	3821	3821	3821	3821	3779	3779	3779	3779	3779	3738	3738	3738	3738	3738	3738	3738	3738	3779	3738	3738	3738	3738	3738	3738	3738	3738	3738	3779	3779	3779	3779	3821	3821	3864	3864	3864	3907	3864	3864	3907	3864	3907	3907	3907	3952	3952	3907	3907	3952	3952	3952	3952	3952	3952	3998	3998	4045	4045	4045	4142	4192	4243	4243	4296	4296	4350	4296	4350	4350	4350	4350	4350	4350	4406	4350	4350	4406	4350	4406	4406	4463	4463	4521	4463	4463	4406	4350	4192	4192	4192	4142	4093	4093	4093	4581	4521	4521	4521	4521	4521	4521	4463	4521	4463	4521	4521	4521	4521	4521	4521	4521	4521	4521	4521	4463	4521	4521	4521	4521	4521	4521	4521	4581	4521	4521	4463	4406	4296	4243	4192	4192	4142	4142	4142	4093	3779	3779	3779	3738	3738	3738	3738	3779	3779	3779	3779	3738	3738	3738	3698	3738	3738	3779	3779	3779	3779	3779	3779	3779	3779	3779	3738	3779	3779	3779	3779	3998	4142	4192	4192	4243	4243	4243	4243	4243	4243	4243	4243	4243	4192	4192	4243	4192	4192	4192	4192	4243	4243	4243	4243	4243	4243	4243	4142	4142	4142	4142	4142	4192	4192	4192	4192	4192	4192	4192	4142	4142	4142	4142	4142	4142	4142	4142	4142	4142	4192	4192	4192	4192	4192	4142	4142	4142	4142	4142	4142	4142	4142	4142	4142	4142	4142	4192	4192	4192	4243	4192	4192	4192	4192	4192	4192	4142	4142	4142	4142	4192	4142	4142	4142	4192	4192	4192	4192	4192	4243	4243	4243	4243	4192	4192	4142	4093	4093	4045	4045	4045	0	0	0	0	0	0	0	0	0	0	0	0	0	0	0	0	0	0	0	0	0	0	0	0	0	0	0	4093	4093	4045	4093	4045	4045	4045	4045	3998	3952	3907	3821	3821	3779	522	522	522	521	520	519	518	517	517	516	517	516	516	516	516	515	516	515	515	516	516	516	516	517	517	517	516	516	0	0	0	0	0	0	0	0	0	0	0	0	0	0	0	0	0	0	0	0	0	0	0	0	0	0	0	0	0	0	0	0	0	0	0	0	0	0	0	0	0	0	0	0	0	0	0	0	0	0	0	0	1263	1263	1263	1259	1254	1254	1249	1245	1245	1245	1245	1245	1245	1245	1240	1240	1240	1240	1240	1240	1240	1240	1240	1240	1240	1240	1240	1236	1236	1232	1236	1236	1236	1240	1240	1240	1240	1236	1236	1236	1236	1236	1232	1236	1236	1236	1236	1240	1134	1134	1134	1131	1131	1127	1127	1123	1120	1120	1120	1120	1120	1120	1123	1123	1120	1120	1123	1120	1120	1120	1120	1120	1120	1123	1123	1120	1127	1127	1123	1123	1120	1123	1120	1120	1120	1120	0	0	0	0	0	0	0	0	0	0	0	0	0	0	0	0	0	0	0	0	0	0	0	0	0	0	0	0	0	0	0	0	0	0	0	0	0	0	0	0	0
0	0	0	0	0	0	0	0	0	0	0	0	0	0	0	0	0	2297	2281	2281	2281	2281	2281	2281	0	0	0	0	0	0	0	0	0	0	0	0	0	0	0	0	2327	2312	2312	2312	2312	2312	2327	2343	2327	2327	2343	2343	2327	2343	2343	2343	2343	2327	2327	2343	2327	2327	2327	2327	2327	2327	2327	2327	2343	2343	2343	2343	2343	2343	2343	2327	2343	2343	2343	2343	2343	2359	2376	2376	2392	2409	2426	2443	2443	2460	2460	2478	2514	2532	2551	2551	2589	2609	2609	2629	2629	2711	2711	2733	2754	2754	2754	2754	2754	2754	2733	2711	2711	3907	3907	3907	3907	3952	3907	3907	3907	3907	3907	3864	3864	3821	3821	3821	3821	3821	3779	3821	3779	3779	3779	3779	3779	3738	3738	3738	3738	3738	3738	3738	3738	3738	3738	3738	3738	3738	3738	3779	3821	3779	3779	3821	3821	3821	3821	3821	3864	3907	3907	3907	3907	3907	3907	3907	3907	3952	3952	3907	3907	3907	3952	3952	3952	3952	3998	3998	3998	4045	4045	4045	4093	4142	4243	4243	4296	4296	4296	4296	4296	4350	4350	4350	4296	4296	4350	4350	4350	4350	4350	4406	4406	4463	4463	4521	4521	4463	4406	4406	4192	4142	4142	4142	4093	4142	4296	4521	4521	4521	4521	4521	4521	4521	4521	4521	4521	4521	4521	4521	4521	4521	4521	4521	4521	4521	4521	4521	4521	4521	4521	4521	4521	4521	4521	4521	4521	4521	4463	4463	4296	4142	4093	4093	4142	4142	4142	4093	3998	3779	3779	3738	3738	3738	3738	3779	3779	3779	3738	3738	3698	3698	3659	3659	3659	3779	3821	3779	3779	3779	3779	3779	3779	3779	3779	3779	3779	3779	3821	4093	4142	4243	4243	4243	4243	4243	4243	4243	4243	4243	4243	4192	4192	4192	4192	4192	4192	4243	4192	4243	4243	4243	4243	4243	4243	4243	4192	4192	4192	4142	4192	4192	4192	4192	4142	4142	4142	4192	4142	4142	4142	4142	4142	4142	4142	4142	4192	4192	4142	4192	4192	4192	4192	4142	4142	4142	4142	4142	4142	4142	4142	4142	4192	4192	4142	4192	4192	4192	4243	4243	4192	4192	4192	4192	4192	4142	4142	4142	4142	4192	4142	4142	4142	4192	4192	4192	4192	4192	4192	4243	4243	4243	4192	4192	4142	4093	4045	3998	3998	3998	0	0	0	0	0	0	0	0	0	0	0	0	0	0	0	0	0	0	0	0	0	0	0	0	0	0	4093	4093	4093	4093	4093	4093	4093	4093	4045	4045	3998	3907	3864	3779	3738	522	522	522	521	519	519	517	516	516	516	516	516	516	516	515	514	515	514	514	515	515	516	516	516	517	517	516	516	0	0	0	0	0	0	0	0	0	0	0	0	0	0	0	0	0	0	0	0	0	0	0	0	0	0	0	0	0	0	0	0	0	0	0	0	0	0	0	0	0	0	0	0	0	0	0	0	0	0	0	1259	1263	1263	1263	1259	1254	1254	1249	1245	1245	1245	1245	1245	1245	1245	1245	1240	1236	1240	1240	1240	1236	1240	1240	1240	1240	1240	1240	1236	1236	1236	1236	1236	1236	1236	1236	1240	1236	1236	1236	1236	1236	1236	1236	1236	1232	1232	1236	1236	1134	1134	1131	1131	1131	1127	1127	1123	1120	1120	1120	1120	1120	1120	1123	1123	1123	1120	1120	1120	1120	1120	1120	1120	1120	1123	1123	1120	1120	1127	1123	1123	1120	1120	1120	1120	1120	1120	0	0	0	0	0	0	0	0	0	0	0	0	0	0	0	0	0	0	0	0	0	0	0	0	0	0	0	0	0	0	0	0	0	0	0	0	0	0	0	0	0
0	0	0	0	0	0	0	0	0	0	0	0	0	0	0	0	0	2297	2281	2297	2281	2281	2297	2297	0	0	0	0	0	0	0	0	0	0	0	0	0	0	0	0	2343	2312	2327	2327	2343	2327	2343	2327	2343	2327	2327	2343	2327	2327	2327	2327	2343	2327	2327	2343	2327	2343	2327	2327	2327	2327	2343	2343	2343	2343	2343	2343	2343	2343	2343	2343	2343	2343	2343	2343	2343	2359	2359	2376	2392	2409	2426	2443	2443	2460	2460	2478	2496	2514	2551	2551	2570	2609	2609	2629	2629	2711	2711	2733	2754	2754	2754	2754	2754	2754	2733	2711	2711	3864	3907	3907	3907	3907	3907	3907	3907	3907	3907	3907	3864	3821	3821	3821	3821	3779	3779	3821	3779	3779	3779	3779	3738	3738	3738	3738	3738	3738	3738	3738	3738	3738	3738	3738	3738	3738	3738	3779	3821	3779	3779	3821	3821	3821	3821	3821	3821	3907	3907	3907	3907	3907	3907	3907	3907	3952	3952	3952	3952	3952	3952	3952	3952	3952	3952	3998	3998	3998	4045	4093	4142	4192	4243	4243	4296	4296	4296	4296	4296	4296	4296	4296	4296	4296	4296	4296	4296	4350	4296	4296	4350	4406	4406	4521	4521	4463	4463	4406	4192	4142	4192	4142	4142	4243	4243	4463	4521	4521	4521	4521	4521	4521	4521	4521	4521	4521	4521	4521	4521	4521	4521	4521	4521	4521	4463	4521	4521	4521	4521	4521	4521	4581	4521	4581	4521	4521	4463	4406	4296	4192	4192	4192	4192	4192	4192	4142	4045	3779	3779	3779	3738	3738	3779	3779	3779	3779	3738	3738	3698	3698	3659	3659	3698	3738	3738	3779	3779	3738	3779	3779	3779	3779	3779	3779	3779	3779	3821	4142	4192	4192	4192	4243	4243	4243	4243	4243	4243	4243	4243	4192	4192	4192	4192	4192	4192	4192	4192	4243	4243	4243	4243	4243	4243	4243	4192	4192	4192	4192	4192	4192	4192	4192	4142	4142	4192	4142	4142	4142	4142	4142	4142	4142	4142	4142	4142	4142	4142	4192	4192	4192	4192	4192	4142	4192	4142	4142	4142	4142	4142	4142	4192	4142	4142	4192	4192	4192	4192	4192	4192	4192	4192	4192	4192	4192	4142	4142	4192	4192	4192	4142	4142	4142	4192	4192	4192	4192	4192	4192	4243	4192	4192	4192	4142	4093	4045	4045	4045	4045	0	0	0	0	0	0	0	0	0	0	0	0	0	0	0	0	0	0	0	0	0	0	0	0	0	0	4093	4093	4093	4093	4093	4093	4093	4093	4045	4045	3998	3952	3864	3821	3738	522	522	522	521	520	519	516	516	516	516	516	516	515	515	514	514	514	514	514	515	515	516	516	516	516	517	516	516	0	0	0	0	0	0	0	0	0	0	0	0	0	0	0	0	0	0	0	0	0	0	0	0	0	0	0	0	0	0	0	0	0	0	0	0	0	0	0	0	0	0	0	0	0	0	0	0	0	0	1249	1259	1263	1263	1263	1259	1254	1254	1249	1245	1245	1245	1245	1245	1245	1245	1240	1240	1236	1240	1240	1240	1236	1240	1240	1240	1240	1236	1236	1236	1232	1232	1232	1236	1236	1236	1236	1240	1236	1236	1236	1236	1236	1236	1232	1236	1236	1236	1236	1236	1134	1134	1134	1131	1131	1127	1127	1123	1120	1120	1120	1120	1120	1120	1123	1123	1120	1120	1120	1120	1120	1120	1120	1120	1120	1123	1123	1123	1123	1123	1123	1123	1120	1120	1120	1120	1120	1120	0	0	0	0	0	0	0	0	0	0	0	0	0	0	0	0	0	0	0	0	0	0	0	0	0	0	0	0	0	0	0	0	0	0	0	0	0	0	0	0	0
0	0	0	0	0	0	0	0	0	0	0	0	0	0	0	0	0	2297	2281	2281	2297	2312	2312	2297	2297	0	0	0	0	0	0	0	0	0	0	0	0	0	0	0	2327	2312	2343	2312	2312	2343	2327	2327	2343	2327	2343	2343	2327	2327	2327	2343	2327	2327	2327	2343	2327	2327	2327	2327	2327	2327	2327	2343	2343	2343	2343	2343	2343	2343	2343	2343	2343	2327	2327	2327	2343	2343	2343	2359	2376	2392	2426	2443	2460	2460	2460	2496	2514	2514	2551	2570	2570	2589	2609	2629	2649	2690	2711	2733	2754	2754	2754	2777	2754	2754	2733	2733	2733	3779	3821	3864	3864	3907	3907	3907	3907	3907	3907	3907	3907	3821	3821	3821	3821	3779	3779	3779	3779	3779	3738	3738	3738	3738	3738	3738	3738	3738	3738	3738	3738	3738	3738	3738	3738	3779	3738	3779	3864	3821	3821	3821	3779	3864	3864	3864	3864	3907	3907	3907	3907	3907	3907	3907	3952	3952	3952	3952	3952	3952	3952	3952	3952	3952	3952	3998	3998	3998	4045	4093	4142	4192	4243	4296	4296	4296	4296	4296	4296	4296	4296	4296	4243	4296	4296	4243	4296	4296	4296	4243	4296	4296	4521	4521	4463	4406	4350	4296	4192	4142	4192	4142	4142	4296	4463	4463	4521	4521	4521	4463	4521	4521	4521	4521	4521	4521	4521	4521	4521	4521	4521	4521	4521	4521	4463	4521	4521	4521	4521	4521	4521	4581	4521	4521	4521	4521	4463	4350	4296	4192	4192	4192	4192	4192	4142	4142	4093	4093	3779	3779	3738	3738	3738	3738	3779	3738	3738	3738	3738	3698	3698	3698	3698	3779	3779	3779	3779	3779	3779	3779	3779	3779	3779	3779	3779	3779	3821	4192	4192	4243	4243	4243	4243	4243	4243	4243	4192	4243	4192	4192	4192	4192	4192	4192	4192	4192	4192	4243	4243	4243	4243	4243	4243	4243	4192	4192	4192	4192	4192	4192	4192	4192	4142	4142	4192	4142	4142	4142	4093	4142	4142	4142	4142	4142	4192	4192	4192	4192	4192	4192	4192	4192	4192	4192	4192	4142	4142	4142	4142	4142	4192	4142	4142	4142	4192	4192	4192	4192	4192	4192	4192	4192	4192	4192	4192	4192	4192	4192	4192	4142	4142	4142	4142	4142	4192	4192	4192	4243	4192	4192	4192	4192	4142	4093	4045	4045	4045	4045	0	0	0	0	0	0	0	0	0	0	0	0	0	0	0	0	0	0	0	0	0	0	0	0	0	4045	4093	4093	4093	4093	4093	4093	4093	4093	4045	4045	3998	3907	3864	3779	3738	521	521	521	520	519	518	516	516	516	516	515	515	515	514	514	514	514	513	514	515	515	516	516	516	516	516	516	516	0	0	0	0	0	0	0	0	0	0	0	0	0	0	0	0	0	0	0	0	0	0	0	0	0	0	0	0	0	0	0	0	0	0	0	0	0	0	0	0	0	0	0	0	0	1236	1236	1236	1236	0	1254	1259	1263	1263	1263	1263	1259	1254	1249	1249	1245	1245	1245	1240	1240	1245	1240	1240	1236	1240	1240	1240	1236	1236	1236	1236	1236	1236	1236	1236	1232	1236	1236	1236	1236	1236	1236	1236	1236	1236	1236	1236	1236	1236	1236	1236	1236	1236	1236	1236	1134	1134	1134	1131	1131	1127	1127	1123	1120	1120	1120	1120	1120	1120	1120	1120	1120	1120	1120	1120	1120	1120	1120	1120	1120	1123	1123	1123	1123	1123	1123	1120	1120	1120	1120	1120	1120	1120	0	0	0	0	0	0	0	0	0	0	0	0	0	0	0	0	0	0	0	0	0	0	0	0	0	0	0	0	0	0	0	0	0	0	0	0	0	0	0	0	0
0	0	0	0	0	0	0	0	0	0	0	0	0	0	0	0	0	2312	2312	2312	2297	2297	2297	2297	2297	2297	0	0	0	0	0	0	0	0	0	0	0	0	0	0	2327	2312	2312	2312	2312	2343	2312	2343	2327	2327	2327	2327	2327	2327	2327	2343	2327	2327	2312	2343	2327	2327	2327	2327	2327	2327	2327	2327	2343	2327	2343	2343	2343	2343	2343	2327	2343	2343	2327	2327	2343	2343	2343	2359	2376	2392	2409	2426	2443	2460	2460	2496	2514	2532	2551	2551	2570	2589	2609	2629	2669	2690	2690	2733	2733	2733	2777	2777	2777	2777	2754	2733	2733	3821	3821	3864	3907	3907	3907	3907	3907	3907	3907	3907	3907	3821	3864	3821	3821	3779	3779	3779	3779	3779	3779	3779	3738	3779	3738	3779	3779	3738	3738	3738	3738	3738	3738	3738	3738	3779	3779	3821	3864	3821	3821	3821	3864	3864	3821	3821	3821	3821	3907	3907	3907	3907	3907	3907	3907	3907	3907	3907	3907	3952	3952	3952	3952	3952	3952	3998	3998	3998	4045	4093	4142	4192	4243	4243	4296	4296	4296	4296	4296	4296	4243	4243	4243	4296	4296	4243	4296	4296	4296	4243	4296	4296	4350	4406	4406	4350	4350	4296	4243	4192	4192	4142	4192	4350	4406	4463	4521	4521	4521	4521	4521	4521	4521	4521	4521	4521	4521	4521	4521	4521	4521	4521	4521	4521	4521	4521	4521	4521	4521	4521	4521	4581	4581	4581	4521	4463	4406	4296	4296	4192	4192	4192	4192	4192	4192	4142	4142	3779	3821	3779	3738	3738	3779	3779	3779	3779	3738	3779	3779	3738	3698	3738	3738	3779	3779	3779	3779	3779	3779	3779	3779	3779	3779	3779	3779	3779	3779	4243	4243	4243	4243	4243	4243	4243	4192	4192	4192	4192	4192	4192	4192	4192	4192	4192	4192	4192	4192	4192	4192	4142	4142	4192	4192	4192	4192	4192	4243	4192	4192	4192	4192	4192	4142	4142	4142	4142	4142	4142	4093	4142	4142	4142	4142	4142	4192	4192	4142	4192	4192	4192	4192	4192	4192	4192	4192	4142	4142	4142	4142	4142	4142	4142	4142	4142	4192	4142	4142	4142	4192	4142	4192	4192	4192	4192	4192	4192	4192	4192	4192	4142	4142	4142	4142	4142	4142	4192	4192	4192	4192	4192	4192	4192	4142	4093	4093	4045	4045	4045	0	0	0	0	0	0	0	0	0	0	0	0	0	0	0	0	0	0	0	0	0	0	0	0	4045	4045	4045	4093	4093	4093	4093	4093	4093	4093	4045	3998	3952	3864	3821	3779	522	521	521	521	519	519	517	516	516	516	515	514	514	514	513	514	513	513	513	513	514	515	516	516	516	516	516	516	516	0	0	0	0	0	0	0	0	0	0	0	0	0	0	0	0	0	0	0	0	0	0	0	0	0	0	0	0	0	0	0	0	0	0	0	0	0	0	0	0	0	0	0	1245	1240	1236	1232	1232	1232	1245	1249	1254	1263	1263	1263	1263	1259	1254	1254	1249	1249	1245	1245	1245	1240	1245	1240	1240	1236	1240	1240	1240	1236	1236	1236	1236	1236	1232	1232	1232	1232	1232	1236	1236	1236	1236	1236	1236	1236	1236	1236	1236	1232	1236	1236	1236	1236	1236	1236	1236	1138	1134	1134	1131	1131	1127	1123	1123	1120	1120	1120	1116	1120	1120	1120	1120	1120	1120	1120	1120	1120	1116	1120	1120	1120	1120	1120	1123	1123	1123	1123	1120	1120	1120	1120	1120	1120	1120	0	0	0	0	0	0	0	0	0	0	0	0	0	0	0	0	0	0	0	0	0	0	0	0	0	0	0	0	0	0	0	0	0	0	0	0	0	0	0	0	0
0	0	0	0	0	0	0	0	0	0	0	0	0	0	0	0	0	2312	2312	2312	2312	2312	2312	2297	2297	2297	2297	0	0	0	0	0	0	0	0	0	0	0	0	0	2327	2327	2312	2312	2312	2343	2343	2327	2327	2327	2327	2327	2327	2327	2327	2343	2343	2327	2327	2343	2327	2343	2327	2327	2327	2327	2327	2327	2327	2327	2327	2327	2343	2343	2327	2327	2343	2343	2327	2343	2343	2343	2343	2359	2376	2392	2409	2426	2478	2478	2496	2514	2514	2551	2551	2551	2570	2589	2609	2649	2669	2690	2711	2711	2733	2733	2733	2777	2777	2754	2754	2754	2754	2754	3738	3907	3907	3907	3907	3907	3907	3907	3952	3907	3907	3864	3864	3821	3821	3779	3779	3779	3779	3779	3779	3779	3779	3779	3779	3779	3779	3738	3738	3738	3738	3738	3738	3738	3738	3779	3779	3821	3864	3821	3821	3821	3821	3821	3821	3821	3821	3907	3864	3907	3864	3907	3907	3864	3907	3907	3907	3907	3907	3952	3952	3952	3952	3952	3952	3998	3998	3998	4045	4093	4142	4243	4243	4296	4296	4296	4296	4296	4296	4296	4296	4296	4243	4243	4243	4243	4243	4296	4243	4192	4192	4296	4350	4350	4406	4350	4350	4296	4243	4192	4192	4142	4243	4350	4463	4463	4521	4521	4521	4521	4521	4521	4521	4521	4521	4463	4521	4521	4521	4521	4521	4521	4521	4521	4463	4521	4521	4521	4521	4521	4521	4581	4581	4521	4521	4463	4406	4296	4243	4192	4142	4142	4192	4192	4142	4142	4142	4093	4045	3779	3779	3779	3779	3779	3779	3779	3738	3779	3779	3738	3738	3738	3779	3779	3779	3779	3779	3779	3779	3779	3779	3779	3779	3779	3779	3779	3779	4296	4243	4243	4243	4243	4243	4243	4192	4192	4192	4192	4192	4192	4192	4192	4192	4192	4192	4192	4192	4192	4142	4142	4142	4142	4192	4192	4142	4142	4192	4192	4192	4192	4192	4142	4142	4142	4142	4142	4142	4142	4142	4142	4142	4142	4142	4142	4192	4192	4142	4192	4192	4192	4192	4142	4142	4142	4142	4142	4142	4142	4142	4142	4142	4142	4142	4142	4142	4142	4142	4142	4142	4142	4142	4142	4192	4192	4192	4192	4243	4243	4192	4192	4192	4192	4192	4192	4192	4192	4192	4243	4243	4192	4192	4192	4142	4142	4093	4093	4093	0	0	0	0	0	0	0	0	0	0	0	0	0	0	0	0	0	0	0	0	0	0	0	0	0	3998	4045	4045	4045	4045	4093	4093	4093	4093	4093	4045	3998	3907	3821	3779	3779	521	521	521	520	519	519	516	516	515	515	514	513	513	514	513	513	513	513	513	513	514	515	516	514	514	516	516	516	0	0	0	0	0	0	0	0	0	0	0	0	0	0	0	0	0	0	0	0	0	0	0	0	0	0	0	0	0	0	0	0	0	0	0	0	0	0	0	0	0	0	0	0	1245	1236	1232	1232	1232	1236	1245	1249	1259	1263	1263	1263	1263	1259	1254	1254	1249	1249	1245	1245	1240	1240	1245	1240	1240	1240	1240	1240	1240	1236	1236	1232	1232	1232	1232	1232	1232	1232	1236	1236	1236	1236	1236	1236	1236	1236	1236	1232	1236	1232	1236	1236	1236	1236	1236	1236	1236	1138	1134	1134	1131	1131	1131	1127	1123	1120	1120	1120	1120	1120	1120	1120	1120	1120	1120	1120	1120	1120	1116	1116	1116	1120	1120	1120	1120	1120	1120	1120	1120	1120	1120	1120	1120	1120	1120	0	0	0	0	0	0	0	0	0	0	0	0	0	0	0	0	0	0	0	0	0	0	0	0	0	0	0	0	0	0	0	0	0	0	0	0	0	0	0	0	0
0	0	0	0	0	0	0	0	0	0	0	0	0	0	0	0	0	2312	2312	2312	2312	2312	2312	2297	2297	2312	2312	0	0	0	0	0	0	0	0	0	0	0	0	0	0	2327	2327	2327	2343	2343	2327	2327	2327	2327	2327	2327	2327	2327	2327	2327	2343	2343	2343	2343	2327	2343	2343	2327	2327	2327	2327	2327	2343	2327	2327	2327	2343	2327	2327	2327	2343	2327	2327	2327	2343	2343	2343	2376	2376	2392	2409	2426	2478	2478	2496	2514	2514	2532	2551	2551	2551	2570	2570	2669	2690	2711	2711	2711	2733	2733	2733	2777	2777	2754	2754	2754	3738	3738	3738	3779	3864	3864	3864	3864	3907	3907	3952	3907	3864	3864	3821	3821	3821	3779	3779	3779	3779	3779	3779	3779	3779	3779	3779	3779	3779	3738	3738	3738	3738	3779	3779	3779	3779	3779	3779	3779	3821	3779	3821	3821	3821	3821	3821	3821	3821	3864	3864	3864	3864	3864	3864	3864	3907	3907	3907	3907	3907	3952	3952	3952	3952	3952	3952	3998	3998	3998	4045	4093	4142	4192	4243	4296	4296	4296	4296	4296	4296	4296	4296	4296	4296	4296	4296	4243	4243	4243	4243	4243	4296	4350	4406	4463	4463	4406	4350	4350	4296	4192	4142	4142	4142	4296	4463	4463	4521	4521	4463	4521	4521	4521	4521	4521	4521	4521	4521	4521	4521	4521	4521	4521	4521	4521	4463	4521	4521	4521	4521	4521	4521	4581	4581	4521	4521	4463	4350	4243	4243	4192	4192	4192	4192	4142	4142	4142	4093	4093	3952	3821	3779	3738	3779	3738	3738	3738	3738	3738	3779	3738	3779	3779	3779	3779	3779	3779	3779	3779	3779	3779	3779	3779	3779	3779	3779	3779	3779	4243	4243	4192	4243	4243	4192	4192	4192	4192	4192	4192	4192	4192	4192	4192	4192	4192	4192	4192	4192	4142	4142	4142	4142	4142	4142	4192	4142	4142	4192	4192	4192	4142	4142	4142	4142	4142	4142	4142	4142	4142	4142	4142	4142	4142	4142	4142	4192	4192	4142	4192	4192	4192	4192	4192	4142	4142	4142	4142	4142	4142	4142	4142	4192	4142	4142	4142	4142	4142	4142	4142	4142	4142	4142	4192	4192	4192	4192	4192	4192	4192	4192	4192	4142	4192	4142	4142	4192	4192	4192	4243	4243	4243	4192	4192	4192	4142	4093	4093	4093	0	0	0	0	0	0	0	0	0	0	0	0	0	0	0	0	0	0	0	0	0	0	0	0	3952	3952	3998	4045	4045	4045	4093	4093	4093	4093	4093	3998	3952	3864	3779	3779	3738	519	519	519	519	519	517	516	516	515	514	513	513	513	513	513	513	513	513	513	513	513	514	515	514	514	514	516	0	0	0	0	0	0	0	0	0	0	0	0	0	0	0	0	0	0	0	0	0	0	0	0	0	0	0	0	0	0	0	0	0	0	0	0	0	0	0	0	0	0	0	0	0	1245	1240	1236	1232	1236	1236	1245	1249	1259	1263	1263	1263	1263	1259	1254	1254	1249	1249	1245	1245	1240	1240	1240	1240	1240	1236	1236	1236	1240	1236	1236	1232	1232	1232	1232	1232	1232	1232	1232	1236	1236	1236	1236	1236	1236	1232	1236	1232	1232	1232	1232	1232	1236	1236	1232	1232	1232	1232	1134	1134	1131	1131	1131	1127	1123	1123	1120	1120	1120	1120	1120	1120	1120	1120	1120	1120	1120	1120	1116	1116	1120	1120	1120	1120	1120	1120	1123	1123	1120	1120	1120	1120	1120	1123	1123	0	0	0	0	0	0	0	0	0	0	0	0	0	0	0	0	0	0	0	0	0	0	0	0	0	0	0	0	0	0	0	0	0	0	0	0	0	0	0	0	0
0	0	0	0	0	0	0	0	0	0	0	0	0	0	0	0	0	2312	2312	2312	2312	2312	2312	2312	2297	2312	2312	0	0	0	0	0	0	0	0	0	0	0	0	0	0	2327	2327	2327	2343	2343	2327	2327	2327	2327	2327	2327	2327	2327	2327	2343	2343	2327	2327	2327	2327	2343	2327	2327	2327	2327	2327	2327	2343	2327	2327	2327	2327	2327	2327	2327	2327	2327	2327	2327	2343	2343	2343	2376	2376	2392	2426	2443	2478	2478	2496	2514	2514	2551	2551	2551	2570	2570	2589	2589	2690	2690	2711	2711	2711	2733	2733	2754	2754	2754	2777	2777	3779	3779	3738	3779	3821	3864	3821	3821	3864	3907	3907	3907	3864	3821	3821	3821	3821	3779	3779	3779	3779	3779	3779	3779	3779	3779	3779	3779	3738	3738	3738	3738	3738	3779	3779	3779	3779	3779	3779	3779	3779	3779	3779	3779	3821	3821	3821	3821	3821	3864	3864	3864	3864	3907	3907	3907	3907	3907	3907	3907	3907	3952	3952	3952	3952	3952	3952	3998	3998	3998	3998	4093	4192	4243	4296	4296	4296	4296	4296	4296	4296	4296	4296	4243	4296	4296	4296	4296	4296	4296	4296	4243	4296	4350	4406	4406	4463	4463	4350	4350	4243	4192	4142	4142	4142	4350	4463	4463	4521	4521	4463	4463	4463	4463	4463	4521	4521	4521	4521	4521	4521	4521	4521	4521	4521	4521	4463	4521	4521	4521	4521	4521	4521	4521	4521	4521	4521	4463	4350	4243	4243	4192	4142	4142	4142	4142	4142	4093	4093	3998	3907	3779	3779	3738	3738	3738	3738	3738	3738	3738	3738	3779	3779	3779	4243	3779	3779	3779	3779	3779	3779	3779	3779	3779	3779	3779	3779	3779	3779	4243	4192	4192	4192	4192	4192	4192	4192	4192	4192	4192	4192	4192	4192	4192	4192	4192	4192	4192	4192	4192	4142	4142	4142	4142	4142	4142	4142	4142	4192	4192	4142	4142	4192	4142	4142	4142	4142	4142	4142	4142	4142	4192	4142	4142	4142	4142	4192	4192	4142	4192	4192	4192	4192	4192	4142	4142	4142	4142	4093	4093	4093	4142	4142	4142	4142	4142	4142	4142	4142	4142	4142	4142	4142	4192	4192	4192	4192	4192	4192	4192	4192	4142	4142	4192	4192	4142	4192	4192	4243	4243	4243	4243	4243	4192	4192	4142	4093	4093	4093	0	0	0	0	0	0	0	0	0	0	0	0	0	0	0	0	0	0	0	0	0	0	0	3907	3952	3998	3998	4045	4045	4045	4045	4093	4093	4093	4045	3998	3952	3864	3779	3779	3738	519	519	519	519	518	516	516	515	514	514	513	513	513	513	513	513	513	513	513	513	513	514	515	514	515	515	0	0	0	0	0	0	0	0	0	0	0	0	0	0	0	0	0	0	0	0	0	0	0	0	0	0	0	0	0	0	0	0	0	0	0	0	0	0	0	0	0	0	0	0	0	0	0	1240	1236	1232	1236	1236	1245	1245	1263	1263	1263	1263	1263	1263	1259	1254	1249	1249	1245	1245	1240	1240	1240	1240	1240	1236	1236	1240	1240	1236	1232	1232	1232	1232	1232	1232	1232	1232	1232	1236	1236	1236	1236	1232	1232	1232	1232	1232	1232	1232	1232	1232	1236	1236	1232	1232	1232	1232	1134	1134	1131	1131	1131	1127	1123	1123	1120	1120	1116	1120	1120	1120	1120	1120	1120	1120	1120	1116	1116	1116	1116	1116	1120	1120	1120	1120	1123	1123	1120	1120	1120	1120	1120	1120	1120	0	0	0	0	0	0	0	0	0	0	0	0	0	0	0	0	0	0	0	0	0	0	0	0	0	0	0	0	0	0	0	0	0	0	0	0	0	0	0	0	0
0	0	0	0	0	0	0	0	0	0	0	0	0	0	0	0	0	2312	2312	2312	2312	2312	2312	2312	2297	2312	2297	2297	0	0	0	0	0	0	0	0	0	0	0	0	0	2327	2327	2327	2327	2327	2327	2327	2327	2327	2327	2327	2327	2327	2327	2343	2343	2327	2327	2327	2327	2343	2343	2343	2343	2327	2343	2343	2343	2327	2343	2327	2343	2343	2343	2327	2327	2327	2327	2327	2343	2343	2359	2376	2392	2409	2426	2443	2460	2478	2496	2496	2514	2532	2532	2551	2551	2589	2609	2690	2690	2690	2690	2711	2711	2711	2733	2733	2754	2754	2754	2754	3779	3779	3779	3779	3821	3864	3864	3864	3864	3907	3907	3907	3864	3821	3821	3821	3821	3779	3779	3779	3779	3779	3779	3779	3779	3779	3779	3738	3738	3738	3738	3738	3738	3779	3738	3738	3738	3779	3779	3779	3779	3779	3779	3779	3821	3821	3821	3821	3864	3864	3864	3864	3864	3907	3907	3907	3907	3907	3907	3907	3907	3907	3952	3952	3952	3952	3952	3952	3952	3952	3998	4045	4142	4192	4296	4296	4296	4296	4296	4296	4296	4296	4296	4296	4296	4296	4296	4243	4296	4296	4296	4243	4243	4350	4350	4350	4406	4350	4350	4296	4243	4142	4142	4093	4093	4350	4521	4521	4521	4521	4521	4463	4463	4463	4521	4521	4521	4521	4521	4521	4521	4521	4521	4521	4521	4521	4521	4521	4521	4521	4521	4521	4521	4581	4581	4521	4521	4463	4350	4296	4243	4192	4192	4192	4192	4142	4142	4093	4045	3998	3907	3821	3779	3779	3738	3738	3738	3738	3738	3738	3738	3738	3738	4243	4243	3779	3779	3779	3779	3779	3779	3779	3779	3779	3779	3779	3779	3821	4142	4192	4192	4142	4142	4142	4142	4192	4192	4192	4192	4192	4192	4192	4192	4192	4192	4192	4192	4192	4192	4192	4142	4142	4142	4142	4142	4142	4093	4142	4142	4192	4142	4142	4192	4192	4142	4142	4142	4142	4142	4142	4142	4142	4192	4142	4142	4142	4192	4192	4142	4192	4192	4192	4192	4142	4142	4142	4142	4093	4093	4093	4142	4142	4142	4142	4142	4142	4142	4142	4142	4093	4093	4142	4093	4142	4192	4192	4192	4192	4192	4192	4192	4142	4142	4142	4142	4142	4192	4192	4243	4243	4243	4243	4243	4192	4192	4142	4142	4093	0	0	0	0	0	0	0	0	0	0	0	0	0	0	0	0	0	0	0	0	0	0	0	0	3907	3907	3998	3998	3998	4045	4045	4045	4093	4093	4045	4045	4045	3907	3821	3779	3779	3738	519	519	519	518	518	517	516	515	515	514	513	513	513	513	513	513	513	513	513	513	513	514	515	514	514	515	0	0	0	0	0	0	0	0	0	0	0	0	0	0	0	0	0	0	0	0	0	0	0	0	0	0	0	0	0	0	0	0	0	0	0	0	0	0	0	0	0	0	0	0	0	0	0	1240	1240	1240	1240	1240	1245	1245	1259	1263	1263	1263	1263	1263	1259	1254	1254	1249	1245	1245	1245	1240	1240	1240	1240	1236	1236	1240	1240	1236	1236	1232	1232	1232	1232	1232	1232	1232	1232	1236	1236	1232	1236	1236	1232	1232	1232	1232	1232	1232	1232	1232	1232	1232	1232	1232	1232	1232	1134	1134	1131	1131	1131	1127	1123	1120	1120	1116	1116	1116	1116	1116	1116	1120	1120	1120	1120	1116	1116	1116	1120	1120	1120	1120	1120	1120	1120	1120	1120	1120	1120	1120	1120	1123	1123	0	0	0	0	0	0	0	0	0	0	0	0	0	0	0	0	0	0	0	0	0	0	0	0	0	0	0	0	0	0	0	0	0	0	0	0	0	0	0	0	0
0	0	0	0	0	0	0	0	0	0	0	0	0	0	0	0	0	2312	2297	2312	2312	2312	2312	2312	2297	2312	2297	2297	0	0	0	0	0	0	0	0	0	0	0	0	0	2327	2327	2327	2327	2343	2327	2327	2327	2327	2327	2327	2327	2327	2327	2343	2343	2327	2327	2343	2327	2343	2343	2343	2343	2343	2343	2343	2343	2327	2343	2343	2327	2343	2327	2327	2327	2327	2327	2327	2343	2343	2359	2392	2392	2409	2426	2443	2460	2460	2478	2478	2514	2532	2551	2551	2570	2570	2589	2690	2690	2690	2711	2711	2711	2733	2733	2733	2754	2754	2777	2777	3779	3779	3779	3779	3864	3864	3864	3864	3864	3907	3907	3907	3864	3821	3821	3821	3779	3779	3779	3779	3779	3779	3779	3779	3779	3779	3779	3779	3779	3779	3738	3779	3779	3779	3779	3779	3779	3779	3779	3779	3779	3779	3779	3779	3821	3821	3821	3821	3864	3864	3864	3864	3864	3864	3907	3907	3907	3907	3907	3907	3907	3907	3907	3907	3907	3907	3907	3952	3952	3952	3998	3998	3998	3738	3738	3738	4350	4350	4350	4350	4350	4350	4296	4296	4296	4296	4296	4296	4296	4296	4296	4243	4243	4296	4350	4350	4350	4350	4296	4296	4243	4142	4093	4045	4045	4521	4521	4521	4581	4581	4521	4463	4463	4463	4463	4521	4521	4521	4521	4521	4521	4521	4521	4521	4521	4521	4521	4521	4521	4521	4521	4521	4521	4521	4521	4521	4463	4406	4350	4296	4243	4243	4192	4192	4142	4142	4093	4093	4045	3998	3864	3821	3779	3779	3779	3738	3738	3738	3738	3738	3738	3738	4296	4243	4243	3821	3821	3779	3779	3779	3779	3779	3779	3779	3779	3779	3779	3821	4142	4142	4142	4142	4142	4142	4142	4192	4192	4192	4192	4192	4192	4192	4192	4192	4192	4142	4192	4192	4192	4192	4142	4142	4142	4142	4142	4142	4093	4093	4093	4142	4142	4142	4192	4192	4142	4192	4142	4192	4142	4192	4192	4192	4192	4142	4142	4192	4192	4192	4142	4142	4142	4192	4192	4142	4142	4142	4093	4093	4093	4093	4142	4142	4142	4142	4142	4142	4142	4142	4142	4093	4142	4093	4093	4142	4142	4142	4142	4142	4192	4192	4142	4142	4142	4142	4142	4142	4192	4243	4243	4243	4243	4243	4243	4243	4243	4192	4192	0	0	0	0	0	0	0	0	0	0	0	0	0	0	0	0	0	0	0	0	0	0	0	0	0	0	3952	3998	3998	3998	4045	4045	4045	4045	4045	4045	4045	3998	3907	3821	3779	3738	3738	3738	518	517	517	516	516	516	515	515	514	513	513	513	513	512	512	512	513	513	513	513	513	514	514	515	515	0	0	0	0	0	0	0	0	0	0	0	0	0	0	0	0	0	0	0	0	0	0	0	0	0	0	0	0	0	0	0	0	0	0	0	0	0	0	0	0	0	0	0	0	0	0	0	1245	1240	1240	1240	1240	1245	1245	1263	1263	1263	1263	1263	1263	1259	1254	1254	1249	1245	1245	1245	1240	1240	1240	1245	1240	1240	1236	1236	1236	1236	1232	1232	1236	1232	1232	1232	1232	1236	1236	1240	1236	1236	1236	1232	1232	1232	1232	1232	1232	1232	1232	1232	1232	1232	1232	1232	1232	1131	1131	1131	1131	1131	1127	1123	1120	1116	1116	1116	1116	1116	1116	1116	1116	1120	1120	1120	1116	1116	1116	1116	1120	1120	1120	1120	1120	1120	1120	1120	1123	1123	1123	1120	1123	1123	0	0	0	0	0	0	0	0	0	0	0	0	0	0	0	0	0	0	0	0	0	0	0	0	0	0	0	0	0	0	0	0	0	0	0	0	0	0	0	0	0
0	0	0	0	0	0	0	0	0	0	0	0	0	0	0	0	0	2312	2312	2312	2312	2312	2297	2297	2297	2297	2281	2281	0	0	0	0	0	0	0	0	0	0	0	0	0	2312	2312	2327	2312	2327	2327	2327	2327	2327	2327	2312	2327	2327	2327	2297	2327	2327	2327	2327	2327	2343	2343	2343	2343	2343	2343	2343	2343	2343	2343	2343	2343	2343	2327	2327	2327	2343	2327	2327	2343	2343	2359	2376	2392	2409	2409	2426	2460	2478	2496	2514	2514	2532	2551	2551	2570	2551	2570	2690	2711	2690	2711	2711	2711	2733	2733	2733	2733	2733	2733	2733	3821	3779	3779	3779	3821	3864	3864	3864	3864	3864	3907	3864	3821	3821	3821	3821	3779	3779	3779	3779	3779	3779	3779	3779	3779	3779	3779	3779	3779	3738	3738	3738	3779	3779	3779	3779	3779	3779	3779	3779	3779	3779	3779	3779	3779	3779	3779	3821	3821	3821	3821	3821	3821	3864	3864	3864	3864	3907	3907	3907	3864	3864	3864	3907	3864	3907	3907	3907	3907	3864	3864	3864	3952	3738	3738	3738	3659	3659	4350	4350	4350	4350	4350	4350	4296	4296	4296	4296	4296	4296	4296	4243	4243	4296	4296	4350	4350	4350	4296	4296	4243	4142	4142	4093	4093	4521	4521	4521	4521	4521	4521	4521	4463	4463	4521	4521	4521	4521	4521	4521	4521	4521	4521	4521	4521	4521	4521	4521	4521	4521	4521	4521	4521	4521	4521	4521	4463	4406	4350	4296	4243	4243	4192	4192	4142	4142	4142	4093	4093	4045	3952	3821	3779	3779	3779	3738	3738	3738	3738	3738	3779	3738	4192	4192	4192	4142	3821	3821	3779	3779	3779	3779	3779	3779	3779	3779	3779	4142	4192	4192	4192	4142	4142	4142	4142	4192	4192	4192	4192	4192	4192	4192	4192	4192	4142	4142	4142	4142	4142	4142	4142	4142	4142	4142	4142	4142	4093	4093	4093	4142	4142	4142	4142	4192	4192	4192	4192	4192	4192	4192	4192	4192	4192	4192	4192	4192	4192	4192	4142	4192	4192	4192	4192	4142	4142	4142	4142	4093	4093	4093	4142	4142	4142	4142	4142	4142	4142	4142	4142	4142	4142	4142	4142	4142	4142	4142	4142	4142	4142	4142	4142	4142	4142	4142	4142	4142	4192	4243	4243	4243	4243	4243	4243	4243	4243	4243	4243	0	0	0	0	0	0	0	0	0	0	0	0	0	0	0	0	0	0	0	0	0	0	0	0	0	3907	3998	4045	4045	3998	4045	4045	4045	4045	4045	4045	3998	3998	3864	3821	3779	3738	3738	3738	517	517	517	516	516	516	515	514	514	513	513	513	513	512	512	512	513	513	513	513	513	514	514	515	515	0	0	0	0	0	0	0	0	0	0	0	0	0	0	0	0	0	0	0	0	0	0	0	0	0	0	0	0	0	0	0	0	0	0	0	0	0	0	0	0	0	0	0	0	0	1245	1245	1245	1245	1245	1245	1245	1245	1245	1263	1263	1263	1263	1263	1259	1254	1254	1249	1249	1245	1245	1245	1240	1240	1240	1240	1240	1240	1236	1236	1232	1232	1232	1232	1236	1232	1232	1232	1232	1232	1236	1236	1236	1236	1236	1232	1232	1232	1232	1232	1232	1232	1232	1236	1236	1232	1236	1236	1236	1127	1131	1131	1127	1127	1127	1123	1120	1116	1116	1116	1116	1116	1116	1116	1116	1116	1116	1116	1120	1120	1120	1120	1120	1120	1120	1120	1120	1120	1120	1120	1120	1120	1120	1120	1123	1123	0	0	0	0	0	0	0	0	0	0	0	0	0	0	0	0	0	0	0	0	0	0	0	0	0	0	0	0	0	0	0	0	0	0	0	0	0	0	0	0	0
0	0	0	0	0	0	0	0	0	0	0	0	0	0	0	0	0	2312	2312	2312	2312	2297	2297	2297	2281	2297	2281	2281	0	0	0	0	0	0	0	0	0	2297	2297	2297	2297	2312	2327	2327	2327	2327	2327	2327	2327	2327	2327	2327	2327	2327	2297	2297	2312	2327	2327	2327	2327	2343	2343	2343	2343	2343	2343	2343	2343	2343	2343	2343	2343	2343	2327	2327	2343	2343	2327	2327	2327	2343	2343	2359	2376	2409	2443	2426	2460	2460	2478	2514	2514	2532	2532	2551	2551	2551	2551	2711	2711	2711	2711	2711	2711	2733	2733	2733	2733	2733	2733	2711	2711	3821	3779	3864	3864	3864	3864	3864	3864	3864	3864	3864	3821	3821	3821	3779	3779	3779	3779	3779	3779	3779	3779	3779	3779	3779	3779	3779	3779	3738	3738	3738	3779	3779	3738	3738	3738	3738	3779	3779	3738	3779	3779	3779	3779	3779	3779	3821	3821	3864	3864	3821	3864	3864	3864	3864	3864	3864	3864	3864	3864	3821	3821	3821	3821	3779	3779	3779	3821	3821	3821	3738	3698	3738	3738	3738	3659	3659	3659	4463	4463	4406	4350	4350	4350	4296	4296	4296	4296	4296	4296	4243	4243	4296	4296	4296	4350	4296	4296	4243	4192	4192	4142	4142	4581	4521	4521	4521	4521	4521	4521	4521	4521	4521	4521	4521	4521	4521	4521	4521	4521	4521	4521	4521	4521	4521	4521	4521	4521	4521	4521	4521	4521	4521	4521	4463	4406	4350	4350	4243	4243	4192	4192	4142	4142	4142	4093	4093	4093	4045	3952	3821	3779	3779	3779	3738	3738	3738	3738	3738	3738	3738	4192	4192	4192	4045	3821	3779	3779	3779	3779	3779	3779	3779	3779	3779	3864	3864	4142	4142	4142	4142	4142	4142	4142	4192	4192	4192	4243	4243	4243	4192	4192	4192	4142	4142	4142	4142	4142	4142	4142	4142	4192	4142	4142	4142	4093	4093	4093	4142	4142	4142	4142	4192	4192	4192	4142	4192	4192	4192	4192	4192	4192	4142	4192	4192	4192	4142	4192	4192	4192	4192	4192	4142	4142	4142	4142	4142	4142	4142	4142	4142	4142	4142	4142	4142	4093	4142	4142	4142	4142	4142	4142	4142	4142	4142	4142	4142	4142	4142	4142	4142	4142	4142	4142	4142	4192	4243	4243	4243	4243	4243	4243	4243	4296	4296	4243	0	0	0	0	0	0	0	0	0	0	0	0	0	0	0	0	0	0	0	0	0	0	0	0	0	3952	3998	4045	4045	4045	4045	4045	4045	4045	4045	4045	3998	3998	3864	3821	3779	517	517	516	516	516	516	516	516	515	514	514	514	513	513	512	512	511	512	512	513	513	513	513	514	514	514	515	515	0	0	0	0	0	0	0	0	0	0	0	0	0	0	0	0	0	0	0	0	0	0	0	0	0	0	0	0	0	0	0	0	0	0	0	0	0	0	0	0	0	0	0	0	0	1245	1245	1245	1245	1245	1249	1249	1249	1277	1277	1268	1268	1268	1263	1263	1259	1254	1249	1249	1245	1245	1245	1240	1240	1240	1240	1236	1236	1232	1236	1232	1236	1236	1236	1236	1236	1236	1232	1232	1232	1236	1240	1236	1236	1236	1236	1232	1232	1232	1232	1227	1227	1232	1232	1232	1232	1232	1232	1232	1127	1127	1127	1127	1127	1123	1123	1120	1116	1116	1116	1116	1116	1116	1116	1116	1116	1120	1116	1120	1120	1120	1120	1120	1120	1120	1120	1120	1120	1120	1120	1120	1120	1120	1120	1120	1123	1123	0	0	0	0	0	0	0	0	0	0	0	0	0	0	0	0	0	0	0	0	0	0	0	0	0	0	0	0	0	0	0	0	0	0	0	0	0	0	0	0
0	0	0	0	0	0	0	0	0	0	0	0	0	0	0	0	0	2312	2312	2312	2312	2312	2312	2297	2297	2297	2281	2312	2312	0	0	0	0	0	0	2281	2297	2312	2281	2281	2281	2297	2312	2327	2312	2327	2312	2327	2312	2312	2312	2312	2312	2297	2297	2297	2297	2327	2327	2327	2327	2327	2327	2343	2343	2343	2343	2343	2343	2343	2343	2343	2327	2343	2327	2327	2327	2343	2327	2327	2327	2343	2343	2359	2376	2409	2443	2426	2443	2460	2478	2496	2514	2532	2532	2532	2551	2551	2551	2711	2711	2711	2711	2711	2711	2733	2733	2711	2733	2711	2733	2733	2711	3821	3779	3864	3864	3864	3821	3821	3864	3864	3864	3864	3821	3821	3821	3779	3779	3779	3779	3779	3779	3779	3779	3779	3779	3779	3779	3779	3779	3779	3779	3779	3779	3779	3738	3738	3738	3738	3779	3779	3779	3779	3779	3779	3821	3821	3821	3821	3864	3864	3864	3864	3864	3864	3907	3907	3864	3864	3821	3821	3779	3738	3738	3738	3738	3738	3738	3738	3738	3738	3738	3738	3698	3698	3698	3698	3659	3659	3659	3698	4521	4521	4406	4406	4350	4296	4296	4296	4296	4296	4296	4243	4296	4296	4296	4296	4296	4296	4243	4192	4192	4192	4142	4142	4581	4581	4581	4521	4581	4581	4521	4521	4521	4521	4521	4521	4521	4521	4521	4521	4463	4521	4463	4521	4521	4521	4521	4521	4521	4521	4521	4463	4521	4463	4463	4406	4350	4296	4296	4243	4192	4192	4192	4192	4142	4142	4093	4142	4093	4093	3952	3864	3779	3779	3738	3738	3738	3738	3698	3738	3738	3698	3698	4093	4093	4045	3821	3779	3779	3779	3779	3779	3779	3779	3779	3821	3821	4142	4142	4142	4142	4142	4142	4142	4142	4192	4192	4192	4243	4243	4243	4192	4192	4142	4142	4142	4142	4142	4142	4192	4192	4192	4192	4142	4192	4192	4093	4093	4093	4142	4142	4142	4142	4192	4192	4192	4192	4192	4192	4192	4192	4192	4192	4192	4192	4192	4142	4142	4142	4142	4192	4192	4192	4142	4142	4142	4142	4142	4142	4192	4142	4192	4142	4192	4192	4142	4142	4142	4142	4142	4142	4142	4142	4142	4142	4142	4142	4142	4142	4142	4093	4142	4142	4142	4142	4142	4192	4243	4243	4243	4243	4243	4243	4243	4243	4296	0	0	0	0	0	0	0	0	0	0	0	0	0	0	0	0	0	0	0	0	0	0	0	0	0	0	3952	4045	4045	4045	4045	4045	4045	4045	4045	4045	4045	3998	3952	3864	3779	3779	517	517	516	516	516	516	516	515	514	514	513	513	513	513	511	512	511	512	513	513	513	513	513	514	514	514	514	515	0	0	0	0	0	0	0	0	0	0	0	0	0	0	0	0	0	0	0	0	0	0	0	0	0	0	0	0	0	0	0	0	0	0	0	0	0	0	0	0	0	0	0	0	0	1245	1249	1249	1249	1249	1249	1249	1272	1277	1277	1282	1282	1268	1268	1263	1259	1254	1249	1249	1245	1245	1245	1240	1240	1240	1236	1236	1232	1232	1236	1236	1236	1236	1236	1240	1236	1236	1232	1232	1232	1236	1236	1236	1236	1236	1232	1232	1232	1232	1232	1232	1232	1232	1232	1232	1232	1232	1232	1232	1232	1127	1127	1127	1127	1123	1123	1120	1116	1116	1116	1116	1116	1116	1116	1113	1116	1116	1116	1116	1116	1120	1120	1120	1120	1120	1120	1120	1120	1120	1120	1120	1120	1120	1120	1120	1123	1123	0	0	0	0	0	0	0	0	0	0	0	0	0	0	0	0	0	0	0	0	0	0	0	0	0	0	0	0	0	0	0	0	0	0	0	0	0	0	0	0
0	0	0	0	0	0	0	0	0	0	0	0	0	0	0	0	0	2297	2297	2312	2312	2312	2312	2312	2297	2312	2312	2312	2312	0	0	0	0	0	2327	2312	2312	2312	2297	2297	2281	2281	2297	2327	2297	2327	2327	2327	2327	2327	2327	2312	2327	2297	2297	2297	2297	2297	2297	2312	2312	2327	2327	2327	2327	2327	2343	2327	2343	2343	2343	2343	2327	2343	2327	2327	2327	2327	2327	2327	2327	2343	2359	2359	2392	2426	2443	2443	2443	2460	2478	2496	2514	2532	2551	2551	2551	2551	2551	2711	2733	2711	2733	2733	2733	2733	2733	2711	2711	2711	2733	2733	0	3952	3821	3864	3864	3864	3864	3864	3864	3864	3864	3864	3821	3821	3821	3779	3779	3779	3779	3779	3738	3779	3738	3779	3779	3779	3738	3779	3779	3779	3779	3779	3779	3779	3738	3738	3738	3738	3779	3779	3779	3779	3779	3821	3821	3821	3821	3821	3864	3864	3864	3864	3864	3907	3907	3907	3821	3821	3821	3738	3738	3698	3698	3698	3698	3698	3698	3698	3698	3698	3698	3698	3698	3698	3659	3659	3659	3659	3659	3659	3659	4521	4463	4463	4350	4243	4243	4243	4243	4243	4243	4243	4243	4243	4296	4296	4296	4296	4243	4192	4192	4142	4142	4142	4142	4142	4463	4463	4463	4521	4521	4521	4521	4521	4521	4521	4521	4521	4521	4521	4463	4521	4463	4463	4521	4521	4521	4521	4521	4521	4521	4463	4463	4406	4406	4350	4296	4296	4296	4243	4192	4192	4192	4192	4192	4142	4142	4142	4142	4093	4045	3907	3779	3779	3779	3738	3738	3738	3738	3738	3698	3698	3698	4093	4093	3998	3821	3821	3779	3779	3779	3779	3779	3779	3779	3821	4142	4142	4142	4142	4142	4142	4142	4142	4142	4192	4192	4192	4243	4192	4192	4192	4192	4192	4142	4142	4142	4192	4192	4192	4192	4192	4243	4192	4192	4192	4093	4093	4093	4142	4142	4142	4142	4192	4192	4243	4192	4243	4192	4192	4192	4192	4192	4192	4192	4192	4142	4142	4142	4142	4192	4192	4192	4142	4142	4142	4142	4142	4142	4192	4192	4192	4192	4192	4192	4192	4142	4142	4142	4142	4142	4142	4142	4142	4142	4142	4142	4142	4142	4142	4093	4142	4142	4142	4142	4142	4192	4243	4243	4243	4243	4243	4243	4243	4243	4296	0	0	0	0	0	0	0	0	0	0	0	0	0	0	0	0	0	0	0	0	0	0	0	0	0	0	3907	4045	4045	4045	4045	4045	4045	4045	4045	4045	3998	3952	3907	3864	3779	3779	3738	516	516	516	516	516	515	515	513	513	513	513	513	513	511	512	511	512	513	513	513	513	514	514	514	514	514	0	0	0	0	0	0	0	0	0	0	0	0	0	0	0	0	0	0	0	0	0	0	0	0	0	0	0	0	0	0	0	0	0	0	0	0	0	0	0	0	0	0	0	0	0	0	1245	1245	1249	1254	1249	1249	1272	1277	1277	1282	1282	1282	0	1268	1263	1259	1254	1249	1249	1245	1245	1245	1245	1240	1240	1240	1236	1236	1236	1236	1236	1236	1236	1236	1236	1236	1236	1232	1232	1232	1232	1236	1232	1236	1236	1236	1236	1232	1232	1232	1232	1227	1232	1232	1232	1232	1232	1232	1232	1123	1123	1123	1123	1123	1123	1120	1120	1116	1116	1113	1113	1113	1113	1113	1113	1113	1116	1116	1116	1116	1116	1120	1116	1116	1116	1120	1116	1116	1116	1120	1120	1120	1120	1120	1120	1120	1123	0	0	0	0	0	0	0	0	0	0	0	0	0	0	0	0	0	0	0	0	0	0	0	0	0	0	0	0	0	0	0	0	0	0	0	0	0	0	0	0
0	0	0	0	0	0	0	0	0	0	0	0	0	0	0	0	0	2297	2297	2297	2312	2312	2312	2297	2297	2297	2297	2312	2312	0	0	0	0	0	2327	2327	2312	2312	2297	2281	2281	2281	2281	2297	2281	2297	2312	2327	2312	2312	2312	2312	2312	2297	2297	2297	2297	2297	2297	2312	2327	2327	2327	2327	2327	2327	2327	2327	2327	2327	2327	2343	2327	2327	2327	2327	2327	2343	2327	2327	2343	2343	2359	2359	2409	2426	2443	2443	2443	2460	2478	2478	2532	2532	2551	2551	2551	2551	2551	2690	2711	2711	2711	2711	2711	2733	2733	2733	2733	2733	2733	2733	2733	3952	3864	3907	3864	3821	3821	3864	3864	3864	3907	3864	3864	3864	3821	3779	3779	3779	3779	3779	3738	3779	3738	3779	3779	3738	3738	3779	3779	3779	3779	3738	3779	3738	3738	3738	3738	3738	3738	3779	3779	3779	3779	3821	3821	3821	3821	3821	3821	3864	3821	3864	3864	3864	3864	3779	3738	3738	3698	3698	3659	3698	3698	3659	3659	3698	3698	3698	3698	3659	3659	3659	3659	3659	3659	3698	3659	3659	3659	3659	3659	4521	4463	4406	4296	4296	4192	4192	4192	4243	4192	4192	4192	4192	4192	4243	4243	4243	4192	4192	4142	4142	4142	4142	4142	4142	4350	4406	4463	4463	4463	4521	4521	4521	4581	4521	4521	4521	4521	4521	4463	4406	4406	4406	4463	4463	4463	4521	4463	4463	4463	4350	4350	4296	4296	4296	4296	4296	4296	4243	4243	4243	4192	4192	4192	4142	4142	4142	4142	4093	4093	3998	3821	3779	3779	3738	3738	3738	3738	3738	3698	3698	3698	4045	4045	3952	3821	3821	3779	3779	3779	3779	3779	3779	3779	3864	4142	4192	4142	4142	4142	4142	4142	4142	4142	4192	4192	4192	4192	4192	4192	4192	4192	4142	4142	4142	4192	4192	4192	4243	4243	4243	4192	4192	4192	4192	4093	4093	4093	4142	4192	4192	4192	4243	4243	4243	4192	4243	4192	4192	4192	4192	4192	4192	4192	4192	4142	4142	4142	4142	4192	4192	4192	4192	4192	4192	4192	4192	4192	4192	4192	4192	4192	4192	4192	4192	4192	4142	4192	4192	4192	4192	4192	4192	4142	4192	4142	4192	4142	4142	4142	4142	4192	4192	4192	4192	4243	4243	4243	4243	4243	4243	4243	4243	4243	0	0	0	0	0	0	0	0	0	0	0	0	0	0	0	0	0	0	0	0	0	0	0	0	0	0	0	3907	3998	3998	4045	4045	4045	4045	4045	4045	4045	3998	3952	3907	3864	3779	3779	516	516	516	516	516	515	514	514	513	513	512	512	511	511	511	511	511	512	513	513	513	513	513	514	514	514	514	0	0	0	0	0	0	0	0	0	0	0	0	0	0	0	0	0	0	0	0	0	0	0	0	0	0	0	0	0	0	0	0	0	0	0	0	0	0	0	0	0	0	0	0	0	0	0	1245	1249	1254	1259	1268	1277	1277	1277	1277	1282	1282	0	0	0	0	1254	1249	1249	1245	1245	1245	1240	1240	1240	1236	1236	1236	1236	1236	1236	1236	1236	1236	1236	1236	1236	1232	1232	1232	1232	1236	1232	1236	1236	1236	1236	1232	1232	1232	1232	1227	1227	1227	1227	1227	1227	1232	1232	1232	1232	1134	1123	1123	1120	1120	1120	1116	1113	1113	1113	1113	1113	1113	1113	1113	1116	1116	1116	1116	1116	1120	1116	1116	1116	1116	1116	1116	1116	1116	1116	1120	1120	1120	1120	1120	1120	0	0	0	0	0	0	0	0	0	0	0	0	0	0	0	0	0	0	0	0	0	0	0	0	0	0	0	0	0	0	0	0	0	0	0	0	0	0	0	0
0	0	0	0	0	0	0	0	0	0	0	0	0	0	0	0	0	2297	2312	2312	2297	2297	2297	2297	2281	2281	2281	2281	2312	0	0	0	0	0	2327	2327	2312	2312	2297	2266	2266	2266	2281	2281	2281	2281	2297	2312	2312	2312	2312	2297	2312	2297	2297	2297	2297	2297	2297	2312	2327	2327	2327	2327	2327	2327	2327	2327	2327	2327	2327	2343	2327	2343	2343	2327	2343	2343	2327	2343	2343	2359	2376	2359	2376	2409	2426	2409	2443	2460	2478	2514	2532	2532	2551	2551	2551	2551	2551	2669	2690	2711	2711	2711	2733	2733	2733	2733	2733	2754	2754	2754	2754	0	3864	3907	3821	3821	3821	3821	3864	3864	3864	3821	3821	3821	3821	3779	3779	3779	3779	3779	3738	3779	3738	3738	3779	3738	3738	3779	3779	3779	3738	3738	3738	3738	3738	3738	3738	3738	3738	3779	3779	3779	3779	3821	3821	3821	3821	3821	3821	3821	3821	3821	3821	3821	3821	3738	3698	3698	3659	3659	3659	3659	3698	3621	3659	3698	3698	3698	3698	3659	3659	3659	3659	3659	3659	3659	3659	3698	3698	3698	3698	3698	3698	4296	4296	4192	4192	4192	4192	4192	4192	4142	4192	4142	4142	4192	4192	4142	4142	4142	4142	4142	4142	4093	4093	4093	4192	4296	4350	4350	4406	4463	4463	4521	4581	4521	4521	4521	4463	4463	4350	4350	4350	4350	4350	4463	4463	4463	4463	4463	4463	4142	4142	4142	4350	4350	4350	4296	4296	4243	4243	4243	4243	4192	4192	4142	4142	4142	4142	4142	4093	4045	4045	3864	3779	3779	3738	3738	3738	3738	3698	3779	3779	4045	4045	3952	3864	3821	3779	3779	3779	3738	3779	3779	3779	3821	4142	4192	4192	4192	4142	4142	4142	4142	4142	4192	4192	4192	4192	4192	4192	4192	4192	4192	4192	4192	4192	4192	4192	4192	4192	4243	4192	4192	4192	4243	4142	4142	4142	4192	4192	4192	4192	4243	4243	4243	4192	4243	4192	4192	4192	4192	4192	4192	4142	4142	4142	4142	4142	4142	4142	4142	4192	4192	4192	4192	4192	4192	4192	4192	4192	4192	4192	4192	4192	4192	4192	4142	4192	4192	4192	4192	4192	4192	4192	4192	4192	4192	4192	4142	4192	4192	4192	4192	4192	4192	4192	4243	4243	4243	4243	4243	4243	4243	0	0	0	0	0	0	0	0	0	0	0	0	0	0	0	0	0	0	0	0	0	0	0	0	0	0	0	0	3907	3998	3998	4045	3998	3998	4045	4045	4045	4045	3998	3907	3864	3821	3779	3779	516	516	516	516	515	514	514	513	513	512	511	511	511	510	510	511	511	511	513	513	513	513	513	513	513	513	513	0	0	0	0	0	0	0	0	0	0	0	0	0	0	0	0	0	0	0	0	0	0	0	0	0	0	0	0	0	0	0	0	0	0	0	0	0	0	0	0	0	0	0	0	0	0	1240	1245	1249	1259	1263	1268	1277	1277	1277	1282	1282	1282	1282	0	0	0	1254	1249	1249	1245	1245	1245	1245	1240	1240	1240	1236	1236	1236	1236	1232	1236	1232	1236	1236	1232	1232	1232	1232	1232	1232	1236	1232	1236	1236	1236	1236	1232	1232	1227	1227	1227	1227	1227	1227	1227	1227	1227	1227	1227	1227	1134	1131	1127	1123	1120	1120	1116	1116	1113	1113	1113	1113	1113	1113	1113	1116	1116	1116	1116	1116	1120	1116	1116	1116	1116	1116	1116	1116	1116	1116	1120	1120	1120	1120	1120	1120	0	0	0	0	0	0	0	0	0	0	0	0	0	0	0	0	0	0	0	0	0	0	0	0	0	0	0	0	0	0	0	0	0	0	0	0	0	0	0	0
0	0	0	0	0	0	0	0	0	0	0	0	0	0	0	0	0	2297	2297	2297	2297	2312	2297	2281	2281	2281	2281	2281	2281	0	0	0	0	0	2343	2327	2312	2312	2297	2281	2281	2281	2281	2312	2297	2297	2312	2312	2312	2312	2312	2297	2312	2327	2327	2297	2297	2297	2327	2327	2327	2327	2312	2312	2312	2327	2327	2327	2327	2327	2327	2327	2327	2343	2343	2327	2343	2327	2327	2343	2343	2359	2376	2376	2392	2409	2426	2426	2443	2460	2478	2478	2532	2551	2551	2551	2551	2551	2551	2649	2690	2711	2711	2711	2733	2733	2733	2733	2733	2733	2733	2733	2733	0	3907	3907	3821	3821	3821	3779	3821	3821	3821	3821	3821	3821	3779	3779	3779	3779	3779	3779	3738	3779	3738	3738	3779	3738	3779	3779	3779	3738	3738	3738	3738	3738	3738	3738	3738	3738	3738	3779	3779	3779	3779	3821	3821	3821	3864	3864	3821	3821	3821	3821	3821	3821	3821	3738	3698	3738	3659	3659	3659	3621	3659	3621	3621	3621	3698	3698	3659	3659	3659	3659	3659	3659	3659	3659	3659	3698	3698	3698	3698	3698	3698	4192	4142	4192	4192	4142	4142	4142	4142	4093	4093	4093	4045	4093	4093	4093	4142	4142	4142	4142	4093	4093	4093	4093	4142	4142	4142	4142	4142	4142	4406	4463	4463	4463	4463	4463	4350	4350	4296	4296	4296	4243	4243	4243	4243	4192	4142	4142	4142	4142	4142	4142	4142	4296	4296	4296	4296	4243	4243	4243	4243	4192	4192	4142	4142	4142	4142	4142	4093	4093	4093	3998	3821	3779	3779	3738	3738	3738	3698	3698	3907	3952	3952	3952	3864	3821	3779	3779	3779	3779	3779	3779	3821	4192	4142	4192	4192	4142	4142	4142	4142	4142	4142	4142	4142	4192	4192	4243	4243	4192	4192	4192	4192	4192	4192	4192	4192	4192	4192	4192	4192	4192	4192	4243	4192	4142	4142	4192	4192	4192	4192	4192	4243	4192	4192	4243	4243	4243	4192	4192	4192	4192	4192	4192	4142	4142	4142	4142	4192	4192	4192	4192	4192	4192	4192	4192	4192	4192	4192	4192	4192	4192	4192	4192	4192	4142	4192	4192	4243	4192	4192	4192	4192	4192	4192	4192	4192	4192	4192	4192	4192	4192	4142	4142	4192	4243	4192	4192	4243	4243	4243	4243	0	0	0	0	0	0	0	0	0	0	0	0	0	0	0	0	0	0	0	0	0	0	0	0	0	0	0	0	3998	3998	3998	3998	3998	3998	4045	4045	4045	4045	3998	3907	3864	3821	3779	3779	516	516	516	516	516	513	513	513	512	511	510	510	510	510	510	510	511	511	513	513	513	513	513	513	513	513	513	0	0	0	0	0	0	0	0	0	0	0	0	0	0	0	0	0	0	0	0	0	0	0	0	0	0	0	0	0	0	0	0	0	0	0	0	0	0	0	0	0	0	0	0	0	0	1240	1240	1254	1254	1263	1272	1277	1277	1277	1282	1282	1282	1282	0	0	0	0	1249	1249	1245	1245	1245	1240	1240	1240	1236	1236	1236	1236	1236	1232	1236	1232	1236	1236	1232	1232	1232	1232	1232	1232	1232	1232	1232	1232	1232	1236	1232	1232	1227	1227	1227	1227	1227	1227	1227	1227	1227	1227	1227	1227	1134	1131	1123	1120	1120	1120	1116	1116	1113	1113	1113	1113	1113	1109	1113	1113	1116	1116	1116	1116	1116	1116	1116	1116	1116	1116	1116	1116	1116	1116	1116	1116	1120	1120	1120	1120	0	0	0	0	0	0	0	0	0	0	0	0	0	0	0	0	0	0	0	0	0	0	0	0	0	0	0	0	0	0	0	0	0	0	0	0	0	0	0	0
0	0	0	0	0	0	0	0	0	0	0	0	0	0	0	0	0	2297	2297	2312	2312	2312	2312	2281	2281	2281	2281	2281	2281	0	0	0	0	0	2343	2327	2312	2312	2297	2297	2281	2281	2281	2343	2327	2327	2327	2312	2312	2312	2312	2312	2312	2327	2327	2327	2312	2327	2312	2312	2312	2327	2327	2327	2327	2327	2327	2327	2312	2327	2327	2327	2327	2343	2343	2327	2343	2327	2343	2343	2343	2359	2392	2376	2392	2409	2409	2426	2426	2460	2478	2496	2551	2551	2570	2551	2551	2570	2609	2649	2690	2711	2711	2711	2733	2733	2733	2733	2733	2733	2711	2711	2711	0	3907	3864	3864	3821	3821	3821	3864	3864	3821	3821	3821	3821	3821	3779	3779	3779	3779	3779	3738	3779	3779	3779	3779	3779	3779	3779	3738	3738	3738	3738	3738	3698	3698	3698	3698	3738	3738	3738	3779	3779	3779	3779	3821	3864	3864	3864	3864	3821	3821	3821	3821	3821	3779	3738	3738	3738	3698	3659	3659	3621	3659	3621	3621	3621	3698	3698	3659	3621	3659	3659	3659	3621	3621	3659	3659	3698	3698	3698	3698	3698	3698	4142	4142	4142	4142	4142	4142	4045	4045	3998	3998	4045	3998	4045	4045	4093	4093	4093	4093	4093	4093	4045	4045	4045	4045	4142	4142	4093	4093	4296	4243	4243	4192	4192	4192	4296	4296	4296	4243	4192	4142	4142	4192	4192	4192	4192	4142	4142	4142	4142	4142	4142	4142	4243	4243	4243	4243	4243	4243	4243	4192	4192	4142	4142	4142	4142	4142	4142	4093	4093	4093	3907	3821	3779	3779	3738	3738	3738	3698	3738	3779	3907	3952	3907	3821	3821	3779	3779	3779	3779	3779	3779	3821	4142	4142	4192	4192	4192	4192	4142	4142	4142	4192	4142	4142	4192	4192	4192	4243	4192	4192	4192	4192	4192	4192	4192	4192	4192	4192	4192	4192	4192	4192	4192	4142	4142	4142	4192	4192	4192	4192	4192	4192	4192	4192	4243	4192	4192	4192	4192	4192	4192	4192	4192	4142	4142	4142	4142	4192	4192	4192	4192	4192	4192	4192	4192	4192	4243	4192	4192	4192	4192	4192	4243	4192	4192	4192	4192	4192	4192	4192	4192	4192	4192	4192	4243	4192	4192	4192	4192	4192	4192	4142	4142	4192	4192	4192	4142	4142	4142	4243	0	0	0	0	0	0	0	0	0	0	0	0	0	0	0	0	0	0	0	0	0	0	0	0	0	0	0	0	0	3907	3907	3952	3998	3998	3998	4045	4045	4045	4045	3998	3952	3907	3821	3779	516	516	516	516	516	515	513	513	512	511	510	510	510	510	510	510	510	511	512	513	513	513	513	514	514	513	513	513	0	0	0	0	0	0	0	0	0	0	0	0	0	0	0	0	0	0	0	0	0	0	0	0	0	0	0	0	0	0	0	0	0	0	0	0	0	0	0	0	0	0	0	0	0	0	1240	1240	1245	1254	1268	1272	1277	1277	1277	1277	1282	1277	1272	1272	0	0	0	1249	1249	1245	1245	1245	1245	1240	1240	1236	1236	1236	1236	1236	1232	1236	1232	1232	1236	1232	1232	1232	1232	1232	1232	1232	1232	1232	1232	1232	1232	1232	1227	1227	1227	1227	1227	1227	1223	1223	1227	1227	1227	1227	1227	1131	1127	1123	1120	1120	1120	1120	1116	1116	1113	1113	1113	1109	1109	1109	1113	1113	1116	1116	1116	1116	1116	1116	1116	1116	1116	1116	1116	1116	1116	1116	1116	1116	1116	1120	1120	0	0	0	0	0	0	0	0	0	0	0	0	0	0	0	0	0	0	0	0	0	0	0	0	0	0	0	0	0	0	0	0	0	0	0	0	0	0	0	0
0	0	0	0	0	0	0	0	0	0	0	0	0	0	0	0	0	2297	2297	2297	2297	2312	2312	2297	2297	2297	2297	2297	2297	0	0	0	0	0	2343	2327	2312	2312	2312	2297	2297	2297	2312	2327	2327	2327	2327	2312	2312	2312	2312	2312	2312	2312	2327	2327	2312	2327	2312	2312	2312	2327	2327	2312	2327	2327	2312	2312	2312	2327	2327	2327	2327	2343	2343	2343	2343	2327	2343	2343	2343	2359	2392	2392	2392	2409	2409	2426	2426	2460	2478	2496	2532	2551	2551	2551	2551	2589	2609	2629	2649	2690	2690	2690	2711	2711	2733	2733	2733	2733	2711	2711	2711	0	3907	3864	3864	3821	3821	3821	3864	3821	3821	3821	3821	3821	3779	3779	3779	3779	3779	3779	3779	3779	3779	3779	3779	3779	3779	3779	3779	3738	3738	3738	3698	3698	3698	3698	3659	3698	3738	3738	3738	3779	3779	3821	3821	3821	3864	3821	3821	3821	3821	3821	3821	3821	3779	3738	3738	3698	3698	3659	3659	3621	3659	3659	3621	3621	3659	3659	3659	3621	3659	3659	3659	3621	3621	3659	3659	3698	3659	3659	3698	3698	3698	4093	4093	4045	4045	4045	4045	3998	3998	3952	3952	3998	3998	3998	4045	4093	4093	4093	4093	4093	4045	4045	3998	3998	4045	3998	4045	4045	4045	4093	4093	4142	4142	4142	4142	4243	4192	4142	4142	4142	4093	4142	4142	4142	4142	4142	4142	4142	4142	4142	4142	4142	4142	4192	4192	4192	4192	4243	4243	4243	4243	4192	4192	4142	4142	4142	4142	4142	4142	4093	4093	4045	3821	3779	3779	3738	3738	3738	3698	3738	3738	3864	3864	3864	3821	3821	3779	3779	3738	3738	3779	3779	3821	4093	4142	4192	4192	4192	4192	4142	4142	4142	4192	4142	4192	4192	4192	4192	4243	4192	4192	4192	4243	4192	4192	4192	4192	4192	4142	4192	4142	4142	4192	4192	4142	4142	4142	4142	4192	4192	4192	4192	4192	4192	4192	4192	4192	4192	4192	4192	4192	4192	4192	4192	4142	4192	4192	4192	4192	4192	4192	4192	4192	4192	4192	4192	4192	4243	4192	4192	4192	4192	4192	4192	4243	4192	4192	4192	4192	4192	4192	4192	4192	4192	4192	4243	4243	4192	4192	4192	4192	4142	4142	4142	4142	4142	4142	4093	4093	4093	4093	0	0	0	0	0	0	0	0	0	0	0	0	0	0	0	0	0	0	0	0	0	0	0	0	0	0	0	0	3864	3864	3907	3907	3952	3998	3998	4045	4045	4045	4045	3998	3952	3864	3779	3738	516	516	516	516	515	514	513	513	513	511	510	510	510	510	510	510	510	511	512	513	513	513	513	513	513	0	0	0	0	0	0	0	0	0	0	0	0	0	0	0	0	0	0	0	0	0	0	0	0	0	0	0	0	0	0	0	0	0	0	0	0	0	0	0	0	0	0	0	0	0	0	0	0	0	0	0	1245	1259	1272	1277	1277	1277	1277	1277	1277	1272	1268	1268	1268	0	0	0	0	1245	1245	1245	1245	1240	1240	1236	1236	1236	1236	1236	1232	1236	1232	1232	1232	1232	1232	1232	1232	1232	1232	1232	1232	1232	1232	1232	1227	1232	1227	1227	1227	1227	1227	1223	1223	1223	1227	1227	1227	1227	1227	1131	1123	1123	1120	1120	1120	1120	1116	1116	1113	1113	1113	1109	1109	1109	1113	1113	1116	1113	1116	1116	1116	1116	1116	1116	1113	1116	1116	1116	1116	1116	1116	1120	1116	1120	1120	0	0	0	0	0	0	0	0	0	0	0	0	0	0	0	0	0	0	0	0	0	0	0	0	0	0	0	0	0	0	0	0	0	0	0	0	0	0	0	0
0	0	0	0	0	0	0	0	0	0	0	0	0	0	0	0	0	2281	2297	2297	2297	2297	2297	2297	2297	2297	2297	2281	2281	0	0	0	0	0	0	2327	2312	2327	2312	2312	2312	2312	2312	2327	2327	2327	2327	2312	2312	2312	2312	2312	2312	2312	2312	2327	2327	2327	2327	2327	2327	2327	2327	2312	2327	2312	2312	2312	2312	2327	2327	2327	2327	2343	2343	2343	2343	2327	2343	2343	2343	2359	2392	2392	2392	2409	2409	2426	2426	2460	2478	2496	2532	2551	2551	2551	2570	2609	2609	2629	2629	2669	2690	2711	2711	2711	2733	2733	2733	2733	2711	2690	2690	2690	3907	3864	3864	3821	3821	3821	3864	3821	3821	3779	3779	3779	3779	3779	3779	3779	3779	3779	3779	3779	3779	3779	3779	3779	3779	3779	3738	3738	3738	3738	3738	3738	3738	3738	3698	3738	3738	3738	3779	3779	3779	3779	3821	3821	3821	3821	3821	3821	3779	3779	3821	3779	3779	3738	3698	3698	3698	3659	3659	3659	3659	3621	3621	3621	3659	3659	3659	3659	3659	3659	3659	3621	3621	3659	3659	3659	3659	3659	3659	3698	3698	3998	3998	3998	4045	3998	3998	3998	3952	3952	3952	3952	3952	3952	3998	4045	4045	4093	4045	4093	4045	4045	4045	4045	3998	4045	4045	4045	3998	3998	4045	4045	4045	4093	4093	4142	4093	4093	4093	4045	4045	4093	4093	4142	4093	4093	4093	4093	4093	4093	4093	4142	4192	4192	4192	4243	4296	4296	4296	4296	4243	4243	4192	4142	4142	4142	4142	4142	4142	4093	4093	4045	3864	3779	3779	3738	3738	3698	3698	3698	3738	3738	3821	3821	3821	3779	3779	3738	3738	3738	3738	3779	3864	4093	4142	4192	4192	4192	4192	4142	4142	4142	4192	4192	4192	4192	4192	4243	4243	4243	4192	4192	4243	4192	4192	4192	4192	4192	4142	4192	4192	4192	4192	4192	4142	4142	4142	4142	4192	4192	4192	4192	4192	4192	4192	4192	4192	4192	4192	4192	4192	4192	4192	4192	4142	4192	4192	4192	4192	4192	4192	4192	4192	4192	4192	4192	4192	4192	4192	4192	4243	4192	4192	4243	4243	4192	4192	4192	4192	4192	4192	4192	4192	4192	4192	4243	4243	4243	4192	4192	4192	4192	4142	4142	4142	4142	4142	4093	4093	4093	4093	0	0	0	0	0	0	0	0	0	0	0	0	0	0	0	0	0	0	0	0	0	0	0	0	0	0	0	3864	3864	3907	3907	3907	3952	3952	3998	3998	3998	3998	3998	3998	3907	3864	3779	3738	516	516	516	516	515	514	513	513	511	511	510	510	510	509	509	510	510	510	511	512	512	512	513	513	513	0	0	0	0	0	0	0	0	0	0	0	0	0	0	0	0	0	0	0	0	0	0	0	0	0	0	0	0	0	0	0	0	0	0	0	0	0	0	0	0	0	0	0	0	0	0	0	0	0	0	0	1245	1259	1277	1282	1282	1277	1277	1277	1277	1272	1268	1268	1263	1263	0	0	0	0	1245	1245	1245	1240	1240	1236	1236	1236	1236	1236	1236	1232	1232	1232	1232	1232	1232	1232	1232	1232	1232	1232	1232	1232	1232	1227	1227	1227	1227	1227	1227	1227	1223	1223	1223	1223	1227	1227	1227	1227	1227	1123	1123	1123	1120	1120	1120	1120	1116	1116	1113	1113	1113	1109	1109	1109	1113	1113	1116	1113	1116	1116	1116	1116	1116	1116	1113	1113	1116	1116	1116	1116	1116	1120	1120	1120	1120	0	0	0	0	0	0	0	0	0	0	0	0	0	0	0	0	0	0	0	0	0	0	0	0	0	0	0	0	0	0	0	0	0	0	0	0	0	0	0	0
0	0	0	0	0	0	0	0	0	0	0	0	0	0	0	0	0	2281	2297	2297	2297	2297	2312	2297	2297	2297	2297	2281	2281	0	0	0	0	0	0	2327	2312	2312	2312	2312	2312	2312	2327	2327	2327	2327	2327	2297	2297	2297	2297	2312	2312	2312	2327	2327	2327	2327	2327	2327	2327	2327	2327	2312	2312	2312	2312	2312	2312	2327	2327	2327	2327	2343	2343	2343	2343	2343	2343	2343	2359	2359	2392	2392	2392	2409	2409	2426	2426	2460	2496	2496	2514	2551	2551	2570	2589	2609	2609	2629	2629	2669	2690	2711	2711	2711	2733	2733	2733	2733	2711	2690	2690	2690	0	3864	3821	3821	3821	3821	3821	3821	3821	3779	3779	3779	3779	3779	3779	3779	3779	3779	3779	3779	3779	3779	3779	3779	3779	3779	3738	3738	3738	3738	3698	3738	3738	3698	3698	3738	3738	3738	3779	3779	3779	3779	3779	3821	3821	3821	3821	3821	3821	3821	3821	3779	3779	3698	3698	3659	3659	3659	3659	3621	3621	3621	3621	3583	3621	3621	3621	3621	3621	3621	3621	3621	3621	3621	3621	3621	3659	3659	3698	3738	3738	3864	3998	3998	3998	3998	3952	3952	3952	3952	3952	3952	3952	3952	3952	3998	3998	3998	3998	4045	4045	4045	4045	4045	4045	4045	4045	3998	3998	3998	3998	3998	4045	4093	4093	4093	4093	4093	4093	4045	4045	4045	4093	4093	4093	4045	4045	4045	4093	4093	4093	4142	4142	4192	4192	4192	4192	4243	4243	4243	4243	4192	4192	4142	4142	4142	4142	4142	4142	4093	4093	4045	3864	3779	3779	3738	3738	3698	3698	3698	3698	3698	3821	3821	3821	3779	3779	3738	3738	3738	3738	3738	4093	4142	4142	4192	4192	4192	4192	4142	4192	4192	4192	4192	4192	4192	4192	4192	4192	4243	4192	4192	4243	4192	4192	4192	4142	4142	4142	4142	4142	4142	4192	4142	4142	4142	4142	4142	4142	4192	4192	4192	4192	4192	4192	4192	4192	4192	4192	4192	4192	4192	4192	4192	4192	4192	4192	4192	4192	4142	4142	4192	4192	4192	4192	4142	4142	4142	4142	4192	4192	4192	4192	4192	4192	4243	4243	4192	4192	4192	4243	4243	4192	4192	4243	4243	4243	4243	4192	4192	4192	4192	4142	4142	4142	4142	4142	4093	4093	4093	0	0	0	0	0	0	0	0	0	0	0	0	0	0	0	0	0	0	0	0	0	0	0	0	0	0	0	0	3864	3864	3907	3907	3907	3952	3952	3998	3998	3998	4045	4045	3998	3998	3907	3779	3738	516	516	516	516	515	513	513	513	511	510	510	510	509	509	509	509	510	510	511	511	512	512	512	512	513	0	0	0	0	0	0	0	0	0	0	0	0	0	0	0	0	0	0	0	0	0	0	0	0	0	0	0	0	0	0	0	0	0	0	0	0	0	0	0	0	0	0	0	0	0	0	0	0	0	0	0	0	0	1277	1282	1282	1277	1277	1272	1272	1268	1268	1263	1259	1259	1259	0	0	0	0	0	1245	1240	1240	1245	1240	1240	1236	1236	1232	1232	1232	1232	1232	1232	1232	1232	1232	1232	1232	1232	1232	1232	1232	1227	1227	1227	1227	1227	1227	1227	1227	1227	1223	1227	1223	1227	1227	1227	1227	1120	1123	1123	1120	1120	1116	1120	1116	1116	1113	1113	1113	1109	1109	1109	1113	1113	1113	1113	1116	1116	1116	1116	1116	1116	1116	1116	1116	1116	1116	1116	1116	1116	1120	1116	1116	0	0	0	0	0	0	0	0	0	0	0	0	0	0	0	0	0	0	0	0	0	0	0	0	0	0	0	0	0	0	0	0	0	0	0	0	0	0	0	0
0	0	0	0	0	0	0	0	0	0	0	0	0	0	0	0	0	2281	2297	2297	2297	2297	2312	2297	2297	2297	2297	2281	2281	2281	0	0	0	0	0	2327	2312	2312	2327	2312	2312	2327	2327	2343	2327	2327	2312	2297	2297	2297	2297	2312	2312	2312	2327	2327	2327	2327	2327	2327	2312	2327	2312	2312	2312	2312	2312	2312	2312	2327	2343	2343	2343	2343	2343	2343	2343	2343	2343	2343	2359	2359	2392	2392	2392	2409	2409	2426	2426	2443	2460	2460	2496	2532	2551	2589	2589	2609	2609	2629	2629	2669	2690	2711	2733	2733	2754	2733	2733	2711	2711	2690	2690	2690	3907	3907	3864	3821	3821	3821	3821	3821	3821	3779	3779	3779	3779	3779	3779	3779	3779	3779	3779	3779	3779	3779	3779	3779	3779	3779	3738	3738	3738	3738	3698	3738	3738	3738	3698	3738	3738	3738	3738	3779	3779	3779	3821	3821	3821	3821	3821	3821	3821	3821	3821	3779	3779	3698	3659	3659	3659	3621	3621	3621	3621	3621	3621	3583	3621	3621	3621	3621	3621	3621	3621	3621	3621	3621	3621	3659	3659	3659	3659	3738	3738	3864	3952	3952	3952	3952	3952	3952	3952	3952	3952	3952	3952	3952	3952	3952	3998	3998	3998	3952	3998	4045	4045	4045	4045	4045	4045	3998	3998	3998	3998	3998	4045	4045	4045	4045	4045	4045	4045	3998	3998	3998	3998	4045	4045	4045	4045	4045	4045	4093	4093	4142	4142	4142	4142	4142	4142	4243	4243	4243	4192	4192	4142	4142	4142	4142	4142	4093	4142	4093	4093	4045	3864	3779	3779	3738	3738	3698	3659	3659	3659	3621	3821	3821	3779	3779	3779	3738	3738	3738	3738	3698	4045	4093	4093	4142	4192	4192	4142	4142	4142	4142	4142	4142	4142	4192	4192	4192	4192	4192	4192	4192	4192	4192	4192	4192	4142	4142	4142	4142	4142	4192	4192	4142	4142	4142	4142	4142	4142	4142	4192	4192	4192	4192	4192	4192	4192	4192	4192	4192	4192	4192	4192	4192	4192	4192	4192	4192	4192	4142	4192	4192	4192	4192	4192	4142	4142	4142	4142	4142	4192	4192	4192	4192	4192	4192	4243	4192	4192	4192	4243	4243	4192	4192	4243	4243	4243	4243	4192	4192	4142	4142	4142	4093	4093	4093	4093	4093	4093	4093	0	0	0	0	0	0	0	0	0	0	0	0	0	0	0	0	0	0	0	0	0	0	0	0	0	0	0	0	3907	3907	3907	3907	3907	3952	3952	3998	3998	3998	3998	4045	3998	3952	3907	3779	3738	516	516	516	515	513	513	513	512	512	510	510	510	510	509	509	510	510	510	511	511	511	512	512	512	512	0	0	0	0	0	0	0	0	0	0	0	0	0	0	0	0	0	0	0	0	0	0	0	0	0	0	0	0	0	0	0	0	0	0	0	0	0	0	0	0	0	0	0	0	0	0	0	0	0	0	0	0	0	0	1282	1282	1282	1277	1277	1272	1268	1263	1263	1259	1254	1259	1259	0	0	0	0	0	0	0	1245	1240	1240	1240	1236	1232	1232	1232	1232	1232	1232	1232	1232	1232	1232	1232	1232	1232	1232	1232	1227	1227	1227	1227	1227	1227	1227	1223	1227	1227	1227	1227	1227	1227	1227	1123	1123	1123	1123	1120	1120	1120	1120	1116	1116	1113	1113	1113	1113	1113	1113	1113	1113	1113	1113	1113	1116	1116	1116	1116	1116	1113	1113	1113	1113	1116	1116	1116	1116	1120	1116	1116	0	0	0	0	0	0	0	0	0	0	0	0	0	0	0	0	0	0	0	0	0	0	0	0	0	0	0	0	0	0	0	0	0	0	0	0	0	0	0	0
0	0	0	0	0	0	0	0	0	0	0	0	0	0	0	0	0	2281	2281	2297	2297	2297	2312	2297	2297	2297	2297	2281	2281	2281	0	0	0	0	0	0	2312	2312	2312	2312	2312	2312	2327	2343	2343	2327	2327	2297	2297	2297	2297	2312	2312	2312	2327	2343	2327	2327	2327	2327	2327	2327	2312	2327	2312	2327	2327	2327	2327	2327	2343	2343	2343	2343	2343	2343	2343	2343	2343	2343	2343	2359	2376	2376	2392	2392	2409	2409	2409	2460	2478	2496	2514	2532	2570	2589	2589	2609	2609	2629	2629	2669	2690	2711	2733	2733	2754	2733	2733	2711	2690	2669	2669	0	3907	3864	3864	3864	3821	3821	3821	3821	3821	3779	3779	3779	3779	3779	3779	3779	3779	3779	3779	3779	3779	3779	3779	3779	3779	3779	3738	3738	3738	3738	3738	3738	3738	3738	3698	3738	3738	3738	3738	3738	3779	3779	3821	3821	3821	3864	3821	3821	3864	3821	3821	3779	3779	3698	3659	3659	3659	3621	3659	3621	3621	3621	3621	3621	3621	3583	3583	3583	3583	3621	3583	3621	3621	3621	3621	3659	3659	3659	3659	3659	3738	3907	3952	3952	3952	3952	3952	3952	3952	3952	3952	3952	3952	3952	3952	3952	3998	3952	3952	3952	3952	3952	3952	3952	4045	4045	4045	3998	3998	3998	3998	3998	4045	4045	4045	3998	3998	3998	3998	3998	3998	3998	3998	4045	4045	4045	4045	4045	4093	4093	4093	4142	4142	4093	4093	4093	4093	4142	4192	4192	4192	4142	4142	4142	4142	4142	4142	4093	4142	4093	4093	4045	3952	3779	3738	3738	3698	3659	3659	3621	3621	3621	3779	3779	3779	3779	3738	3738	3738	3698	3698	3659	4093	4093	4142	4142	4142	4142	4142	4142	4142	4142	4142	4142	4142	4142	4192	4192	4192	4192	4192	4192	4192	4192	4192	4192	4192	4192	4192	4192	4192	4192	4192	4192	4142	4142	4142	4142	4142	4142	4142	4192	4192	4142	4192	4192	4192	4192	4192	4192	4192	4192	4192	4192	4192	4192	4192	4243	4192	4192	4192	4192	4192	4192	4192	4142	4142	4142	4093	4142	4142	4142	4142	4192	4192	4192	4243	4192	4192	4192	4243	4243	4243	4192	4192	4243	4243	4243	4192	4142	4142	4142	4142	4093	4093	4093	4093	4093	4093	4093	0	0	0	0	0	0	0	0	0	0	0	0	0	0	0	0	0	0	0	0	0	0	0	0	0	0	0	0	3907	3907	3907	3907	3952	3952	3998	3998	4045	3998	3998	4045	3998	3952	3907	3821	3738	3738	513	513	513	513	513	513	512	512	510	510	510	510	509	509	509	510	510	510	510	510	511	512	512	512	0	0	0	0	0	0	0	0	0	0	0	0	0	0	0	0	0	0	0	0	0	0	0	0	0	0	0	0	0	0	0	0	0	0	0	0	0	0	0	0	0	0	0	0	0	0	0	0	0	0	0	0	0	0	0	1282	1277	1277	1272	1272	1268	1263	1263	1259	1259	1259	1263	1263	0	0	0	0	0	0	0	1240	1240	1236	1232	1236	1236	1232	1232	1232	1232	1232	1232	1232	1232	1232	1232	1232	1227	1227	1227	1227	1227	1227	1227	1227	1227	1227	1227	1227	1227	1227	1227	1227	1227	1123	1120	1120	1123	1120	1120	1120	1120	1116	1116	1116	1116	1113	1113	1113	1113	1116	1116	1116	1116	1116	1116	1113	1113	1113	1116	1113	1113	1116	1116	1116	1116	1116	1116	1116	1116	1116	0	0	0	0	0	0	0	0	0	0	0	0	0	0	0	0	0	0	0	0	0	0	0	0	0	0	0	0	0	0	0	0	0	0	0	0	0	0	0	0
0	0	0	0	0	0	0	0	0	0	0	0	0	0	0	0	0	2297	2297	2297	2297	2312	2312	2297	2297	2297	2297	2281	2281	2281	0	0	0	0	0	0	2312	2312	2312	2312	2312	2312	2327	2343	2343	2327	2327	2297	2297	2297	2297	2312	2297	2312	2327	2327	2327	2343	2327	2327	2327	2327	2312	2327	2327	2327	2327	2327	2327	2327	2343	2343	2343	2343	2343	2343	2343	2327	2343	2343	2343	2343	2359	2376	2376	2392	2392	2409	2409	2443	2478	2496	2496	2532	2570	2589	2609	2609	2629	2629	2649	2669	2690	2733	2754	2754	2777	2733	2733	2711	2690	2669	2669	0	3907	3864	3864	3864	3821	3821	3864	3821	3821	3779	3779	3779	3779	3779	3779	3779	3779	3779	3779	3779	3779	3779	3779	3779	3779	3779	3738	3738	3738	3738	3738	3738	3738	3738	3738	3738	3738	3738	3738	3738	3779	3779	3821	3779	3821	3821	3864	3864	3864	3821	3821	3821	3821	3779	3698	3698	3698	3659	3659	3621	3621	3621	3621	3621	3621	3583	3583	3583	3583	3583	3583	3621	3621	3621	3621	3621	3659	3659	3659	3659	3659	3907	3952	3952	3952	3952	3952	3998	3952	3952	3952	3952	3952	3952	3952	3952	3952	3952	3952	3952	3952	3952	3952	3907	4045	4045	4045	3998	3998	3998	4045	3998	3998	3998	3998	3998	3998	3998	4045	3998	3998	3998	3998	3998	3998	3998	4045	4045	4093	4093	4142	4142	4142	4142	4142	4093	4142	4142	4142	4142	4142	4142	4142	4142	4142	4142	4142	4142	4142	4093	4093	3779	3779	3738	3738	3738	3698	3659	3659	3621	3621	3621	3621	3779	3779	3779	3738	3698	3698	3659	3659	3659	4093	4142	4142	4142	4142	4142	4142	4142	4142	4142	4142	4142	4142	4142	4142	4142	4192	4192	4192	4192	4192	4192	4192	4142	4142	4142	4142	4142	4142	4192	4192	4192	4142	4142	4142	4142	4142	4142	4142	4142	4142	4142	4142	4142	4192	4192	4192	4192	4192	4192	4192	4192	4142	4192	4192	4192	4192	4192	4192	4192	4192	4192	4142	4142	4142	4093	4093	4142	4142	4142	4142	4192	4192	4192	4192	4192	4192	4243	4243	4243	4243	4243	4243	4243	4243	4243	4192	4142	4142	4142	4142	4093	4093	4093	4093	4093	4093	4093	0	0	0	0	0	0	0	0	0	0	0	0	0	0	0	0	0	0	0	0	0	0	0	0	0	0	0	0	3907	3907	3907	3907	3952	3952	3998	3998	4045	4045	3998	4045	3998	3907	3864	3779	3738	513	513	513	513	513	513	513	513	512	510	510	510	510	509	509	509	510	510	510	510	510	510	510	512	0	0	0	0	0	0	0	0	0	0	0	0	0	0	0	0	0	0	0	0	0	0	0	0	0	0	0	0	0	0	0	0	0	0	0	0	0	0	0	0	0	0	0	0	0	0	0	0	0	0	0	0	0	0	0	0	1287	1282	1282	1272	1268	1268	1263	1263	1259	1259	1259	1263	1263	1263	0	0	0	0	0	0	0	0	1236	1232	1236	1236	1232	1232	1232	1232	1232	1232	1232	1227	1232	1232	1232	1227	1232	1227	1227	1227	1227	1227	1227	1227	1227	1227	1227	1227	1227	1227	1223	1227	1120	1123	1123	1123	1120	1120	1120	1120	1116	1116	1116	1113	1113	1113	1113	1113	1113	1113	1116	1113	1113	1113	1113	1113	1116	1116	1116	1116	1116	1116	1116	1116	1116	1116	1116	1116	1116	0	0	0	0	0	0	0	0	0	0	0	0	0	0	0	0	0	0	0	0	0	0	0	0	0	0	0	0	0	0	0	0	0	0	0	0	0	0	0	0
0	0	0	0	0	0	0	0	0	0	0	0	0	0	0	0	0	2297	2297	2297	2297	2312	2312	2297	2281	2281	2281	2281	2281	2281	0	0	0	0	0	0	0	0	0	0	0	0	0	0	2343	2327	2312	2297	2297	2297	2281	2297	2297	2312	2312	2327	2327	2327	2327	2327	2327	2327	2327	2327	2327	2327	2327	2327	2327	2343	2343	2343	2343	2343	2343	2343	2343	2343	2343	2343	2343	2343	2359	2359	2376	2376	2392	2392	2409	2409	2478	2496	2496	2532	2570	2589	2609	2609	2629	2629	2649	2669	2690	2733	2754	2777	2777	2754	2754	2733	2711	2690	2690	2690	3907	3864	3864	3864	3864	3864	3864	3821	3864	3821	3821	3779	3779	3779	3779	3779	3779	3779	3779	3779	3779	3779	3779	3779	3779	3738	3738	3738	3738	3738	3698	3738	3738	3738	3738	3738	3738	3779	3779	3779	3779	3779	3821	3779	3821	3821	3864	3864	3864	3864	3821	3821	3821	3821	3698	3698	3698	3659	3659	3621	3621	3621	3621	3621	3621	3583	3583	0	3583	3583	0	3621	3583	3583	3621	3621	3659	3659	3659	3659	3659	0	3952	3952	3952	3952	3952	3998	3952	3952	3952	3952	3952	3952	3952	3952	3952	3952	3952	3952	3952	3952	3952	3952	4045	4045	4045	3998	3998	3998	3952	3998	3998	3998	3952	3952	3998	3998	3998	3998	3998	3998	3998	3998	3998	3998	3952	4045	4093	4093	4093	4142	4142	4142	4142	4142	4142	4142	4142	4142	4142	4142	4142	4142	4142	4142	4142	4142	4142	4093	4045	3738	3738	3738	3738	3698	3698	3659	3621	3583	3583	3621	3698	3779	3779	3738	3738	3698	3659	3659	3621	3621	3621	4142	4142	4142	4142	4142	4142	4142	4142	4142	4142	4142	4142	4142	4142	4192	4192	4192	4142	4142	4192	4192	4192	4142	4142	4142	4192	4192	4192	4142	4192	4192	4142	4142	4142	4142	4142	4142	4142	4142	4142	4142	4142	4142	4142	4192	4192	4192	4192	4192	4192	4192	4142	4192	4192	4192	4192	4192	4192	4192	4192	4192	4142	4142	4093	4093	4093	4142	4142	4142	4142	4192	4192	4192	4192	4192	4192	4243	4243	4243	4243	4243	4243	4243	4243	4243	4192	4142	4142	4142	4142	4093	4093	4093	4093	4093	4093	4093	0	0	0	0	0	0	0	0	0	0	0	0	0	0	0	0	0	0	0	0	0	0	0	0	0	0	0	3998	3952	3952	3907	3907	3907	3952	3998	3998	3998	3998	3998	3998	3998	3907	3864	3779	3738	513	513	513	513	513	512	512	512	512	510	510	510	510	510	509	510	510	510	510	510	510	510	511	511	0	0	0	0	0	0	0	0	0	0	0	0	0	0	0	0	0	0	0	0	0	0	0	0	0	0	0	0	0	0	0	0	0	0	0	0	0	0	0	0	0	0	0	0	0	0	0	0	0	0	0	0	0	0	0	0	1287	1282	1282	1272	1268	1268	1263	1263	1259	1254	1259	1263	1263	1263	0	0	0	0	0	0	0	0	0	1232	1232	1232	1232	1232	1232	1232	1232	1232	1232	1227	1227	1227	1227	1227	1227	1227	1227	1227	1227	1227	1227	1227	1227	1227	1227	1227	1227	1227	1223	1223	1120	1120	1123	1123	1120	1120	1120	1120	1116	1113	1113	1113	1113	1113	1113	1113	1113	1113	1113	1113	1113	1113	1113	1113	1116	1116	1116	1116	1116	1116	1116	1116	1116	1116	1116	1116	1116	0	0	0	0	0	0	0	0	0	0	0	0	0	0	0	0	0	0	0	0	0	0	0	0	0	0	0	0	0	0	0	0	0	0	0	0	0	0	0	0
0	0	0	0	0	0	0	0	0	0	0	0	0	0	0	0	0	2297	2281	2297	2297	2297	2297	2297	2281	2281	2281	2281	2281	2281	0	0	0	0	0	0	0	0	0	0	0	0	0	0	0	2312	2312	2297	2281	2297	2297	2312	2312	2312	2327	2343	2327	2327	2327	2327	2327	2327	2312	2327	2327	2327	2327	2327	2327	2327	2343	2343	2343	2343	2343	2343	2327	2327	2327	2343	2343	2343	2343	2359	2359	2376	2392	2392	2409	2443	2478	2478	2496	2514	2551	2589	2609	2609	2629	2629	2649	2690	2711	2754	2777	2777	2777	2777	2754	2711	2711	2690	2690	2690	0	3907	3907	3864	3864	3864	3864	3821	3821	3821	3779	3779	3779	3779	3779	3779	3779	3779	3779	3779	3779	3779	3779	3779	3738	3738	3738	3738	3738	3738	3698	3698	3738	3738	3738	3738	3738	3779	3779	3779	3779	3779	3779	3779	3821	3821	3864	3864	3864	3864	3864	3821	3821	3821	3659	3659	3659	3621	3621	3621	3621	3621	3621	3621	3621	3621	3621	3621	0	0	0	3621	3583	3583	3621	3621	3621	3621	3621	3659	0	0	0	3952	3952	3952	3952	3998	3952	3952	3952	3952	3952	3952	3952	3952	3952	3952	3952	3952	3952	3952	3952	3952	3952	3952	4045	3998	3998	3998	3998	3998	3952	3998	3952	3952	3998	3998	4045	3998	3998	3998	3998	3998	3998	3998	3952	4045	4093	4093	4093	4142	4142	4142	4142	4142	4142	4142	4142	4142	4142	4142	4142	4142	4142	4142	4093	4142	4142	4093	4093	3738	3738	3659	3659	3659	3659	3621	3621	3621	3621	3698	3698	3779	3779	3738	3698	3659	3621	3621	3621	3621	3621	3621	4142	4142	4142	4142	4142	4142	4142	4142	4142	4142	4142	4142	4142	4142	4192	4192	4142	4142	4142	4192	4192	4142	4192	4192	4192	4192	4192	4192	4192	4192	4142	4142	4142	4142	4142	4142	4142	4142	4142	4142	4142	4142	4192	4192	4192	4192	4192	4192	4192	4192	4142	4192	4192	4192	4192	4192	4192	4192	4192	4142	4142	4142	4093	4093	4093	4093	4142	4142	4142	4192	4192	4243	4243	4243	4243	4243	4243	4243	4243	4243	4243	4243	4243	4243	4192	4192	4192	4192	4142	4142	4093	4093	4142	4142	4093	0	0	0	0	0	0	0	0	0	0	0	0	0	0	0	0	0	0	0	0	0	0	0	0	0	4093	4093	4045	3998	3952	3952	3907	3907	3907	3952	3998	3998	3998	3998	3998	3998	3952	3864	3779	3738	3698	513	513	513	513	512	512	512	512	512	510	510	510	510	510	509	510	510	510	510	510	510	510	510	511	0	0	0	0	0	0	0	0	0	0	0	0	0	0	0	0	0	0	0	0	0	0	0	0	0	0	0	0	0	0	0	0	0	0	0	0	0	0	0	0	0	0	0	0	0	0	0	0	0	0	0	0	0	0	0	0	1287	1282	1282	1277	1272	1268	1268	1263	1259	1259	1254	1259	1263	1268	1268	0	0	0	0	0	0	0	0	0	1232	1227	1227	1232	1232	1232	1232	1232	1232	1227	1227	1227	1227	1227	1227	1227	1227	1227	1227	1227	1227	1227	1227	1227	1227	1227	1227	1223	1223	1219	1123	1123	1127	1123	1123	1120	1120	1116	1116	1113	1113	1116	1113	1113	1113	1113	1113	1113	1113	1113	1113	1113	1113	1113	1116	1116	1116	1116	1116	1116	1116	1116	1116	1116	1116	1116	1116	0	0	0	0	0	0	0	0	0	0	0	0	0	0	0	0	0	0	0	0	0	0	0	0	0	0	0	0	0	0	0	0	0	0	0	0	0	0	0	0
0	0	0	0	0	0	0	0	0	0	0	0	0	0	0	0	0	2281	2281	2281	2297	2297	2297	2297	2297	2297	2297	2297	2297	2297	0	0	0	0	0	0	0	0	0	0	0	0	0	0	0	2312	2312	2297	2297	2312	2312	2312	2312	2327	2327	2343	2327	2327	2327	2327	2327	2327	2312	2327	2327	2327	2327	2327	2327	2327	2343	2343	2343	2327	2327	2343	2327	2327	2327	2327	2343	2343	2343	2343	2359	2359	2376	2392	2392	2460	2496	2496	2514	2532	2551	2570	2589	2609	2629	2629	2629	2649	2754	2754	2777	2777	2777	2777	2754	2711	2711	2711	2711	2690	3907	3864	3864	3864	3864	3864	3864	3821	3821	3821	3779	3779	3779	3779	3779	3779	3779	3779	3779	3779	3779	3738	3738	3738	3738	3738	3738	3738	3738	3698	3698	3698	3738	3738	3738	3738	3738	3779	3779	3779	3779	3779	3779	3821	3821	3864	3864	3864	3864	3864	3864	3864	3821	3821	3659	3621	3659	3621	3621	3621	3621	3621	3621	3621	3621	3621	3621	3621	0	3583	3583	3583	3583	3583	3583	3621	3621	3621	3621	3621	3779	3779	0	3952	3952	3952	3952	3998	3952	3952	3952	3952	3952	3952	3952	3952	3952	3952	3952	3907	3907	3952	3952	3952	4093	4045	4045	3998	3998	3998	3998	3998	3952	3952	3952	3952	3998	3998	3998	3998	3998	3998	3998	3998	3998	3952	3952	4045	4093	4093	4142	4142	4142	4142	4093	4142	4142	4142	4142	4142	4142	4142	4142	4142	4142	4142	4093	4093	4093	4093	4093	3698	3659	3621	3659	3659	3659	3621	3621	3621	3659	3698	3698	3738	3738	3698	3698	3659	3621	3621	3621	3621	3621	3621	4142	4142	4142	4142	4142	4093	4142	4142	4142	4142	4142	4142	4142	4142	4192	4142	4142	4142	4142	4192	4192	4142	4192	4192	4243	4243	4192	4192	4192	4192	4192	4192	4192	4142	4142	4142	4142	4142	4142	4142	4142	4142	4142	4192	4142	4192	4142	4142	4192	4192	4142	4192	4192	4192	4192	4192	4192	4192	4192	4142	4142	4142	4093	4093	4093	4142	4142	4142	4142	4192	4192	4192	4192	4243	4243	4243	4243	4243	4243	4243	4243	4243	4243	4243	4243	4192	4192	4192	4142	4093	4093	4093	4093	4093	0	0	0	0	0	0	0	0	0	0	0	0	0	0	0	0	0	0	0	0	0	0	0	0	0	0	4093	4093	4045	3998	3952	3952	3907	3907	3907	3952	3998	3998	3998	3998	3952	3998	3952	3864	3821	3779	3738	3698	513	513	513	512	512	512	512	512	510	510	510	510	510	509	510	510	510	510	510	510	510	510	510	0	0	0	0	0	0	0	0	0	0	0	0	0	0	0	0	0	0	0	0	0	0	0	0	0	0	0	0	0	0	0	0	0	0	0	0	0	0	0	0	0	0	0	0	0	0	0	0	0	0	0	0	0	0	0	1291	1287	1282	1282	1277	1272	1268	1268	1263	1263	1259	1259	1259	1259	1268	1268	0	0	0	1185	1185	1189	1189	1189	1193	1193	1227	1227	1232	1227	1227	1232	1232	1232	1227	1227	1227	1227	1227	1227	1227	1227	1227	1223	1223	1227	1227	1227	1227	1227	1227	1227	1223	1223	1219	1127	1127	1123	1123	1123	1120	1120	1116	1116	1113	1113	1116	1113	1113	1113	1113	1113	1113	1113	1113	1113	1113	1113	1113	1116	1116	1116	1116	1116	1116	1116	1116	1116	1116	1116	1116	1116	0	0	0	0	0	0	0	0	0	0	0	0	0	0	0	0	0	0	0	0	0	0	0	0	0	0	0	0	0	0	0	0	0	0	0	0	0	0	0	0
