0	0	0	0	0	0	0	0	969	974	977	980	983	985	997	994	997	1003	1003	1008	1008	1014	1017	1023	1023	1026	1033	1039	1042	1045	1048	1048	1052	1055	1055	1055	1055	1055	1058	1058	1058	1058	1061	0	0	0	0	0	0	0	0	4406	4521	4581	4643	4706	4706	4706	4706	4643	4643	4643	4643	0	0	0	0	0	0	0	0	0	0	0	0	0	4643	4643	4643	4643	4643	4643	4643	4706	4906	4906	0	0	0	0	0	0	4771	4706	4706	4706	4643	4643	4643	4643	4643	4643	4643	4643	4643	4643	4643	4643	4643	4706	4706	4706	4706	4706	4706	4643	4706	4643	4643	4643	4643	4643	4643	4643	4643	4643	4643	4643	4706	4706	4706	4771	4771	4838	4906	4906	4906	4906	0	0	0	0	0	0	0	0	0	0	5050	5050	5050	5050	5050	5282	5282	5282	5282	5282	5282	5202	5125	5202	5125	5125	5050	4977	4977	5050	5050	5050	5050	5050	5050	5050	5125	5125	5202	5125	5125	5125	5125	5125	5125	5125	5202	5202	5202	5282	5282	5282	5282	5050	5050	0	0	0	0	0	0	0	0	0	0	7779	7779	7779	7779	7779	7779	7779	7959	7959	7959	8343	7959	7779	7779	7779	7779	7608	7608	7608	7608	7608	5535	5535	5535	5535	5448	5448	5448	5535	5626	5626	5626	5535	5626	5626	5626	5626	5626	5719	5719	5815	5719	5719	5719	5719	5719	5719	0	3341	3309	3373	3341	3309	3309	3309	3309	3309	3309	3309	3309	3309	3309	3309	3309	3341	3309	3309	3341	3309	3341	3341	3373	3373	3373	3373	3373	3373	3341	3341	3309	3309	3309	3309	3309	3309	3277	3277	3277	3277	3277	3277	3277	3277	3277	3277	3277	3277	3309	3309	3309	3309	3309	3309	3309	3309	3277	3309	3277	3277	0	0	0	0	0	0	0	0	0	0	0	0	0	0	0	0	0	0	0	0	0	0	0	0	0	4350	4350	4406	4406	4406	4406	4406	4406	4406	4406	4406	4350	4350	4350	4406	4406	4406	4406	4406	4521	4463	4521	4581	4581	4581	4521	4521	4521	4521	4406	4406	4406	4406	4463	4463	4463	4521	4581	4581	4581	4581	4581	4581	4581	4521	4406	4406	4463	4406	4406	4406	4406	4406	4406	4406	4406	4406	4406	4406	4406	4406	4406	4350	4350	0	4350	4350	4350	4350	4463	4463	4521	4463	4463	4581	4581	4581	4521	4521	4521	4521	4521	4463	4521	4521	4521	4521	4463	4463	4463	4463	4463	4463	4463	4463	4463	4463	4463	4463	4463	4463	4463	4463	4406	4463	4406	4406	4406	4406	4463	4521	4463	4463	4463	4463	4463	4406	4350	4350	4350	4350	4350	4350	4350	4350	4350	4350	4350	4350	4350	4406	4406	4406	4406	4406	4521	4521	4463	4521	4521	4521	4521	4581	4581	4581	4643	4643	4643	4706	4643	4643	4643	5448	5448	5448	5448	5448	5448	5448	5448	5448	5448	5448	5448	5448	5448	5448	5364	5364	5364	5364	5448	5448	5448	5448	5448	5364	5364	5364	5364	5282	5282	5282	5202	5202	5282	5202	5202	5202	5125	5050	5050	0	0	0	0	0	0	0	0	0	0	0	0	0	0	1358	1358	1358	1358	1352	1347	1347	1347	1342	1342	1342	1336	1336	1336	1336	1336	1331	1331	1326	1326	1326	1321	1321	1321	1321	1316	1316	1316	1316	1321	1321	1321	1321	1321	1331	1331	1331	1336	1336	1342	1336	1342	1342	1352	1352	1358	1363	1368	1368	1368	1368	1363	0	0	0	2343	2343	2343	2343	2343	2343	2343	0	0	0	0	0	0	0	0	0	0	0	0	0	0	0	0	0	0	0	0	0	0	0	0	0	0	0	0	0	0	0	0	0	0	0
0	0	0	0	0	0	0	0	966	980	983	983	985	988	997	994	997	1003	1003	1006	1008	1011	1014	1020	1020	1026	1036	1042	1042	1045	1045	1048	1052	1052	1055	1055	1055	1058	1058	1058	1058	1058	1071	1071	0	0	0	0	0	0	0	4406	4406	4643	4643	4771	4771	4771	4706	4643	4643	0	0	0	0	0	0	0	0	0	0	0	0	0	0	0	4643	4643	4643	4643	4643	4643	4706	4706	4706	4706	0	0	0	0	0	4706	4706	4706	4706	4706	4706	4643	4643	4643	4643	4643	4643	4643	4643	4643	4643	4643	4706	4643	4706	4706	4706	4706	4706	4706	4706	4643	4643	4643	4643	4643	4643	4643	4643	4643	4643	4643	4643	4706	4771	4771	4838	4906	4977	4977	4977	4977	0	0	0	0	0	0	0	0	0	0	0	0	0	0	5364	5364	5364	5364	5364	5364	5282	5282	5202	5202	5202	5202	5202	5125	5050	5050	5050	5050	5125	5125	5125	5125	5125	5125	5202	5125	5125	5125	5125	5125	5125	5125	5202	5202	5202	5282	5282	5282	5282	5050	5050	0	0	0	0	0	0	0	0	0	0	7779	7959	7779	7779	7779	7779	7779	7779	7959	7959	8343	8146	7779	7779	7779	7779	7779	7608	7608	7608	7608	7779	5535	5535	5535	5535	5364	5448	5535	5626	5535	5535	5535	5535	5626	5626	5626	5626	5719	5719	5815	5719	5719	5719	5719	5719	5719	0	3406	3373	3373	3373	3309	3309	3309	3309	3309	3309	3309	3309	3309	3309	3309	3309	3309	3309	3309	3309	3341	3373	3373	3373	3373	3373	3373	3373	3373	3341	3341	3309	3309	3309	3309	3309	3309	3277	3277	3277	3277	3277	3277	3277	3277	3277	3277	3277	3309	3309	3309	3309	3309	3309	3309	3309	3309	3277	3277	3277	3277	0	0	0	0	0	0	0	4350	4296	4296	0	0	0	0	0	0	0	0	0	0	0	0	0	0	4350	4350	4350	4350	4350	4406	4406	4406	4406	4406	4406	4350	4350	4350	4350	4350	4350	4406	4406	4406	4463	4463	4521	4521	4581	4521	4521	4463	4521	4521	4406	4406	4406	4406	4406	4406	4406	4521	4521	4581	4581	4581	4581	4521	4521	4521	4463	4463	4463	4463	4463	4406	4406	4406	4406	4406	4350	4406	4406	4463	4406	4463	4406	4406	4406	0	0	4350	4350	4350	4463	4463	4521	4463	4463	4521	4581	4521	4521	4463	4463	4463	4463	4406	4406	4463	4463	4406	4406	4350	4350	4406	4406	4350	4406	4406	4406	4463	4463	4463	4463	4463	4463	4406	4406	4463	4406	4406	4406	4406	4463	4521	4521	4463	4463	4463	4463	4406	4350	4350	4406	4350	4350	4350	4350	4350	4350	4350	4350	4350	4350	4406	4406	4406	4463	4463	4521	4521	4521	4521	4521	4521	4521	4581	4581	4581	4643	4643	4643	4643	4643	4643	5448	5448	5448	5448	5448	5448	5448	5448	5448	5448	5448	5448	5448	5448	5448	5448	5364	5448	5448	5448	5448	5448	5448	5448	5448	5364	5364	5282	5282	5282	5282	5282	5282	5282	5282	5202	5202	5202	5125	4977	4977	0	0	0	0	0	0	0	0	0	0	0	0	0	0	0	1347	1347	1352	1352	1347	1347	1342	1342	1342	1336	1336	1336	1336	1336	1336	1331	1331	1326	1326	1326	1321	1321	1321	1321	1316	1316	1316	1316	1321	1321	1321	1321	1321	1326	1331	1331	1331	1336	1358	1358	1358	1358	1358	1358	1363	1368	1374	1368	1368	1374	1374	0	0	0	2359	2359	2359	2343	2343	2343	2343	0	0	0	0	0	0	0	0	0	0	0	0	0	0	0	0	0	0	0	0	0	0	0	0	0	0	0	0	0	0	0	0	0	0	0
0	0	0	0	0	0	0	0	966	980	983	983	983	985	991	994	997	997	1000	1003	1006	1008	1014	1020	1023	1030	1033	1036	1039	1045	1045	1048	1052	1055	1055	1058	1055	1058	1058	1058	1058	1061	1068	1068	0	0	0	0	0	0	0	4406	4406	4643	4643	4771	4771	4706	4643	4643	4643	0	0	0	0	0	0	0	0	0	0	0	0	0	0	0	4643	4643	4643	4643	4643	4643	4643	4706	4706	4706	0	0	0	0	0	4706	4706	4706	4706	4706	4643	4643	4643	4643	4643	4643	4643	4643	4643	4643	4643	4706	4643	4643	4643	4643	4643	4643	4643	4643	4643	4643	4643	4643	4643	4643	4643	4643	4643	4643	4643	4643	4643	4706	4771	4838	4906	4906	4977	4977	5050	5125	5125	5125	0	0	0	0	0	0	0	0	0	0	0	0	5364	5535	5535	5535	5535	5448	5364	5364	5282	5282	5282	5202	5202	5125	5050	5050	5050	5050	5125	5125	5125	5125	5125	5125	5125	5050	5050	5125	5125	5125	5125	5050	5125	5125	5125	5202	5202	5202	5202	5202	5202	0	0	0	0	0	0	0	0	0	0	7779	7779	7779	7779	7779	7779	7779	7779	7959	7959	7959	7959	7779	7959	7959	7779	7779	7608	7608	7608	7779	7779	5448	5535	5535	5448	5448	5448	5448	5535	5448	5448	5448	5448	5535	5626	5535	5626	5719	5719	5815	5719	5719	5719	5719	5719	0	0	3406	3373	3373	3406	3309	3309	3309	3309	3309	3309	3309	3309	3309	3309	3309	3309	3309	3309	3309	3341	3341	3373	3373	3373	3373	3373	3406	3373	3373	3341	3309	3309	3309	3309	3277	3277	3309	3277	3277	3277	3277	3277	3277	3277	3277	3277	3309	3309	3309	3309	3309	3309	3309	3309	3309	3309	3309	3277	3277	3277	3277	0	0	0	0	0	4296	4350	4350	4296	4296	4243	4243	0	0	0	0	0	0	0	0	0	0	0	0	4350	4350	4350	4350	4350	4350	4406	4406	4406	4350	4350	4350	4350	4350	4350	4350	4350	4350	4350	4406	4406	4406	4463	4463	4521	4521	4521	4463	4521	4521	4406	4406	4406	4406	4406	4406	4406	4463	4521	4521	4581	4581	4706	4581	4581	4521	4463	4463	4463	4463	4463	4406	4406	4406	4350	4350	4350	4406	4406	4463	4406	4406	4406	4406	4406	0	0	0	0	4350	4463	4463	4463	4406	4406	4406	4521	4406	4350	4350	4350	4350	4350	4406	4406	4406	4406	4350	4350	4296	4296	4296	4350	4350	4350	4406	4406	4406	4406	4406	4406	4463	4406	4406	4406	4406	4406	4406	4406	4406	4463	4521	4521	4463	4521	4463	4463	4406	4350	4350	4406	4350	4350	4350	4350	4350	4350	4350	4350	4350	4350	4350	4406	4406	4406	4406	4463	4521	4521	4521	4521	4521	4521	4521	4581	4581	4643	4643	4643	4643	4643	4643	5535	5448	5448	5448	5448	5448	5448	5448	5448	5535	5448	5448	5448	5448	5448	5448	5448	5448	5448	5448	5448	5448	5448	5448	5448	5364	5282	5282	5282	5282	5202	5282	5282	5282	5282	5202	5202	5202	5125	4977	4977	0	0	0	0	0	0	0	0	0	0	0	0	0	0	0	1347	1347	1347	1347	1347	1347	1342	1342	1342	1336	1336	1336	1336	1336	1331	1331	1331	1326	1326	1326	1321	1321	1321	1321	1316	1316	1316	1316	1321	1321	1321	1321	1326	1331	1336	1363	1363	1363	1368	1363	1363	1363	1358	1363	1363	1374	1379	1368	1374	1374	1374	0	0	0	2359	2359	2359	2343	2359	2343	2343	0	0	0	0	0	0	0	0	0	0	0	0	0	0	0	0	0	0	0	0	0	0	0	0	0	0	0	0	0	0	0	0	0	0	0
0	0	0	0	0	0	0	0	966	980	983	983	985	988	994	994	997	997	1000	1003	1006	1008	1008	1020	1023	1030	1033	1036	1039	1045	1045	1048	1052	1055	1055	1058	1055	1058	1058	1058	1058	1058	1058	1068	0	0	0	0	0	0	0	0	4643	4643	4643	4706	4706	4706	4643	4643	4643	4643	4706	4706	0	0	0	0	0	0	0	0	0	0	0	0	4581	4643	4643	4643	4643	4643	4643	4643	4643	0	0	0	0	0	0	4706	4706	4706	4706	4706	4643	4643	4643	4643	4643	4643	4643	4643	4643	4643	4643	4643	4643	4643	4643	4706	4706	4643	4643	4706	4706	4706	4706	4643	4643	4643	4643	4643	4643	4643	4643	4643	4643	4706	4771	4771	4906	4906	5050	5050	5050	5050	5050	5050	0	0	0	0	0	0	0	0	0	0	0	5626	5626	5626	5626	5626	5626	5535	5448	5448	5364	5282	5202	5202	5202	5125	5125	5125	5125	5125	5125	5125	5125	5125	5125	5125	5125	5125	5050	5050	5125	5125	5125	5125	5125	5125	5125	5202	5202	5050	5125	5125	5202	0	0	0	0	0	0	0	0	0	0	7779	7779	7608	7608	7608	7608	7779	7779	7959	7779	7959	7959	7959	7779	7779	7779	7779	7779	7779	7779	7779	7779	7959	5535	5535	5448	5448	5448	5448	5448	5364	5364	5364	5448	5535	5626	5535	5535	5719	5719	5719	5719	5719	5719	5719	5719	0	0	3406	3406	3406	3406	3373	3309	3309	3309	3309	3309	3309	3309	3309	3309	3309	3309	3309	3309	3341	3341	3373	3406	3406	3406	3406	3406	3406	3373	3341	3341	3309	3309	3309	3277	3277	3309	3309	3309	3277	3277	3277	3277	3277	3277	3277	3277	3309	3309	3309	3309	3309	3309	3309	3309	3309	3309	3309	3309	3309	3309	0	0	0	0	0	4350	4296	4350	4350	4350	4296	4243	4243	0	0	0	0	0	0	0	0	0	0	0	0	0	4350	4350	4350	4350	4406	4406	4406	4406	4406	4406	4406	4406	4350	4350	4406	4406	4406	4406	4406	4406	4406	4406	4406	4463	4463	4406	4350	4406	4406	4406	4406	4406	4406	4406	4406	4463	4463	4521	4581	4643	4643	4643	4643	4463	4463	4463	4463	4463	4463	4463	4463	4406	4406	4406	4406	4406	4406	4406	4463	4463	4463	4463	4463	4463	0	4350	4350	4350	4406	4406	4406	4406	4406	4406	4406	4406	4406	4350	4350	4350	4350	4350	4350	4350	4350	4350	4350	4350	4350	4350	4350	4350	4296	4350	4406	4350	4350	4350	4350	4406	4463	4406	4406	4406	4406	4406	4406	4406	4406	4463	4521	4521	4521	4521	4521	4463	4406	4406	4406	4406	4350	4350	4350	4350	4350	4350	4350	4350	4350	4350	4350	4406	4406	4406	4406	4406	4406	4463	4463	4463	4521	4521	4581	4581	4581	4643	4643	4643	4706	4706	4706	5626	5626	5448	5448	5448	5448	5448	5448	5448	5448	5448	5448	5448	5448	5448	5448	5448	5448	5448	5448	5448	5448	5448	5448	5448	5364	5364	5282	5282	5282	5202	5282	5282	5282	5282	5202	5125	5125	5125	4977	4977	0	0	0	0	0	0	0	0	0	0	0	0	0	0	1347	1347	1347	1347	1347	1347	1347	1342	1342	1342	1336	1336	1336	1336	1331	1331	1331	1331	1331	1331	1326	1326	1321	1321	1321	1316	1316	1316	1316	1316	1326	1326	1326	1331	1336	1336	1363	1363	1363	1368	1368	1363	1363	1363	1363	1368	1379	1379	1379	1379	1379	1379	0	0	0	2376	2359	2359	2359	2343	2343	2343	0	0	0	0	0	0	0	0	0	0	0	0	0	0	0	0	0	0	0	0	0	0	0	0	0	0	0	0	0	0	0	0	0	0	0
0	0	0	0	0	0	0	0	963	980	983	983	985	988	988	994	994	997	1000	1003	1006	1008	1014	1020	1020	1026	1033	1036	1039	1045	1045	1048	1052	1055	1055	1052	1055	1055	1055	1058	1055	1058	1058	1058	0	0	0	0	0	0	0	0	4643	4643	4643	4706	4706	4706	4643	4643	4643	4643	4581	4581	0	0	0	0	0	0	0	0	0	0	0	0	4643	4643	4643	4643	4643	4643	4643	4643	4643	0	0	0	0	0	0	0	4706	4706	4706	4643	4643	4643	4643	4643	4643	4643	4643	4643	4643	4643	4706	4706	4706	4643	4706	4706	4706	4643	4643	4643	4706	4706	4706	4706	4643	4706	4643	4643	4643	4643	4643	4643	4643	4706	4706	4771	4906	4906	5050	5050	5125	5125	5202	5202	0	0	0	0	0	0	0	0	0	5626	5626	5626	5626	5626	5719	5626	5626	5535	5448	5364	5282	5282	5202	5202	5202	5125	5125	5125	5125	5125	5125	5125	5125	5125	5125	5125	5125	5125	5050	5125	5125	5125	5125	5125	5125	5125	5125	5202	5125	5050	5125	5125	0	0	0	0	0	0	0	0	0	0	0	0	0	7608	7608	7608	7779	7779	7779	7959	7779	7779	7959	7959	7779	7779	7779	7779	7779	7779	7779	7959	7959	7959	5535	5535	5448	5448	5448	5448	5448	5448	5364	5448	5448	5535	5626	5626	5626	5719	5719	5719	5815	5815	5815	5815	0	0	0	3406	3406	3406	3406	3341	3309	3309	3309	3309	3309	3309	3309	3309	3309	3309	3309	3309	3341	3341	3373	3406	3406	3406	3406	3406	3406	3373	3373	3341	3341	3309	3309	3309	3309	3309	3309	3309	3309	3277	3277	3277	3277	3277	3277	3277	3277	3309	3309	3309	3309	3309	3309	3309	3309	3309	3309	3309	3309	3309	3309	0	0	0	0	0	4350	4296	4350	4350	4243	4243	4243	4243	0	0	0	0	0	0	0	0	0	0	0	0	0	4463	4406	4406	4406	4463	4463	4463	4463	4463	4406	4463	4463	4406	4406	4463	4463	4463	4406	4406	4463	4406	4406	4406	4406	4463	4463	4350	4406	4406	4463	4463	4463	4463	4463	4463	4463	4463	4521	4521	4581	4581	4581	4581	4463	4521	4521	4521	4521	4463	4463	4463	4406	4406	4406	4406	4406	4406	4406	4463	4521	4521	4463	4463	4463	0	4350	4350	4406	4406	4406	4406	4406	4406	4350	4350	4350	4350	4350	4296	4296	4296	4296	4296	4296	4350	4350	4350	4350	4350	4296	4350	4350	4296	4350	4350	4350	4350	4296	4350	4406	4406	4406	4406	4406	4406	4350	4350	4406	4406	4463	4463	4463	4463	4521	4463	4463	4406	4406	4406	4406	4350	4350	4350	4350	4350	4350	4350	4350	4350	4350	4350	4350	4350	4350	4406	4406	4406	4406	4406	4406	4463	4463	4581	4581	4643	4643	4643	4643	4706	4706	4706	5535	5535	5535	5448	5448	5535	5448	5448	5448	5535	5448	5448	5448	5448	5448	5448	5448	5448	5448	5364	5448	5448	5364	5364	5364	5364	5282	5282	5282	5202	5202	5202	5282	5282	5282	5202	5202	5202	5125	0	0	0	0	0	0	0	0	0	0	0	0	0	0	0	0	1352	1352	1347	1347	1347	1347	1347	1342	1342	1336	1336	1336	1336	1336	1336	1331	1331	1331	1331	1331	1326	1326	1326	1321	1321	1321	1316	1316	1321	1321	1326	1326	1326	1331	1336	1342	1352	1363	1363	1368	1368	1368	1368	1363	1368	1374	1374	1379	1379	1385	1385	1379	0	0	2376	2376	2359	2359	2359	2359	2343	2343	0	0	0	0	0	0	0	0	0	0	0	0	0	0	0	0	0	0	0	0	0	0	0	0	0	0	0	0	0	0	0	0	0	0	0
0	0	0	0	0	0	0	0	969	969	983	983	983	988	994	994	997	997	1000	1003	1008	1008	1014	1020	1020	1030	1033	1036	1042	1045	1048	1048	1052	1055	1055	1052	1055	1055	1055	1058	1058	1058	1058	1058	0	0	0	0	0	0	0	0	4643	4643	4643	4771	4706	4706	4706	4643	4643	4643	4581	4581	0	0	0	0	0	0	0	0	0	0	0	0	4643	4643	4643	4643	4643	4643	4643	4643	4643	0	0	0	0	0	0	0	4706	4643	4643	4643	4643	4643	4643	4643	4643	4643	4643	4643	4643	4643	4706	4706	4706	4643	4706	4706	4706	4706	4643	4706	4706	4706	4706	4706	4706	4706	4643	4643	4643	4643	4643	4643	4643	4706	4706	4771	4906	4906	4977	4977	5050	5050	5050	5125	0	0	0	0	0	0	0	5535	5535	5626	5626	5626	5626	5719	5719	5626	5626	5535	5448	5364	5364	5282	5202	5202	5202	5125	5125	5125	5125	5125	5202	5202	5125	5125	5125	5125	5125	5125	5125	5125	5125	5202	5202	5202	5202	5125	5202	5202	5125	5125	5125	5125	5125	0	0	0	0	0	0	0	0	0	0	0	0	0	7608	7608	7779	7779	7779	7959	7779	7779	7779	7959	7779	7779	7779	7959	7959	7779	7779	7959	7959	8146	5448	5448	5448	5448	5448	5448	5535	5535	5448	5535	5535	5626	5626	5535	5626	5719	5719	5719	5719	5815	5815	5815	0	0	3440	3406	3406	3373	3373	3373	3309	3309	3309	3309	3309	3309	3309	3309	3309	3309	3309	3309	3309	3341	3373	3406	3406	3406	3406	3406	3406	3373	3373	3373	3341	3341	3309	3309	3309	3309	3309	3309	3309	3277	3277	3277	3277	3277	3277	3277	3277	3309	3309	3309	3309	3309	3309	3309	3309	3309	3309	3309	3309	3309	0	0	0	0	0	0	0	4350	4350	4350	4296	4243	4296	4296	4296	0	0	0	0	0	0	0	0	0	0	0	0	4463	4463	4463	4406	4463	4521	4463	4463	4463	4463	4521	4521	4463	4463	4521	4521	4521	4463	4463	4521	4521	4521	4463	4521	4463	4521	4463	4463	4463	4521	4521	4463	4463	4463	4463	4521	4521	4463	4521	4581	4581	4581	4581	4581	4706	4706	4581	4521	4521	4463	4463	4463	4463	4406	4406	4406	4406	4406	4581	4521	4521	4521	4463	4521	4521	4521	4463	4350	4350	4350	4350	4350	4350	4350	4350	4350	4350	4296	4296	4296	4296	4296	4296	4296	4350	4350	4350	4350	4350	4296	4350	4350	4350	4350	4350	4350	4350	4350	4350	4350	4350	4350	4406	4406	4406	4406	4406	4406	4406	4463	4463	4463	4463	4463	4463	4463	4406	4406	4406	4406	4406	4350	4350	4350	4350	4350	4350	4350	4350	4350	4350	4350	4350	4350	4406	4406	4406	4406	4406	4406	4406	4463	4643	4581	4643	4643	4643	4643	4706	4706	4706	5626	5626	5535	5448	5448	5448	5448	5448	5448	5448	5448	5448	5448	5448	5448	5448	5448	5448	5448	5448	5448	5448	5448	5364	5364	5364	5364	5282	5282	5282	5202	5202	5282	5202	5202	5202	5202	5202	0	0	0	0	0	0	0	0	0	0	0	0	0	0	0	0	0	1352	1347	1347	1347	1342	1347	1347	1342	1342	1336	1336	1336	1336	1336	1336	1331	1336	1331	1326	1326	1326	1326	1321	1316	1316	1321	1321	1321	1321	1326	1326	1326	1326	1326	1326	1326	1363	1363	1368	1374	1374	1374	1368	1368	1374	1379	1379	1385	1385	1385	1385	0	0	2359	2376	2376	2376	2359	2359	2359	2359	2359	0	0	0	0	0	0	0	0	0	0	0	0	0	0	0	0	0	0	0	0	0	0	0	0	0	0	0	0	0	0	0	0	0	0	0
0	0	0	0	0	0	0	0	980	983	983	983	985	988	991	994	994	997	1000	1000	1006	1008	1011	1017	1017	1026	1030	1036	1039	1045	1045	1048	1052	1052	1055	1055	1055	1058	1058	1058	1058	1058	1058	1058	1055	1055	0	0	0	0	0	0	4643	4643	4643	4706	4706	4706	4643	4643	4643	4643	4581	4581	0	0	0	0	0	0	0	0	0	0	0	0	4643	4643	4643	4643	4643	4643	4643	4643	4643	0	0	0	0	0	0	0	4643	4643	4643	4643	4643	4643	4643	4643	4643	4643	4643	4643	4643	4643	4706	4706	4706	4706	4706	4706	4706	4706	4643	4643	4706	4706	4706	4706	4706	4643	4643	4643	4643	4643	4643	4643	4643	4706	4706	4838	4906	4906	4906	4906	4977	5050	5050	5050	0	0	0	0	0	0	0	5535	5626	5626	5626	5626	5626	5719	5719	5719	5626	5448	5364	5364	5282	5202	5202	5202	5202	5125	5125	5125	5125	5125	5125	5202	5125	5125	5125	5125	5125	5125	5125	5125	5125	5125	5125	5125	5125	5125	5125	5125	5125	5125	5050	5050	5050	5050	0	0	0	0	0	0	0	0	0	0	0	0	0	0	7779	7779	7779	7779	7779	7779	7779	7959	7779	7779	7779	7779	7779	7779	7779	7959	7959	7959	5448	5448	5448	5448	5448	5448	5535	5535	5448	5535	5626	5626	5626	5626	5719	5719	5719	5719	5719	0	0	0	0	0	3440	3406	3406	3373	3406	3373	3309	3309	3277	3309	3309	3277	3277	3309	3309	3309	3309	3309	3309	3341	3373	3373	3373	3406	3406	3406	3373	3373	3373	3341	3341	3341	3309	3309	3309	3309	3309	3309	3309	3309	3277	3277	3277	3277	3277	3277	3277	3309	3309	3309	3309	3309	3309	3309	3309	3309	3309	3309	3309	0	0	0	0	0	0	0	0	4296	4296	4296	4296	4192	4192	4192	4296	0	0	0	0	0	0	0	0	0	0	0	0	4463	4463	4463	4463	4521	4521	4521	4463	4521	4521	4521	4521	4521	4521	4521	4521	4521	4521	4521	4521	4521	4521	4521	4581	4581	4581	4521	4521	4521	4521	4521	4521	4521	4521	4521	4521	4521	4521	4521	4581	4581	4581	4581	4581	4581	4643	4581	4521	4521	4521	4521	4521	4521	4521	4521	4581	4463	4406	4643	4581	4521	4521	4521	4521	4521	4521	4463	4463	4406	4406	4350	4350	4350	4350	4350	4296	4296	4296	4296	4296	4296	4296	4296	4296	4296	4350	4296	4296	4296	4296	4350	4350	4350	4350	4350	4350	4350	4350	4350	4350	4350	4350	4350	4350	4406	4406	4350	4406	4406	4463	4463	4406	4406	4406	4406	4406	4406	4406	4406	4406	4406	4350	4350	4350	4350	4350	4350	4350	4350	4350	4406	4350	4350	4350	4350	4406	4406	4406	4406	4406	4406	4406	4521	4581	4643	4643	4643	4706	4643	4643	4643	5535	5535	5535	5448	5448	5448	5448	5448	5448	5448	5448	5448	5448	5448	5448	5448	5448	5448	5448	5448	5448	5448	5364	5364	5282	5282	5282	5202	5202	5202	5202	5202	5202	5202	5202	0	0	0	0	0	0	0	0	0	0	0	0	0	0	0	0	0	0	0	0	0	1347	1347	1347	1342	1347	1342	1342	1342	1336	1336	1336	1336	1336	1336	1331	1331	1331	1326	1326	1326	1321	1321	1316	1316	1321	1321	1321	1321	1326	1326	1321	1326	1321	1321	1326	1363	1368	1368	1374	1374	1374	1374	1374	1374	1374	1374	1374	1385	1385	0	2343	2359	2359	2359	2359	2359	2359	2359	2359	2343	2343	0	0	0	0	0	0	0	0	0	0	0	0	0	0	0	0	0	0	0	0	0	0	0	0	0	0	0	0	0	0	0	0	0	0	0
0	0	0	0	0	0	0	0	974	980	983	983	985	988	991	994	994	997	1000	1000	1006	1008	1011	1017	1017	1026	1030	1033	1039	1042	1045	1045	1048	1052	1052	1052	1055	1058	1058	1058	1058	1058	1058	1058	1055	1055	0	0	0	0	0	0	4581	4581	4581	4706	4643	4643	4643	4643	4643	4643	4581	4581	4581	0	0	0	0	0	0	0	0	0	0	0	0	4643	4643	4581	4643	4643	4581	4581	4581	0	0	0	0	0	0	0	4706	4643	4643	4643	4643	4643	4643	4643	4643	4643	4643	4643	4643	4643	4706	4706	4706	4643	4643	4643	4706	4706	4643	4643	4643	4706	4706	4643	4643	4643	4643	4643	4643	4643	4643	4643	4643	4643	4706	4771	4906	4906	4906	4977	4977	5050	5050	5050	0	0	0	0	0	0	5535	5626	5719	5626	5626	5626	5626	5719	5719	5719	5626	5448	5282	5282	5282	5202	5202	5202	5202	5125	5202	5125	5125	5125	5202	5202	5125	5202	5125	5125	5125	5125	5125	5125	5125	5202	5125	5202	5202	5125	5125	5125	5050	5125	5125	5125	5125	5125	0	0	0	0	0	0	0	0	0	0	0	0	0	0	0	7779	7779	7779	7779	7779	7779	7779	7779	7779	7779	7779	7779	7779	7779	7959	7959	7959	5448	5448	5448	5448	5364	5448	5535	5535	5535	5626	5626	5719	5719	5626	5626	5626	5626	5626	5719	0	0	0	0	0	0	0	3406	3406	3406	3373	3373	3341	3309	3309	3309	3309	3309	3309	3309	3309	3309	3309	3309	3309	3341	3373	3373	3373	3406	3406	3373	3373	3373	3373	3373	3373	3341	3341	3341	3341	3309	3309	3309	3309	3277	3277	3277	3277	3277	3277	3277	3277	3309	3309	3309	3309	3309	3309	3309	3341	3309	3309	3309	0	0	0	0	0	0	0	0	4296	4296	4296	4296	4192	4192	4142	4142	0	0	0	0	0	0	0	0	0	0	0	0	0	4463	4463	4463	4521	4581	4581	4521	4521	4521	4521	4521	4521	4521	4581	4581	4581	4581	4581	4581	4581	4581	4581	4581	4581	4581	4581	4581	4581	4581	4581	4521	4521	4521	4581	4581	4521	4521	4581	4581	4581	4581	4581	4581	4581	4581	4581	4581	4521	4581	4581	4581	4581	4581	4643	4643	4521	4706	4706	4706	4581	4581	4581	4581	4521	4521	4463	4463	4463	4406	4350	4350	4350	4350	4350	4296	4296	4296	4296	4296	4296	4296	4243	4243	4296	4296	4296	4296	4296	4296	4350	4296	4296	4350	4350	4350	4350	4296	4350	4350	4350	4350	4350	4350	4406	4406	4406	4406	4406	4463	4463	4406	4406	4406	4406	4406	4406	4406	4406	4350	4350	4350	4350	4296	4350	4350	4350	4350	4350	4350	4350	4350	4350	4350	4350	4406	4350	4350	4350	4350	4406	4406	4521	4581	4643	4643	4643	4643	4643	4643	4643	4643	5535	5535	5448	5448	5448	5448	5448	5448	5448	5448	5448	5448	5448	5448	5448	5364	5364	5364	5364	5364	5448	5364	5364	5282	5282	5202	5202	5202	5202	5202	5202	5202	0	0	0	0	0	0	0	0	0	0	0	0	0	0	0	0	0	0	0	0	0	0	0	0	1347	1347	1347	1347	1347	1342	1342	1336	1336	1336	1336	1336	1336	1331	1331	1331	1326	1326	1321	1326	1321	1316	1316	1321	1321	1321	1321	1326	1326	1321	1321	1321	1321	0	0	1368	1374	1379	1374	1374	1374	1374	1374	1379	1379	1379	0	0	0	2343	2359	2359	2359	2359	2359	2359	2359	2359	2343	2343	0	0	0	0	0	0	0	0	0	0	0	0	0	0	0	0	0	0	0	0	0	0	0	0	0	0	0	0	0	0	0	0	0	0	0
0	0	0	0	0	0	0	0	974	980	983	983	985	985	991	994	994	997	997	1000	1006	1008	1014	1017	1020	1026	1030	1036	1039	1042	1045	1045	1048	1052	1055	1055	1055	1058	1058	1058	1061	1061	1058	0	0	0	0	0	0	0	0	4581	4581	4581	4581	4706	4643	4643	4643	4643	4643	4643	4643	4581	4463	4463	0	0	0	0	0	0	0	0	0	0	0	4706	4706	4643	4643	4581	4581	4643	4581	4581	0	0	0	0	0	0	4643	4643	4643	4643	4643	4643	4581	4643	4643	4643	4643	4643	4643	4643	4706	4706	4706	4706	4643	4643	4643	4643	4643	4643	4643	4706	4706	4643	4643	4643	4643	4643	4643	4643	4643	4643	4643	4643	4706	4706	4771	4906	4838	4906	4977	5050	4977	4906	4906	0	0	0	0	0	5535	5719	5719	5626	5626	5626	5626	5626	5626	5626	5448	5364	5282	5282	5282	5202	5202	5202	5202	5202	5202	5202	5125	5125	5125	5125	5125	5125	5125	5125	5125	5125	5125	5125	5125	5125	5125	5202	5202	5202	5125	5202	5125	5125	5125	5125	5125	5125	0	0	0	0	0	0	0	0	0	0	0	0	0	0	0	0	0	7779	7779	7779	7779	7779	7779	7779	7779	7959	7959	7779	7779	7959	8146	8146	8146	5448	5448	5448	5364	5448	5535	5535	5535	5535	5535	5626	5626	5626	5626	5535	5535	5535	0	0	0	0	0	0	0	0	3406	3406	3406	3373	3373	3309	3309	3309	3309	3309	3309	3309	3309	3309	3309	3309	3309	3309	3341	3309	3341	3373	3373	3373	3373	3373	3373	3373	3373	3341	3341	3341	3341	3309	3309	3309	3309	3309	3277	3277	3277	3277	3277	3277	3277	3309	3309	3309	3309	3309	3309	3341	3341	3341	3341	3341	3341	0	0	0	0	0	0	0	0	4296	4296	4296	4296	4142	4142	4142	4142	4142	0	0	0	0	0	0	0	0	0	0	0	0	0	4521	4521	4706	4643	4643	4581	4581	4581	4581	4581	4581	4581	4581	4581	4581	4581	4581	4581	4581	4581	4581	4581	4581	4581	4581	4581	4581	4581	4581	4581	4581	4581	4581	4581	4581	4581	4581	4581	4581	4581	4581	4643	4581	4581	4581	4581	4581	4581	4581	4581	4581	4581	4643	4643	4643	4643	4706	4643	4581	4581	4581	4581	4581	4521	4521	4463	4463	4463	4350	4350	4350	4350	4350	4296	4296	4296	4296	4296	4296	4296	4296	4296	4296	4296	4296	4296	4296	4296	4296	4296	4296	4296	4350	4350	4296	4296	4296	4350	4350	4350	4350	4350	4406	4406	4406	4406	4406	4463	4463	4406	4406	4406	4406	4406	4406	4406	4406	4350	4350	4350	4350	4296	4350	4350	4350	4350	4350	4350	4350	4350	4350	4350	4350	4350	4350	4350	4350	4350	4406	4406	4581	4581	4643	4706	4706	4706	4706	4706	4706	4643	5535	5535	5535	5535	5535	5448	5535	5535	5448	5448	5448	5448	5364	5364	5364	5364	5364	5364	5448	5448	5448	5448	5448	5364	5364	5364	5202	5202	5202	5202	5202	0	0	0	0	0	0	0	0	0	0	0	0	0	0	0	0	0	0	0	0	0	0	0	0	0	0	0	1342	1347	1342	1342	1336	1336	1336	1336	1336	1336	1336	1336	1331	1331	1326	1326	1321	1321	1321	1316	1316	1321	1321	1321	1326	1331	1331	1326	1326	1326	1326	0	0	0	1374	1379	1374	1374	1379	1379	1379	1379	1379	1379	0	0	2359	2359	2359	2359	2359	2376	2359	2359	2359	2359	2343	2343	0	0	0	0	0	0	0	0	0	0	0	0	0	0	0	0	0	0	0	0	0	0	0	0	0	0	0	0	0	0	0	0	0	0	0
0	0	0	0	0	0	0	0	974	974	980	983	985	985	991	994	997	997	1000	1000	1006	1008	1014	1017	1017	1026	1030	1039	1042	1045	1045	1048	1048	1052	1055	1055	1058	1058	1061	1061	1068	1068	1068	0	0	0	0	0	0	0	0	4581	4581	4581	4581	4643	4643	4643	4643	4643	4643	4643	4643	4521	4463	4463	0	0	0	0	0	0	0	0	0	0	4706	4643	4581	4581	4643	4643	4581	4581	4581	4581	0	0	0	0	0	0	4643	4643	4643	4643	4643	4643	4643	4643	4643	4643	4643	4643	4643	4643	4706	4706	4643	4706	4643	4643	4643	4643	4643	4706	4643	4706	4643	4643	4643	4643	4643	4643	4643	4643	4643	4643	4643	4643	4706	4706	4771	4838	4838	4838	4838	4906	4906	4906	4906	0	0	0	0	0	5626	5626	5626	5626	5626	5626	5535	5626	5626	5535	5282	5282	5282	5282	5282	5282	5202	5202	5202	5202	5202	5202	5125	5125	5202	5202	5202	5202	5125	5125	5202	5125	5125	5202	5202	5202	5202	5202	5202	5202	5125	5202	5125	5125	5125	5125	5125	0	0	0	0	0	0	0	0	0	0	0	0	0	0	0	0	0	0	0	0	7779	7779	7779	7779	7779	7779	7779	7779	7779	7779	7779	8343	8343	8343	5448	5282	5282	5282	5364	5364	5535	5626	5626	5626	5626	5626	5626	5626	5626	5626	5626	0	0	0	0	0	0	0	0	0	3440	3440	3406	3406	3373	3309	3309	3309	3309	3309	3309	3309	3309	3341	3309	3309	3341	3341	3341	3341	3373	3373	3373	3373	3373	3373	3373	3373	3373	3373	3341	3341	3309	3309	3309	3309	3309	3277	3277	3277	3277	3277	3277	3277	3277	3277	3277	3309	3309	3309	3341	3341	3341	3341	3341	3341	0	0	0	0	0	0	0	0	0	4296	4243	4192	4142	4142	4142	4142	4093	4093	0	0	4093	4093	0	0	0	0	0	0	0	0	4521	4643	4643	4643	4643	4581	4581	4581	4581	4643	4643	4643	4643	4643	4581	4581	4581	4581	4581	4581	4581	4581	4581	4581	4581	4581	4581	4581	4581	4581	4581	4581	4581	4581	4581	4581	4581	4581	4581	4581	4581	4643	4581	4581	4581	4581	4581	4581	4581	4581	4581	4581	4581	4581	4581	4581	4643	4643	4581	4581	4581	4581	4581	4521	4521	4463	4463	4463	4350	4350	4350	4296	4296	4296	4296	4296	4296	4296	4296	4243	4243	4296	4296	4296	4296	4243	4296	4296	4296	4296	4296	4296	4350	4350	4350	4350	4350	4350	4350	4350	4350	4350	4406	4406	4406	4406	4463	4463	4463	4406	4463	4406	4406	4406	4406	4406	4406	4350	4350	4350	4350	4296	4296	4350	4350	4350	4350	4350	4350	4350	4350	4350	4350	4350	4350	4350	4350	4350	4350	4406	4581	4581	4706	4706	4706	4706	4706	4706	4706	0	5535	5535	5535	5448	5535	5535	5535	5535	5535	5535	5535	5448	5448	5364	5364	5364	5282	5202	5202	5448	5448	5448	5448	5364	5364	5364	0	0	0	0	0	0	0	0	0	0	0	0	0	0	0	0	0	0	0	0	0	0	0	0	0	0	0	0	0	0	0	0	1342	1347	1342	1342	1336	1336	1336	1336	1336	1336	1336	1336	1331	1331	1331	1326	1326	1326	1321	1321	1321	1326	1326	1326	1326	1331	1331	1331	1326	1326	1326	1326	0	0	0	1379	2460	1379	1379	1379	1379	2443	2443	0	2376	2376	2376	2359	2359	2359	2359	2359	2359	2359	2343	2343	2327	2327	0	0	0	0	0	0	0	0	0	0	0	0	0	0	0	0	0	0	0	0	0	0	0	0	0	0	0	0	0	0	0	0	0	0	0
0	0	0	0	0	0	0	0	977	977	977	983	983	985	988	994	997	997	1000	1000	1006	1008	1011	1017	1020	1026	1030	1039	1042	1045	1048	1048	1052	1052	1055	1055	1058	1058	1058	1068	1071	1071	1068	0	0	0	0	0	0	0	0	4581	4581	4581	4581	4643	4643	4643	4643	4581	4581	4581	4581	4521	4521	4463	0	0	0	0	0	0	0	0	0	0	4706	4706	4643	4643	4643	4643	4643	4581	4581	4581	0	0	0	0	0	0	0	4643	4643	4643	4643	4643	4643	4643	4643	4643	4643	4706	4706	4643	4706	4706	4643	4706	4643	4643	4706	4706	4706	4706	4643	4706	4706	4706	4643	4643	4643	4643	4643	4643	4643	4643	4706	4643	4706	4706	4771	4838	4838	4838	4838	4906	4906	4906	4906	0	0	0	0	0	5626	5626	5626	5626	5626	5626	5535	5535	5535	5448	5202	5202	5202	5202	5202	5202	5202	5202	5202	5202	5202	5202	5125	5125	5125	5125	5125	5125	5125	5202	5202	5202	5202	5202	5202	5202	5202	5202	5202	5125	5125	5125	5202	5202	5202	5202	5125	0	0	0	0	0	0	0	0	0	0	0	0	0	0	0	0	0	0	0	0	0	7779	7959	7779	7779	7779	7779	7779	7779	7779	7779	8343	8146	8146	0	5282	5282	5364	5364	5448	5626	5626	5626	5626	5626	5626	5626	5626	5626	5626	5626	5626	0	0	0	0	0	0	0	0	3440	3440	3406	3406	3373	3309	3309	3309	3277	3277	3309	3309	3309	3341	3309	3309	3341	3341	3341	3373	3373	3373	3406	3406	3373	3373	3406	3406	3406	3406	3341	3341	3309	3309	3309	3309	3309	3277	3309	3309	3277	3309	3277	3277	3277	3277	3309	3309	3309	3309	3309	3341	3341	3341	3341	3341	3341	0	0	0	0	0	0	0	0	0	4243	4192	4192	4142	4142	4142	4192	4192	0	0	4093	4093	0	0	0	0	0	0	0	0	0	4643	4643	4643	4643	4643	4643	4643	4643	4643	4643	4643	4643	4581	4581	4581	4581	4581	4581	4581	4581	4581	4581	4581	4581	4581	4581	4581	4581	4581	4581	4581	4581	4581	4581	4581	4581	4581	4581	4581	4581	4581	4581	4581	4581	4581	4581	4581	4581	4581	4581	4581	4581	4581	4581	4581	4581	4581	4581	4581	4521	4521	4521	4521	4463	4463	4406	4406	4350	4350	4350	4296	4296	4296	4296	4296	4296	4296	4296	4296	4243	4296	4296	4296	4243	4243	4296	4296	4296	4296	4296	4350	4350	4350	4350	4350	4350	4350	4350	4350	4350	4350	4350	4350	4406	4406	4463	4521	4463	4406	4406	4406	4406	4406	4406	4406	4406	4350	4350	4350	4350	4296	4350	4350	4350	4350	4350	4350	4406	4406	4350	4406	4350	4406	4350	4350	4350	4350	4350	4350	4521	4643	4643	4706	4706	4706	4643	4643	0	0	0	5535	5535	5535	5535	5448	5448	5448	5535	5535	5535	5448	5448	5364	5364	0	5282	5202	5202	0	0	0	0	0	0	0	0	0	0	0	0	0	0	0	0	0	0	0	0	0	0	0	0	0	0	0	0	0	0	0	0	0	0	0	0	0	0	0	1352	1352	1347	1342	1336	1336	1336	1336	1336	1336	1336	1336	1331	1331	1331	1326	1326	1321	1321	1321	1321	1326	1326	1326	1326	1331	1331	1331	1326	1326	1326	1326	0	0	0	0	2460	2443	2443	2443	2460	2443	2426	2409	2392	2392	2376	2376	2376	2359	2359	2359	2359	2359	2343	2359	2343	2343	0	0	0	0	0	0	0	0	0	0	0	0	0	0	0	0	0	0	0	0	0	0	0	0	0	0	0	0	0	0	0	0	0	0	0
0	0	0	0	0	0	0	0	977	977	977	980	983	985	988	994	997	997	1000	1003	1006	1008	1011	1020	1020	1030	1033	1042	1042	1045	1048	1048	1052	1052	1055	1055	1055	1058	1061	1071	1074	1074	1074	0	0	0	0	0	0	0	0	4521	4581	4581	4581	4643	4581	4643	4643	4581	4581	4581	4521	4521	4521	0	0	0	0	0	0	0	0	4906	4906	4906	4771	4706	4643	4643	4706	4643	4643	4581	4643	4643	0	0	0	0	0	0	0	4643	4643	4643	4643	4643	4643	4643	4643	4643	4643	4706	4643	4643	4643	4706	4706	4706	4706	4643	4643	4706	4706	4706	4643	4706	4706	4706	4643	4643	4643	4643	4643	4643	4643	4643	4643	4643	4643	4706	4706	4906	4838	4838	4771	4906	4906	4906	4906	0	0	0	0	0	0	5815	5815	5815	5719	5626	5626	5626	5535	5448	5282	5282	5282	5282	5202	5202	5202	5202	5202	5202	5202	5202	5202	5125	5125	5125	5125	5125	5125	5125	5202	5202	5202	5202	5202	5202	5202	5125	5202	5125	5050	5125	5125	5125	5125	5202	0	0	0	0	0	0	0	0	0	0	0	0	0	0	0	0	0	0	0	0	0	0	7779	7959	7779	7779	7779	7779	7608	7608	7608	7608	8146	8146	8146	0	0	5282	5364	5364	5448	5448	5626	5626	5626	5626	5626	5626	5626	5626	5626	5626	5626	5626	0	0	0	0	0	0	0	0	3440	3406	3406	3373	3309	3309	3309	3309	3309	3309	3309	3341	3341	3341	3309	3309	3341	3341	3373	3373	3373	3373	3406	3406	3406	3406	3440	3406	3406	3341	3341	3309	3309	3309	3309	3309	3277	3277	3277	3277	3277	3277	3277	3277	3277	3277	3309	3309	3309	3341	3341	3341	3341	3341	3341	3341	0	0	0	0	0	0	0	0	4243	4243	4243	4192	4192	4192	4142	4142	4142	4093	3998	3998	4093	0	0	0	0	0	0	0	0	0	4643	4706	4706	4706	4643	4643	4643	4706	4643	4643	4643	4643	4581	4581	4581	4581	4581	4581	4581	4581	4581	4581	4581	4581	4581	4581	4581	4581	4581	4581	4581	4581	4581	4581	4581	4581	4581	4581	4581	4581	4581	4581	4581	4581	4581	4581	4581	4581	4581	4581	4581	4581	4581	4581	4581	4581	4581	4581	4581	4581	4581	4581	4521	4521	4406	4406	4406	4350	4350	4350	4296	4296	4296	4296	4296	4296	4296	4296	4296	4296	4296	4296	4296	4243	4296	4296	4296	4296	4296	4296	4350	4350	4350	4350	4350	4350	4350	4350	4350	4350	4350	4350	4406	4406	4406	4463	4463	4463	4406	4406	4406	4406	4406	4406	4406	4350	4350	4406	4406	4350	4350	4350	4350	4350	4406	4350	4350	4406	4406	4350	4350	4350	4350	4350	4350	4350	4350	4350	4406	4521	4643	4643	4706	4643	4643	4643	4643	4643	0	0	0	0	5535	5535	5448	5448	5448	5535	5535	0	0	0	0	0	0	0	0	0	0	0	0	0	0	0	0	0	0	0	0	0	0	0	0	0	0	0	0	0	0	0	0	0	0	0	0	0	0	0	0	0	0	0	0	0	0	0	0	1352	1347	1342	1342	1336	1336	1336	1336	1336	1336	1336	1336	1331	1331	1331	1331	1326	1326	1321	1321	1321	1326	1326	1326	1321	1331	1331	1331	1326	1326	1326	1326	0	0	2460	2460	2460	2443	2443	2443	2443	2426	2426	2409	2392	2392	2392	2392	2376	2376	2376	2376	2359	2359	2343	2343	2343	2343	0	0	0	0	0	0	0	0	0	0	0	0	0	0	0	0	0	0	0	0	0	0	0	0	0	0	0	0	0	0	0	0	0	0	0
0	0	0	0	0	0	0	0	974	977	977	983	985	988	991	994	997	997	1000	1003	1006	1006	1014	1023	1023	1030	1033	1039	1042	1045	1048	1048	1052	1052	1052	1055	1055	1058	1064	1071	1071	1074	1074	0	0	0	0	0	0	4521	4581	4581	4581	4581	4581	4643	4643	4643	4643	4581	4581	4581	4521	4521	4521	0	0	0	0	0	0	0	4977	4977	4906	4906	4771	4706	4706	4643	4706	4643	4643	4581	4643	4643	4643	0	0	0	0	0	0	4643	4643	4643	4643	4643	4643	4643	4643	4643	4643	4706	4706	4706	4643	4643	4706	4706	4706	4643	4643	4706	4706	4706	4643	4643	4643	4643	4643	4643	4643	4643	4643	4643	4643	4643	4643	4706	4706	4706	4706	4906	4906	4838	4838	4977	4977	4977	4977	4977	0	0	0	5815	5915	5815	5915	5915	5915	5915	5626	5626	5448	5364	5282	5282	5282	5282	5282	5282	5282	5202	5282	5202	5202	5202	5202	5125	5125	5125	5125	5125	5125	5125	5202	5202	5202	5202	5125	5125	5125	5125	5050	5125	5050	5125	5125	5125	5125	0	0	0	0	0	0	0	0	0	0	0	0	0	0	0	0	0	0	0	0	0	0	0	0	0	7779	7779	7779	7779	7779	7608	7608	7608	8146	8146	0	0	0	5282	5364	5364	5364	5448	5448	5448	5626	5626	5626	5626	5626	5626	5626	5626	5626	5626	5626	0	0	0	0	0	0	0	3440	3406	3373	3309	3277	3309	3309	3309	3309	3309	3309	3341	3341	3341	3341	3309	3309	3341	3373	3406	3406	3406	3440	3406	3406	3440	3440	3440	3406	3341	3309	3309	3309	3309	3309	3309	3277	3277	3277	3277	3277	3277	3277	3277	3277	3309	3309	3309	3341	3341	3341	3341	3341	3341	3341	3341	0	0	0	0	0	0	0	0	4243	4243	4192	4192	4142	4142	4093	4093	4142	4093	4045	4093	4093	0	0	0	0	0	0	0	0	0	4643	4706	4706	4706	4706	4706	4706	4706	4706	4643	4643	4581	4581	4581	4581	4581	4581	4581	4581	4581	4581	4581	4581	4581	4581	4581	4581	4581	4581	4581	4581	4581	4581	4581	4581	4581	4581	4581	4581	4581	4581	4581	4581	4581	4581	4581	4581	4581	4581	4581	4581	4581	4581	4581	4581	4581	4581	4581	4581	4581	4581	4581	4521	4521	4406	4406	4350	4350	4350	4296	4296	4296	4296	4350	4296	4296	4296	4296	4296	4296	4296	4296	4296	4243	4243	4296	4296	4296	4296	4296	4350	4350	4350	4350	4350	4350	4406	4350	4350	4350	4350	4406	4406	4406	4406	4463	4521	4521	4406	4521	4406	4406	4350	4406	4406	4406	4406	4406	4406	4406	4350	4350	4406	4350	4406	4406	4406	4406	4406	4350	4350	4350	4350	4350	4296	4350	4350	4350	4581	4581	4581	4643	4643	4643	4643	4581	4581	4643	0	0	0	0	0	0	0	0	0	0	0	0	0	0	0	0	0	0	0	0	0	0	0	0	0	0	0	0	0	0	0	0	0	0	0	0	0	0	0	0	0	0	0	0	0	0	0	0	0	0	0	0	0	0	0	0	0	0	0	1352	1352	1347	1342	1336	1336	1336	1336	1336	1336	1336	1336	1336	1336	1331	1331	1326	1326	1326	1326	1326	1326	1326	1326	1326	1331	1331	1331	1331	1331	1331	0	0	0	2460	2443	2460	2443	2443	2443	2443	2443	2426	2426	2376	2376	2392	2392	2376	2376	2376	2359	2359	2359	2343	2343	2327	2327	0	0	0	0	0	0	0	0	0	0	0	0	0	0	0	0	0	0	0	0	0	0	0	0	0	0	0	0	0	0	0	0	0	0	0
0	0	0	0	0	0	0	0	974	974	980	983	985	991	991	997	997	997	1000	1000	1006	1008	1014	1020	1023	1030	1030	1033	1039	1042	1045	1045	1045	1052	1052	1055	1055	1058	1064	1064	1071	1074	0	0	0	0	0	0	4581	4581	4581	4581	4581	4581	4581	4643	4643	4643	4643	4643	4581	4581	4581	4581	4521	0	0	0	0	0	0	0	4977	4838	4838	4838	4706	4706	4706	4643	4706	4643	4643	4581	4643	4643	4643	0	0	0	0	0	0	0	4643	4643	4643	4643	4643	4643	4643	4643	4706	4706	4643	4706	4643	4706	4706	4706	4706	4643	4643	4706	4643	4643	4643	4643	4643	4643	4643	4643	4643	4706	4643	4643	4643	4643	4643	4643	4643	4643	4906	4977	4977	4977	4977	5050	5050	4977	5050	5050	0	5915	5915	5815	5815	5815	5915	5915	5915	5815	5815	5626	5364	5364	5282	5282	5282	5282	5282	5282	5282	5282	5202	5202	5202	5202	5202	5125	5125	5125	5125	5125	5125	5125	5202	5202	5202	5202	5125	5125	5125	5125	5050	5125	5125	5125	5125	5125	5125	0	0	0	0	0	0	0	0	0	0	0	0	0	0	0	0	0	0	0	0	0	0	0	0	8146	7959	7779	7779	7779	7608	7608	7608	7608	0	0	0	0	0	5282	5364	5364	5364	5364	5448	5448	5448	5448	5535	5535	5626	5626	5626	5626	5626	5626	5626	5626	0	0	0	0	0	0	3406	3373	3373	3341	3277	3309	3309	3309	3309	3309	3309	3309	3309	3341	3341	3309	3341	3341	3373	3373	3406	3406	3440	3440	3440	3440	3440	3440	3406	3341	3341	3309	3341	3309	3309	3309	3309	3277	3277	3277	3277	3277	3277	3277	3309	3309	3309	3309	3341	3341	3341	3373	3341	3341	3373	3341	3341	0	0	0	0	0	0	0	4243	4243	4192	4192	4142	4142	4093	4093	4142	4093	4093	4093	4093	4142	4142	4192	4192	0	4296	4350	4296	4296	4581	4643	4706	4706	4706	4706	4706	4706	4643	4643	4643	4581	4581	4581	4581	4581	4581	4581	4581	4581	4581	4581	4581	4581	4581	4581	4581	4581	4581	4581	4581	4581	4581	4581	4581	4581	4581	4581	4581	4581	4581	4581	4581	4581	4581	4581	4581	4581	4581	4581	4581	4581	4581	4581	4581	4581	4581	4581	4581	4521	4521	4521	4521	4406	4350	4350	4350	4350	4296	4296	4296	4296	4296	4350	4350	4296	4296	4350	4296	4296	4296	4296	4296	4243	4296	4296	4296	4350	4296	4350	4350	4406	4406	4406	4406	4406	4406	4406	4350	4406	4406	4406	4406	4406	4406	4463	4406	4406	4406	4406	4406	4406	4406	4406	4406	4406	4406	4406	4463	4463	4406	4406	4406	4406	4406	4406	4406	4406	4406	4406	4406	4350	4350	4350	4350	4350	4350	4350	4521	4521	4581	4581	4581	4643	4643	4643	4643	4643	0	0	0	0	0	0	0	0	0	0	0	0	0	0	0	0	0	0	0	0	0	0	0	0	0	0	0	0	0	0	0	0	0	0	0	0	0	0	0	0	0	0	0	0	0	0	0	0	0	0	0	0	0	0	0	0	0	0	0	1352	1352	1347	1342	1336	1336	1336	1336	1336	1336	1336	1336	1336	1336	1336	1336	1331	1331	1331	1331	1326	1326	1326	1326	1326	1331	1331	1331	1331	1331	1331	0	0	2443	2443	2443	2460	2460	2460	2460	2443	2443	2426	2426	2409	2409	2392	2392	2376	2376	2376	2359	2359	2359	2343	2343	2312	2312	0	0	0	0	0	0	0	0	0	0	0	0	0	0	0	0	0	0	0	0	0	0	0	0	0	0	0	0	0	0	0	0	0	0	0
0	0	0	0	0	0	0	0	974	977	980	983	985	991	994	997	997	997	1000	1003	1008	1008	1011	1023	1020	1026	1026	1033	1033	1039	1039	1048	1052	1052	1052	1055	1055	1058	1061	1061	0	0	0	0	0	0	0	0	4581	4581	4581	4581	4581	4581	4581	4643	4643	4643	4643	4643	4643	4643	4643	4581	0	0	0	0	0	0	0	0	0	4838	4838	4838	4706	4706	4706	4643	4706	4643	4643	4581	4581	4643	4643	0	0	0	0	0	0	4706	4706	4706	4706	4706	4706	4706	4706	4706	4706	4706	4643	4706	4706	4706	4706	4706	4706	4643	4643	4706	4643	4643	4643	4643	4643	4643	4643	4643	4643	4643	4643	4643	4643	4643	4643	4643	4643	4643	4906	4977	4977	4977	4977	4977	4977	4977	4977	4977	4977	5915	5915	5915	5915	5915	5915	5915	5915	5815	5626	5535	5364	5282	5282	5282	5282	5282	5282	5282	5282	5282	5202	5202	5202	5202	5202	5125	5125	5125	5125	5125	5125	5125	5202	5202	5125	5125	5125	5125	5125	5125	5050	5125	5125	5125	5125	5125	0	0	0	0	0	0	0	0	0	0	0	0	0	0	0	0	0	0	0	0	0	0	0	0	0	8146	8146	7959	7779	7779	7608	7608	7608	7608	0	0	0	0	0	5282	5364	5364	5364	5364	5448	5448	5448	5448	5535	5535	5626	5626	5626	5626	5626	5626	5626	5626	0	0	0	0	0	0	3373	3373	3373	3277	3277	3309	3309	3309	3309	3309	3341	3341	3341	3341	3341	3341	3341	3341	3373	3373	3406	3406	3440	3440	3440	3440	3475	3440	3406	3406	3341	3309	3341	3309	3309	3309	3309	3277	3277	3277	3277	3277	3277	3277	3309	3309	3309	3341	3341	3341	3341	3341	3341	3373	3373	3341	3341	0	0	0	0	0	0	0	0	0	0	4192	4142	4142	4093	4093	4093	4093	4093	4093	4093	4142	4142	4192	4192	4296	4296	4350	4350	4350	4581	4643	4706	4706	4706	4706	4706	4706	4643	4643	4643	4581	4581	4581	4581	4581	4581	4581	4581	4581	4581	4581	4581	4581	4581	4581	4581	4581	4581	4581	4581	4581	4581	4581	4581	4581	4581	4581	4581	4581	4581	4581	4581	4581	4521	4581	4581	4581	4581	4581	4581	4581	4581	4581	4581	4581	4581	4581	4581	4521	4521	4521	4521	4406	4406	4350	4350	4350	4350	4296	4296	4350	4350	4350	4350	4350	4350	4350	4350	4296	4296	4350	4350	4350	4406	4406	4406	4406	4406	4406	4406	4463	4463	4463	4463	4463	4463	4463	4406	4463	4463	4406	4406	4406	4463	4463	4406	4463	4463	4463	4463	4406	4406	4463	4463	4463	4463	4463	4581	4521	4463	4406	4406	4406	4521	4521	4521	4463	4406	4406	4406	4350	4350	4350	4350	4350	4350	4406	4521	4581	4581	4581	4643	4643	4643	4643	4643	4643	0	0	0	0	0	0	0	0	0	0	0	0	0	0	0	0	0	0	0	0	0	0	0	0	0	0	0	0	0	0	0	0	0	0	0	0	0	0	0	0	0	0	0	0	0	0	0	0	0	0	0	0	0	0	0	0	0	0	0	1352	1352	1347	1342	1336	1336	1336	1336	1336	1336	1342	1342	1402	1336	1342	1342	1336	1336	1336	1336	1331	1331	1331	1331	1326	1331	1331	1336	1336	1336	0	0	0	2443	2443	2443	2443	2460	2460	2443	2443	2426	2426	2409	2409	2392	2392	2392	2376	2376	2376	2359	2359	2359	2343	2343	2312	2312	0	0	0	0	0	0	0	0	0	0	0	0	0	0	0	0	0	0	0	0	0	0	0	0	0	0	0	0	0	0	0	0	0	0	0
0	0	0	0	0	0	0	0	974	977	980	983	985	988	991	994	997	997	1000	1006	1011	1011	1014	1017	1020	1020	1026	1033	1036	1039	1042	1048	1048	1048	1052	1052	1055	1055	1058	1058	1058	0	0	0	0	0	0	0	4581	4581	4581	4581	4581	4581	4581	4643	4643	4643	4643	4643	4643	4643	4643	0	0	0	0	0	0	0	0	0	4521	4706	4771	4771	4706	4706	4706	4643	4706	4643	4643	4581	4581	4581	4643	0	0	0	0	0	4771	4771	4706	4706	4706	4706	4706	4706	4706	4706	4706	4706	4706	4706	4706	4706	4706	4706	4706	4643	4643	4643	4643	4643	4643	4643	4643	4643	4643	4643	4643	4643	4643	4643	4643	4643	4643	4643	4706	4838	4906	4977	4977	4977	4977	4977	4977	5050	5050	5050	5050	6018	6018	6018	6018	6018	6018	6018	6018	5915	5719	5626	5364	5364	5282	5282	5282	5282	5282	5282	5202	5282	5202	5202	5202	5202	5202	5202	5125	5125	5125	5125	5125	5125	5202	5125	5125	5125	5202	5125	5125	5125	5050	5125	5050	5050	5125	5125	0	0	0	0	0	0	0	0	0	0	0	0	0	0	0	0	0	0	0	0	0	0	0	0	0	0	8146	7959	7779	7779	7779	7608	7608	7608	0	0	0	0	0	5364	5364	5364	5364	5364	5448	5448	5448	5535	5535	5626	5626	5626	5626	5626	5626	5626	5626	0	0	0	0	0	0	0	3373	3373	3309	3277	3277	3309	3309	3309	3309	3309	3309	3341	3341	3341	3341	3341	3341	3373	3373	3406	3406	3406	3440	3440	3440	3440	3440	3440	3341	3341	3341	3341	3341	3309	3309	3309	3309	3309	3309	3277	3277	3277	3277	3277	3309	3309	3309	3341	3341	3341	3341	3341	3341	3341	3341	3341	3341	3341	0	0	0	0	0	0	0	0	0	0	0	4142	4142	4142	4142	4142	4093	4093	4093	4142	4142	4142	4192	4243	4296	4350	4350	4463	4581	4643	4706	4706	4643	4706	4643	4643	4643	4643	4643	4643	4581	4581	4581	4581	4581	4581	4581	4581	4581	4581	4581	4581	4581	4581	4581	4581	4581	4581	4581	4581	4581	4581	4581	4581	4581	4581	4581	4581	4581	4581	4581	4581	4581	4581	4521	4581	4521	4581	4581	4581	4581	4581	4581	4581	4581	4581	4581	4521	4521	4521	4521	4463	4406	4350	4350	4350	4350	4296	4350	4350	4350	4406	4406	4406	4406	4406	4406	4406	4521	4463	4463	4463	4463	4463	4463	4463	4463	4463	4463	4521	4521	4521	4521	4521	4521	4521	4521	4521	4521	4463	4463	4463	4463	4521	4521	4581	4643	4581	4581	4463	4463	4706	4581	4706	4643	4643	4581	4581	4581	4521	4521	4521	4521	4521	4521	4521	4521	4521	4463	4406	4350	4350	4406	4406	4406	4463	4521	4521	4521	4581	4581	4643	4643	4581	4581	4581	0	0	0	0	0	0	0	0	0	0	0	0	0	0	0	0	0	0	0	0	0	0	0	0	0	0	0	0	0	0	0	0	0	0	0	0	0	0	0	0	0	0	0	0	0	0	0	0	0	0	0	0	0	0	0	0	0	0	0	1352	1352	1347	1342	1336	1336	1336	1336	1419	1402	1402	1402	1402	1396	1396	1352	1347	1342	1342	1342	1336	1336	1331	1331	1331	1331	1336	1336	1336	1336	0	0	0	0	2478	2478	2478	2460	2460	2460	2443	2443	2426	2426	2409	2392	2392	2392	2392	2376	2376	2359	2359	2359	2343	2327	2312	2312	0	0	0	0	0	0	0	0	0	0	0	0	0	0	0	0	0	0	0	0	0	0	0	0	0	0	0	0	0	0	0	0	0	0	0
0	0	0	0	0	0	0	0	974	977	980	983	985	988	994	994	997	1000	1006	1008	1008	1014	1014	1017	1023	1026	1026	1033	1036	1039	1042	1045	1048	1048	1048	1048	1052	1055	1055	1055	1058	0	0	0	0	0	0	0	4581	4581	4581	4581	4581	4581	4581	4643	4643	4643	4643	4643	4643	4643	4643	4643	0	0	0	0	0	0	0	0	4521	4643	4706	4706	4643	4643	4706	4643	4706	4643	4643	4581	4581	4581	0	0	0	0	0	0	4838	4838	4706	4706	4706	4706	4706	4706	4706	4706	4706	4706	4706	4706	4706	4706	4706	4706	4706	4706	4706	4643	4643	4643	4643	4643	4581	4643	4643	4643	4643	4643	4643	4643	4643	4643	4643	4706	4771	4906	4977	4977	4977	4977	5050	5050	5050	5050	5050	4977	4977	4977	6235	6124	6235	6235	6235	6018	6018	5915	5815	5626	5364	5364	5282	5282	5282	5282	5282	5282	5202	5202	5202	5202	5202	5202	5202	5125	5050	5125	5050	5125	5050	5050	5050	5125	5125	5125	5125	5125	5125	5125	5050	5050	4977	4977	0	0	0	0	0	0	0	0	0	0	0	0	0	0	0	0	0	0	0	0	0	0	0	0	0	0	0	0	8146	7959	7779	7779	7779	7608	7608	7608	0	0	0	0	0	5364	5364	5364	5364	5364	5448	5448	5448	5448	5535	5535	5535	5626	5626	5626	5626	5626	5626	0	0	0	0	0	0	0	3373	3309	3277	3309	3309	3309	3309	3309	3309	3309	3309	3309	3341	3341	3341	3309	3341	3341	3373	3373	3406	3406	3440	3440	3440	3440	3440	3440	3341	3341	3341	3341	3341	3309	3309	3309	3309	3309	3277	3277	3277	3277	3277	3277	3309	3309	3309	3341	3341	3341	3373	3341	3341	3373	3373	3373	3341	3341	0	0	0	0	0	0	0	0	0	0	0	0	4142	4093	4192	4093	4093	4093	4093	4093	4142	4142	4142	4192	4243	4243	4243	4581	4581	4706	4706	4706	4706	4643	4643	4643	4643	4643	4643	4643	4581	4581	4581	4581	4581	4581	4581	4581	4581	4581	4581	4581	4581	4581	4581	4581	4581	4581	4581	4581	4581	4581	4581	4581	4581	4581	4581	4581	4581	4581	4581	4581	4581	4581	4581	4581	4581	4581	4581	4581	4581	4581	4581	4581	4581	4581	4521	4521	4521	4521	4463	4406	4406	4350	4350	4296	4350	4350	4350	4350	4406	4406	4463	4521	4521	4521	4521	4521	4521	4521	4521	4521	4521	4521	4521	4521	4521	4521	4521	4521	4521	4521	4521	4521	4521	4521	4521	4521	4521	4463	4463	4463	4521	4521	4521	4581	4581	4581	4581	4643	4643	4643	4706	4643	4643	4643	4643	4581	4581	4581	4581	4581	4581	4581	4581	4581	4581	4581	4581	4581	4521	4350	4406	4406	4406	4406	4463	4521	4521	4521	4581	4643	4643	4581	4581	4581	4581	0	0	0	0	0	0	0	0	0	0	0	0	0	0	0	0	0	0	0	0	0	0	0	0	0	0	0	0	0	0	0	0	0	0	0	0	0	0	0	0	0	0	0	0	0	0	0	0	0	0	0	0	0	0	0	0	0	0	0	0	0	1342	1336	1336	1425	1425	1419	1402	1402	1402	1402	1396	1390	1379	1368	1352	1347	1363	1363	1342	1336	1336	1331	1331	1336	1336	1336	0	0	0	0	0	2478	2496	2496	2478	2478	2460	2460	2443	2443	2426	2426	2392	2392	2392	2392	2392	2376	2376	2359	2359	2343	2327	2312	2312	0	0	0	0	0	0	0	0	0	0	0	0	0	0	0	0	0	0	0	0	0	0	0	0	0	0	0	0	0	0	0	0	0	0	0
0	0	0	0	0	0	0	0	974	977	980	983	985	991	991	994	997	1003	1006	1011	1014	1014	1017	1020	1023	1026	1026	1033	1036	1042	1042	1045	1045	1048	1048	1048	1052	1055	1055	1068	1068	0	0	0	0	0	0	0	4581	4581	4581	4581	4581	4581	4581	4643	4643	4643	4706	4643	4643	4706	4706	4643	0	0	0	0	0	0	0	0	0	4581	4581	4643	4643	4643	4643	4643	4706	4643	4643	4643	4581	4581	0	0	0	0	0	0	4771	4771	4706	4706	4706	4706	4706	4706	4706	4706	4706	4706	4706	4706	4706	4706	4706	4706	4706	4706	4706	4643	4643	4643	4643	4643	4643	4643	4643	4643	4643	4643	4643	4643	4643	4643	4643	4706	4771	4906	4977	5050	4977	4977	4977	4977	5050	5050	5050	4977	6349	6235	6349	6235	6235	6235	6235	6235	6124	6018	5815	5626	5364	5282	5282	5202	5202	5282	5202	5282	5202	5202	5202	5202	5125	5125	5125	5050	5050	5050	5050	5125	5050	5050	5050	5125	5125	5125	5125	5125	5125	5125	5050	5050	4977	4977	0	0	0	0	0	0	0	0	0	0	0	0	0	0	0	0	0	0	0	0	0	0	0	0	0	0	0	0	0	7959	7779	7779	7779	7608	7608	7608	0	0	0	5282	5282	5364	5364	5364	5364	5364	5364	5364	5448	5448	5448	5535	5535	5626	5626	5626	5626	5626	5626	5626	0	0	0	0	0	0	0	3277	3277	3309	3309	3309	3309	3309	3309	3309	3341	3341	3341	3341	3341	3341	3341	3341	3373	3373	3406	3406	3406	3440	3440	3440	3440	0	0	0	3341	3309	3309	3309	3309	3309	3309	3277	3277	3277	3277	3277	3277	3277	3277	3309	3309	3341	3341	3373	3373	3341	3341	3341	3373	3341	3341	3341	3309	3309	0	0	0	0	0	0	0	0	0	0	4093	4093	4192	4142	4093	4093	4093	4093	4093	4093	4093	4142	4142	4192	4192	4643	4643	4706	4706	4706	4706	4643	4643	4643	4581	4581	4581	4581	4581	4581	4581	4581	4581	4581	4521	4521	4581	4581	4581	4581	4581	4581	4581	4581	4581	4581	4581	4581	4581	4581	4581	4581	4581	4581	4581	4643	4643	4581	4581	4581	4581	4581	4581	4581	4581	4581	4581	4581	4581	4581	4581	4581	4581	4581	4521	4581	4581	4581	4521	4463	4406	4350	4350	4350	4350	4350	4406	4463	4581	4581	4643	4581	4581	4581	4581	4581	4581	4581	4521	4521	4581	4521	4521	4521	4521	4521	4581	4581	4581	4521	4521	4521	4521	4521	4521	4521	4521	4521	4521	4521	4521	4521	4521	4643	4643	4643	4643	4643	4643	4643	4643	4643	4643	4643	4643	4643	4581	4581	4581	4581	4581	4581	4581	4581	4643	4643	4643	4581	4406	4406	4406	4406	4406	4463	4463	4521	4521	4581	4581	4643	4643	4581	4581	4581	4581	0	0	0	0	0	0	0	0	0	0	0	0	0	0	0	0	0	0	0	0	0	0	0	0	0	0	0	0	0	0	0	0	0	0	0	0	0	0	0	0	0	0	0	0	0	0	0	0	0	0	0	0	0	0	0	0	0	0	0	0	0	0	1336	1425	1425	1419	1407	1407	1402	1402	1402	1396	1396	1390	1379	1374	1374	1363	1363	1342	1336	1336	1336	0	0	0	0	0	0	0	0	0	0	2496	2478	2478	2478	2460	2460	2443	2426	2426	2409	2392	2392	2392	2392	2392	2376	2376	2376	2359	2359	2343	2327	2327	0	0	0	0	0	0	0	0	0	0	0	0	0	0	0	0	0	0	0	0	0	0	0	0	0	0	0	0	0	0	0	0	0	0	0
0	0	0	0	0	0	0	0	972	974	977	980	985	991	994	997	997	1003	1006	1011	1014	1017	1017	1020	1023	1026	1030	1033	1033	1039	1039	1045	1045	1045	1048	1048	1052	1055	1055	1055	1068	0	0	0	0	0	0	0	0	4581	4643	4643	4581	4581	4581	4643	4643	4706	4706	4706	4706	4706	4706	4706	4706	0	0	0	0	0	0	0	0	4706	4706	4643	4643	4643	4643	4771	4838	4706	4643	4643	4581	4581	0	0	0	0	0	4906	4771	4771	4706	4706	4706	4706	4706	4706	4706	4706	4706	4706	4706	4706	4706	4706	4706	4706	4706	4706	4706	4643	4643	4643	4643	4643	4643	4643	4643	4643	4643	4643	4643	4643	4643	4643	4643	4643	4643	4906	4977	4977	4977	5050	5050	5050	5050	5125	5125	5125	6235	6235	6349	6235	6235	6235	6235	6235	6124	5915	5915	5364	5282	5202	5202	5202	5202	5202	5202	5202	5202	5202	5202	5125	5125	5125	5050	5050	5050	5050	5050	5050	5050	5050	5050	5050	5050	5050	5125	5125	5125	5125	5050	5050	5050	5050	0	0	0	0	0	0	0	0	0	0	0	0	0	0	0	0	0	0	0	0	0	0	0	0	0	0	0	0	0	7779	7779	7779	7608	7608	7608	0	0	0	0	5282	5282	5364	5364	5364	5364	5364	5364	5448	5448	5448	5448	5535	5535	5535	5626	5626	5626	5626	5626	5626	0	0	0	0	0	0	3309	3309	3309	3309	3309	3309	3309	3309	3309	3309	3309	3309	3309	3309	3309	3309	3309	3341	3373	3373	3406	3406	3406	3406	3406	3406	3406	0	0	0	3309	3309	3309	3309	3309	3309	3309	3277	3277	3277	3277	3277	3277	3309	3309	3309	3309	3341	3341	3341	3373	3341	3373	3373	3373	3373	3341	3341	3341	3309	0	0	0	0	0	0	0	0	0	4142	4093	4093	4093	4142	4142	4093	4142	4142	4142	4142	4142	4142	4192	4093	4093	4643	4643	4706	4706	4706	4643	4643	4581	4581	4581	4581	4581	4581	4581	4581	4581	4581	4581	4581	4581	4581	4581	4581	4581	4581	4581	4581	4581	4581	4581	4581	4581	4581	4581	4581	4581	4581	4581	4643	4581	4643	4643	4643	4643	4643	4581	4581	4581	4581	4581	4581	4581	4581	4581	4581	4581	4581	4581	4581	4581	4581	4581	4581	4581	4521	4406	4406	4350	4350	4350	4406	4463	4521	4581	4581	4643	4581	4581	4581	4581	4581	4581	4581	4581	4581	4581	4581	4581	4581	4581	4581	4581	4581	4581	4581	4581	4581	4581	4521	4521	4521	4521	4521	4521	4521	4521	4521	4521	4581	4643	4643	4643	4706	4643	4706	4643	4643	4643	4643	4643	4643	4643	4643	4643	4581	4581	4581	4581	4581	4643	4643	4643	4581	4581	4463	4406	4406	4406	4463	4521	4521	4581	4581	4643	4643	4643	4581	4581	4581	4581	0	0	0	0	0	0	0	0	0	0	0	0	0	0	0	0	0	0	0	0	0	0	0	0	0	0	0	0	0	0	0	0	0	0	0	0	0	0	0	0	7287	7287	0	0	7444	7444	0	0	0	0	0	0	0	0	0	0	0	0	0	0	0	0	0	1425	1419	1419	1407	1407	1402	1402	1402	1402	1396	1396	1385	1385	1379	1379	1368	0	0	0	0	0	0	0	0	0	0	0	0	0	0	2478	2478	2478	2478	2460	2460	2443	2426	2409	2409	2376	2392	2376	2376	2376	2376	2359	2359	2359	2343	2327	2312	2312	0	0	0	0	0	0	0	0	0	0	0	0	0	0	0	0	0	0	0	0	0	0	0	0	0	0	0	0	0	0	0	0	0	0	0
0	0	0	0	0	0	0	0	969	972	977	980	985	991	994	997	997	1003	1006	1008	1014	1017	1017	1020	1026	1030	1030	1033	1033	1039	1039	1042	1045	1048	1048	1052	1055	1055	1058	1058	1058	0	0	0	0	0	0	0	0	0	4581	4581	4581	4581	4581	4643	4706	4706	4706	4706	4706	4706	4706	4706	4706	0	0	0	0	0	0	0	0	4706	4581	4581	4581	4581	4643	4643	4838	4706	4643	4643	0	0	0	0	0	0	0	4838	4771	4771	4706	4706	4706	4706	4706	4706	4706	4706	4706	4706	4643	4706	4706	4706	4706	4706	4706	4706	4706	4643	4643	4643	4643	4643	4643	4643	4643	4643	4643	4643	4643	4643	4643	4643	4643	4643	4706	4838	4906	4977	4977	4977	5050	5050	5125	5202	5202	5050	6235	6235	6349	6235	6235	6235	6235	6124	6018	5815	5815	5448	5282	5202	5202	5202	5125	5125	5125	5125	5125	5202	5125	5125	5125	5050	5050	5050	4977	4977	4977	4977	4977	5050	5050	5050	5050	5050	5050	5050	5050	5125	5050	5050	5050	5050	0	0	0	0	0	0	0	0	0	0	0	0	0	0	0	0	0	0	0	0	0	0	0	0	0	0	0	0	0	7779	7779	7779	7608	7608	0	0	0	0	0	5282	5282	5364	5364	5364	5364	5364	5448	5448	5448	5448	5535	5535	5535	5535	5535	5535	5626	5626	5626	5626	0	0	0	0	0	0	3309	3309	3309	3309	3309	3309	3309	3309	3309	3309	3309	3309	3341	3341	3341	3341	3341	3341	3373	3373	3406	3406	3406	3406	3406	3406	3406	0	0	0	3309	3309	3309	3309	3309	3309	3309	3277	3277	3277	3277	3277	3277	3277	3309	3309	3309	3341	3341	3373	3373	3373	3373	3373	3373	3373	3341	3309	3309	0	0	0	0	0	0	0	0	0	0	4142	4093	4093	4093	4142	4093	4093	4093	4093	4093	4142	4142	4142	4142	4093	4142	4142	4142	4706	4706	4643	4643	4581	4581	4581	4581	4581	4581	4581	4581	4581	4581	4581	4581	4581	4581	4581	4581	4581	4581	4581	4581	4581	4581	4581	4581	4581	4581	4581	4581	4581	4581	4581	4581	4643	4643	4643	4643	4643	4643	4643	4581	4581	4581	4581	4581	4581	4581	4643	4643	4643	4643	4581	4581	4581	4581	4581	4581	4521	4521	4463	4406	4406	4406	4350	4406	4406	4521	4521	4643	4643	4643	4643	4643	4643	4643	4643	4581	4581	4581	4581	4581	4581	4581	4581	4581	4581	4581	4581	4581	4581	4581	4581	4521	4521	4521	4521	4521	4521	4521	4521	4521	4581	4581	4643	4643	4706	4643	4643	4643	4643	4643	4643	4643	4643	4643	4643	4643	4643	4643	4643	4581	4581	4581	4581	4643	4643	4643	4581	4581	4521	4463	4463	4463	4463	4521	4581	4581	4581	4643	4643	4643	4581	4643	4643	4706	4706	0	0	0	0	0	0	0	0	0	0	0	0	0	0	4977	4977	0	0	0	0	0	0	0	0	0	0	0	0	0	0	0	0	0	0	0	0	0	0	0	7287	7287	7444	7444	7287	7287	7287	7287	0	0	0	0	0	0	0	0	0	0	0	0	0	0	0	0	1419	1407	1407	1407	1402	1402	1402	1402	1396	1396	1396	1385	1379	1379	0	0	0	0	0	0	0	0	0	0	0	0	0	0	2496	2496	2478	2478	2478	2478	2460	2443	2426	2409	2409	2376	2392	2376	2376	2376	2376	2359	2359	2359	2343	2327	2312	2312	0	0	0	0	0	0	0	0	0	0	0	0	0	0	0	0	0	0	0	0	0	0	0	0	0	0	0	0	0	0	0	0	0	0	0
0	0	0	0	0	0	0	0	969	974	977	980	985	988	991	997	1000	1003	1006	1008	1014	1017	1017	1020	1026	1030	1030	1033	1036	1042	1042	1045	1045	1048	1048	1048	1052	1055	1055	1058	1068	1068	0	0	0	0	0	0	0	0	4581	4581	4581	4581	4581	4643	4643	4706	4706	4706	4706	4706	4771	4771	0	0	0	0	0	0	0	0	0	0	4581	4581	4643	4581	4643	4643	0	0	0	0	0	0	0	0	0	0	0	4838	4706	4706	4706	4706	4706	4706	4706	4706	4706	4706	4706	4706	4643	4643	4643	4706	4706	4706	4706	4706	4706	4643	4643	4643	4643	4643	4643	4643	4643	4643	4643	4643	4581	4581	4581	4643	4643	4643	4771	4838	4906	4906	4906	5050	5050	5125	5125	5202	5050	5050	5282	6235	6235	6235	6235	6124	6124	6018	5535	5535	5448	5282	5202	5202	5202	5202	5125	5125	5125	5125	5125	5125	5125	5125	5050	5050	4977	4977	4977	4977	4977	5050	4977	5050	5050	5050	5050	5050	5125	5125	5125	5125	5125	5125	5050	5125	5125	0	0	0	0	0	0	0	0	0	0	0	0	0	0	0	0	0	0	0	0	0	0	0	0	0	0	0	0	7779	7779	7608	7608	7608	0	0	0	0	0	0	5282	5364	5364	5364	5364	5448	5535	5535	5535	5535	5535	5535	5535	5535	5535	5535	5626	5626	5626	0	0	0	0	0	0	0	3309	3309	3309	3309	3309	3309	3309	3309	3309	3309	3309	3309	3341	3341	3341	3341	3341	3341	3373	3373	3406	3406	3406	3406	3406	3406	3406	0	0	0	3309	3309	3309	3309	3309	3309	3309	3309	3309	3309	3277	3277	3277	3309	3309	3309	3309	3341	3341	3373	3373	3373	3373	3373	3373	3341	3341	3309	3309	0	0	0	0	0	0	0	0	0	0	4142	4093	4093	4093	4093	4093	4093	4093	4093	4093	4142	4142	4142	4142	4093	4093	4192	4581	4643	4643	4643	4581	4581	4581	4581	4581	4581	4581	4581	4581	4581	4581	4581	4581	4581	4581	4581	4581	4581	4581	4581	4581	4581	4581	4581	4581	4581	4581	4581	4581	4581	4581	4581	4581	4643	4643	4643	4643	4643	4643	4581	4581	4581	4581	4581	4581	4581	4581	4581	4581	4643	4643	4643	4643	4643	4581	4581	4581	4581	4521	4521	4463	4406	4406	4406	4406	4463	4521	4581	4643	4643	4643	4643	4643	4643	4643	4643	4581	4581	4581	4581	4581	4581	4581	4581	4581	4581	4581	4581	4581	4581	4581	4581	4581	4521	4521	4581	4521	4521	4521	4521	4521	4581	4581	4581	4643	4643	4643	4643	4643	4643	4643	4643	4643	4643	4643	4643	4643	4643	4643	4643	4643	4581	4581	4581	4643	4643	4581	4581	4521	4463	4463	4406	4406	4463	4463	4521	4521	4581	4643	4643	4643	4643	4643	4643	4706	4706	0	0	0	0	0	0	0	0	0	0	5050	4977	4906	4977	4977	4977	4977	4977	0	0	0	0	0	0	0	0	0	0	0	0	0	0	0	0	0	0	0	7444	7608	7444	7444	7444	7444	7287	7287	7287	7287	7287	7287	7287	7287	0	0	0	0	0	0	0	0	0	0	0	0	0	1407	1407	7444	1402	1402	1402	1402	7137	7137	1396	0	0	0	0	0	0	0	0	0	0	0	0	0	0	0	0	0	2496	2496	2478	2460	2460	2460	2443	2443	2426	2409	2392	2376	2392	2376	2376	2376	2359	2359	2359	2343	2343	2343	2327	2327	0	0	0	0	0	0	0	0	0	0	0	0	0	0	0	0	0	0	0	0	0	0	0	0	0	0	0	0	0	0	0	0	0	0	0
0	0	0	0	0	0	0	0	974	977	980	983	985	988	988	997	1003	1006	1008	1008	1014	1017	1017	1020	1026	1030	1033	1033	1036	1042	1045	1045	1048	1048	1048	1048	1052	1055	1055	1064	1068	1068	0	0	0	0	0	0	0	0	4643	4643	4581	4581	4581	4643	4643	4706	4706	4643	4643	4643	4643	4643	4643	0	0	0	0	0	0	0	0	0	0	0	4643	4581	4643	4643	0	0	0	0	0	0	0	0	0	0	0	0	4706	4706	4643	4706	4706	4706	4706	4706	4706	4706	4706	4706	4706	4706	4643	4706	4643	4643	4706	4706	4706	4706	4643	4643	4643	4643	4643	4643	4581	4643	4643	4643	4581	4581	4581	4643	4643	4643	4706	4771	4838	4906	4906	4906	5125	5125	5125	5202	5125	5202	5282	5282	5282	5050	5050	5050	5050	5050	5282	5282	5202	5202	5202	5125	5125	5125	5125	5125	5050	5050	5125	5125	5125	5050	5050	5050	4977	4977	4977	4977	4977	4977	5050	5050	5050	5125	5125	5050	5125	5125	5125	5125	5125	5125	5125	5125	5125	0	0	0	0	0	0	0	0	0	0	0	0	0	0	0	0	0	0	0	0	0	0	0	0	0	0	0	0	7608	7608	7608	7444	7444	0	0	0	0	0	5282	5282	5364	5364	5448	5448	5535	5535	5535	5535	5535	5535	5535	5535	5535	5535	5535	5448	5448	0	0	0	0	0	0	0	0	3309	3309	3309	3309	3309	3309	3309	3309	3277	3309	3309	3309	3341	3341	3341	3341	3341	3341	3373	3406	3406	3406	3406	3406	3406	3406	0	0	0	0	3309	3309	3309	3309	3309	3309	3309	3309	3309	3309	3277	3309	3309	3309	3309	3309	3309	3341	3341	3373	3373	3406	3373	3373	3373	3373	3373	3309	3309	0	0	0	0	0	0	0	0	0	0	0	4093	4093	4045	4093	4093	4093	4093	4093	4093	4093	4093	4093	4093	4093	4142	4142	4581	4643	4643	4581	4581	4581	4581	4581	4581	4581	4581	4581	4581	4581	4581	4581	4581	4581	4581	4581	4581	4581	4581	4581	4581	4581	4581	4581	4581	4581	4581	4581	4581	4581	4581	4581	4581	4643	4643	4643	4643	4643	4643	4643	4581	4581	4581	4581	4581	4581	4581	4581	4581	4581	4643	4643	4643	4581	4581	4581	4581	4581	4521	4521	4406	4406	4406	4406	4463	4521	4581	4581	4643	4643	4643	4643	4643	4643	4643	4643	4643	4581	4581	4581	4581	4581	4581	4581	4581	4581	4581	4581	4581	4581	4581	4581	4581	4521	4521	4521	4521	4521	4521	4521	4521	4581	4581	4643	4643	4643	4643	4643	4643	4643	4643	4643	4643	4643	4643	4643	4643	4643	4643	4643	4643	4581	4581	4581	4581	4581	4581	4581	4521	4463	4463	4406	4406	4406	4406	4463	4463	4521	4581	4643	4643	4643	4643	4643	4706	4771	4771	0	0	0	0	4977	5050	5050	5050	5050	5050	4977	4906	4906	4906	4906	4906	4906	4977	4977	4977	4977	0	0	0	0	0	0	0	0	0	0	0	0	0	0	7444	7444	7444	7444	7444	7444	7444	7287	7287	7287	7287	7287	7287	7287	7287	7287	7287	7287	7287	7287	7444	7444	7608	7608	0	7444	7444	7444	7444	7444	7287	7444	7444	7287	7287	7137	7137	7137	0	0	0	0	0	0	0	0	0	0	0	0	0	0	0	0	0	2496	2478	2460	2460	2460	2460	2443	2443	2426	2409	2392	2376	2376	2376	2376	2376	2359	2359	2343	2343	2343	2327	2327	2327	0	0	0	0	0	0	0	0	0	0	0	0	0	0	0	0	0	0	0	0	0	0	0	0	0	0	0	0	0	0	0	0	0	0	0
0	0	0	0	0	0	0	0	969	974	977	980	985	988	985	1000	1003	1006	1008	1008	1011	1014	1017	1020	1026	1030	1030	1033	1036	1042	1042	1045	1048	1048	1048	1048	1048	1055	1055	1064	1068	1068	0	0	0	0	0	0	0	0	4643	4643	4581	4581	4581	4643	4643	4643	4643	4643	4643	4643	4643	4643	4643	0	0	0	0	0	0	0	0	0	0	0	0	0	0	0	0	0	0	0	0	0	0	0	0	0	0	4706	4706	4643	4643	4643	4643	4706	4706	4706	4706	4706	4706	4706	4706	4706	4643	4643	4643	4643	4706	4706	4706	4643	4643	4643	4643	4643	4643	4643	4581	4643	4581	4643	4581	4581	4581	4643	4643	4643	4706	4771	4838	4906	4906	4906	5050	5050	5125	5125	5125	5202	5202	5282	5125	5050	5050	5050	5050	5050	5050	5050	5050	5125	5125	5125	5050	5050	5050	5050	5050	4977	4977	5050	5050	5050	4977	4977	4977	4977	4977	4977	5050	5050	5050	5050	5050	5125	5125	5050	5125	5125	5125	5125	5125	5050	5125	5125	5125	5125	5125	0	0	0	0	0	0	0	0	0	0	0	0	0	0	0	0	0	0	0	0	0	0	0	0	0	0	7608	7608	7608	7444	7444	0	0	0	0	0	5282	5282	5364	5364	5448	5448	5448	5535	5535	5535	5535	5535	5535	5535	5535	5626	5535	5535	5535	0	0	0	0	0	0	0	0	3309	3309	3309	3309	3309	3309	3309	3309	3277	3309	3309	3309	3309	3309	3309	3341	3341	3341	3373	3373	3406	3406	3406	3406	3406	3406	0	0	0	0	3309	3309	3309	3309	3309	3309	3309	3309	3277	3277	3277	3309	3277	3277	3309	3309	3309	3309	3341	3373	3406	3406	3406	3406	3373	3373	3373	0	0	0	0	0	0	0	0	0	0	0	4142	4142	4142	4142	4093	4045	4045	4093	4093	4093	4093	4093	4093	4093	4142	4093	4142	4463	4581	4581	4581	4581	4581	4581	4581	4581	4581	4581	4581	4581	4581	4581	4581	4581	4581	4581	4581	4581	4581	4581	4581	4581	4581	4581	4581	4581	4581	4581	4581	4581	4581	4581	4581	4581	4581	4643	4643	4643	4643	4581	4581	4581	4581	4581	4581	4581	4581	4581	4581	4581	4581	4581	4643	4643	4643	4643	4581	4581	4581	4581	4521	4463	4406	4406	4406	4463	4521	4521	4581	4643	4643	4643	4643	4643	4643	4643	4643	4643	4581	4581	4581	4581	4581	4581	4581	4581	4581	4581	4581	4581	4581	4581	4581	4581	4581	4521	4521	4521	4521	4521	4521	4521	4581	4581	4581	4643	4643	4643	4643	4643	4643	4643	4643	4643	4643	4643	4643	4643	4643	4643	4643	4643	4643	4643	4581	4581	4581	4581	4581	4581	4521	4463	4463	4406	4406	4406	4406	4463	4463	4521	4581	4581	4643	4643	4706	4706	4706	4771	4838	4838	4906	4977	4977	4977	4977	4977	4977	4977	4977	4977	4906	4906	4906	4906	4906	4906	4906	4977	4977	4977	4977	0	0	0	0	0	0	0	0	0	0	0	0	0	7287	7444	7444	7444	7444	7444	7444	7287	7287	7287	7287	7287	7287	7287	7287	7287	7287	7287	7287	7287	7444	7444	7444	7444	7444	7444	7444	7444	7444	7444	7444	7444	7444	7287	7137	7137	7287	7287	0	0	0	0	0	0	0	0	0	0	0	0	0	0	0	0	0	0	2478	2460	2460	2460	2460	2460	2443	2426	2409	2409	2392	2376	2376	2376	2376	2359	2359	2343	2343	2327	2327	2312	2312	0	0	0	0	0	0	0	0	0	0	0	0	0	0	0	0	0	0	0	0	0	0	0	0	0	0	0	0	0	0	0	0	0	0	0
0	0	0	0	0	0	0	0	969	974	980	983	985	988	988	997	1003	1003	1006	1008	1011	1014	1017	1023	1026	1030	1033	1033	1036	1039	1045	1045	1048	1048	1048	1048	1048	1048	1055	1068	1068	1068	0	0	0	0	0	0	0	0	0	4643	4581	4581	4581	4581	4643	4643	4643	4643	4643	4643	4643	4643	4643	0	0	0	0	0	0	0	0	0	0	0	0	0	0	0	0	0	0	0	0	0	0	0	0	0	0	4706	4643	4643	4643	4643	4643	4643	4706	4706	4706	4706	4643	4706	4643	4643	4643	4643	4643	4643	4643	4643	4706	4706	4706	4643	4706	4643	4643	4643	4581	4581	4581	4581	4521	4521	4581	4643	4643	4643	4643	4706	4706	4706	4906	5050	5050	5050	5125	5202	5202	5202	5282	5282	5202	5050	5050	5050	5050	5050	5050	5050	5050	5125	5125	5050	5050	5050	5050	5050	5050	5050	5050	5050	5050	5050	5050	5050	4977	4977	4977	4977	5050	5050	5050	5050	5125	5125	5125	5050	5125	5125	5125	5125	5125	5125	5125	5202	5202	5202	5202	0	0	0	0	0	0	0	0	0	0	0	0	0	0	0	0	0	0	0	0	0	0	0	0	0	0	7608	7608	7444	7444	7444	0	0	0	0	0	0	5282	5364	5364	5448	5448	5448	5535	5626	5626	5626	5535	5535	5535	5535	5535	5448	5535	5448	5448	0	0	0	0	0	0	0	3309	3309	3309	3309	3309	3309	3309	3309	3309	3309	3309	3309	3309	3309	3309	3309	3341	3341	3373	3406	3406	3406	3406	3406	3406	0	0	0	0	0	3341	3341	3341	3309	3309	3309	3309	3309	3309	3309	3309	3309	3277	3309	3309	3309	3309	3341	3341	3373	3406	3406	3406	3406	3406	3406	3373	0	0	0	0	0	0	0	0	0	0	4142	4142	4142	4142	4142	4093	4093	4093	4093	4093	4093	4093	4142	4142	4142	4142	4142	4142	4463	4521	4581	4581	4581	4581	4581	4581	4581	4581	4581	4581	4581	4581	4581	4581	4581	4581	4581	4581	4581	4581	4581	4581	4581	4581	4581	4581	4581	4581	4581	4581	4581	4581	4581	4581	4581	4581	4581	4581	4581	4581	4581	4581	4581	4581	4581	4581	4581	4581	4581	4581	4581	4581	4581	4581	4643	4581	4581	4581	4581	4581	4581	4521	4463	4406	4406	4406	4463	4521	4521	4581	4643	4643	4643	4643	4643	4643	4643	4643	4643	4581	4643	4643	4581	4581	4581	4581	4581	4581	4581	4581	4581	4581	4581	4581	4643	4581	4581	4581	4581	4521	4581	4521	4581	4581	4581	4581	4643	4643	4643	4643	4581	4643	4643	4643	4643	4643	4643	4643	4643	4643	4706	4706	4706	4643	4643	4581	4581	4581	4581	4581	4521	4463	4463	4463	4463	4406	4406	4463	4463	4521	4581	4581	4643	4643	4643	4706	4706	4706	4706	4906	4906	4977	4977	5050	4977	4977	4977	4977	5050	5050	4977	4906	4977	4906	4906	4906	4906	4906	4906	4906	4906	4906	0	0	0	0	0	0	0	0	0	0	0	0	0	7287	7287	7287	7444	7444	7444	7444	7287	7287	7287	7287	7287	7287	7287	7287	7287	7287	7444	7444	7444	7444	7444	7444	7608	7444	7608	7608	7608	7608	7444	7444	7444	7444	7287	7137	7137	7137	7287	0	0	0	0	0	0	0	0	0	0	0	0	0	0	0	0	0	0	2478	2460	2460	2443	2460	2443	2443	2426	2409	2392	2392	2376	2376	2376	2376	2359	2359	2343	2343	2327	2327	2312	2312	0	0	0	0	0	0	0	0	0	0	0	0	0	0	0	0	0	0	0	0	0	0	0	0	0	0	0	0	0	0	0	0	0	0	0
0	0	0	0	0	0	0	0	0	977	980	985	985	988	988	994	1000	1006	1008	1008	1011	1014	1017	1020	1023	1030	1030	1033	1036	1039	1045	1045	1048	1048	1048	1048	1048	1055	1061	1068	1068	1071	0	0	0	0	0	0	0	0	0	4643	4643	4581	4581	4643	4643	4643	4643	4643	4643	4581	4643	4643	4643	0	0	0	0	0	0	0	0	0	0	0	0	0	0	0	0	0	0	0	0	0	0	0	0	0	0	4581	4581	4643	4643	4643	4643	4643	4643	4706	4706	4706	4706	4706	4643	4643	4643	4643	4643	4643	4643	4706	4706	4706	4643	4643	4706	4643	4643	4581	4521	4581	4581	4581	4521	4521	4581	4581	4643	4581	4643	4706	4706	4706	4906	4906	5125	5125	5125	5202	5125	5202	5202	5202	5202	5125	5050	5125	5125	5050	5050	5050	5050	5050	5125	5050	5050	5050	5050	5050	5050	5050	5050	5050	5050	5050	5050	4977	4977	4977	4977	4977	4977	5050	5050	5050	5050	5050	5125	5050	5125	5125	5125	5125	5125	5050	5125	5202	5202	5202	5125	5125	0	0	0	0	0	0	0	0	0	0	0	0	0	0	0	0	0	0	0	0	0	0	0	0	0	0	7608	7444	7444	0	0	0	0	0	0	0	0	0	5364	5448	5448	5535	5535	5626	5535	5535	5535	5535	5535	5535	5535	5448	5535	5448	5448	0	0	0	0	0	0	3309	3309	3309	3309	3309	3309	3309	3309	3309	3309	3309	3309	3309	3309	3309	3309	3341	3341	3341	3373	3406	3406	3406	3406	0	0	0	0	0	0	0	3373	3341	3341	3341	3341	3309	3309	3309	3309	3309	3309	3309	3309	3309	3309	3309	3309	3309	3341	3373	3406	3406	3406	3406	3406	3406	0	0	0	0	0	0	0	4142	4142	4142	4142	4142	4142	4142	4142	4142	4142	4093	4093	4093	4093	4093	4093	4093	4142	4142	4142	4142	4142	4521	4521	4581	4581	4581	4581	4581	4581	4581	4581	4581	4581	4581	4581	4581	4581	4581	4581	4581	4581	4581	4581	4581	4581	4581	4581	4581	4581	4581	4581	4581	4581	4581	4581	4581	4581	4581	4581	4581	4581	4581	4581	4581	4581	4581	4581	4581	4581	4581	4581	4581	4581	4581	4581	4581	4581	4643	4581	4581	4581	4581	4581	4581	4521	4521	4406	4463	4463	4521	4521	4521	4643	4643	4643	4643	4643	4643	4643	4643	4643	4581	4581	4643	4643	4581	4581	4581	4581	4581	4581	4581	4581	4581	4581	4581	4581	4643	4581	4581	4581	4581	4521	4581	4521	4581	4581	4581	4581	4643	4643	4643	4643	4643	4643	4643	4643	4643	4643	4643	4643	4643	4643	4643	4706	4706	4643	4643	4643	4581	4581	4581	4581	4521	4521	4463	4463	4463	4406	4406	4463	4463	4521	4521	4581	4581	4643	4643	4706	4706	4771	4838	4906	4977	4977	5050	5050	4977	4906	4906	4906	4906	4977	4906	4906	4906	4906	4906	4906	4906	4906	4906	4906	4906	4906	0	0	0	0	0	0	0	0	0	0	0	0	0	7287	7287	7287	7444	7444	7444	7444	7287	7287	7287	7287	7287	7287	7287	7287	7287	7287	7444	7444	7444	7444	7444	7444	7444	7444	7444	7444	7444	7444	7444	7444	7287	7287	7287	7137	7137	7137	0	0	0	0	0	0	0	0	0	0	0	0	0	0	0	0	2496	2496	2496	2478	2460	2460	2443	2443	2443	2443	2426	2409	2392	2392	2376	2376	2376	2376	2359	2359	2343	2327	2312	2312	2312	2312	0	0	0	0	0	0	0	0	0	0	0	0	0	0	0	0	0	0	0	0	0	0	0	0	0	0	0	0	0	0	0	0	0	0	0
0	0	0	0	0	0	0	0	0	980	983	985	985	988	988	994	997	1003	1008	1011	1011	1014	1017	1020	1023	1026	1030	1033	1036	1039	1045	1045	1048	1048	1052	1048	1052	1052	1061	1064	1068	1068	0	0	0	0	0	0	0	0	0	4643	4643	4581	4581	4643	4643	4643	4643	4643	4643	4581	4643	4581	4581	0	0	0	0	0	0	0	0	0	0	0	0	4643	4643	0	0	0	0	0	0	0	0	0	0	0	0	4581	4581	4643	4643	4643	4643	4643	4643	4643	4643	4706	4706	4643	4643	4643	4643	4643	4643	4643	4643	4706	4706	4706	4643	4643	4643	4643	4643	4581	4521	4581	4581	4581	4581	4581	4581	4581	4643	4643	4643	4706	4706	4706	4906	4906	4906	5125	5125	5125	5125	5202	5202	5202	5202	5202	5125	5125	5125	5125	5050	5050	5050	5050	5125	5050	5050	5050	5050	5050	5050	5050	5050	5050	5050	5050	4977	4977	4977	4977	4977	4977	4977	5050	5050	5125	5050	5125	5125	5125	5125	5125	5125	5125	5125	5050	5202	5202	5202	5202	5125	5125	0	0	0	0	0	0	0	0	0	0	0	0	0	0	0	0	0	0	0	0	0	0	0	0	0	0	0	0	0	0	0	0	0	0	0	0	0	0	0	0	5448	5535	5535	5535	5535	5535	5535	5535	5535	5535	5535	5535	5535	5448	5448	0	0	0	0	0	3309	3309	3309	3309	3309	3309	3309	3309	3309	3277	3277	3309	3309	3309	3309	3309	3341	3341	3341	3373	3373	3406	3406	3406	3406	0	0	0	0	0	0	0	3341	3373	3341	3341	3341	3309	3309	3309	3309	3309	3309	3309	3309	3309	3309	3309	3309	3341	3341	3373	3406	3406	3406	3406	3406	3406	0	0	0	0	0	0	0	4142	4142	4142	4142	4142	4142	4142	4142	4142	4142	4093	4142	4093	4093	4093	4093	4142	4142	4192	4142	4142	4243	4296	4521	4521	4521	4581	4581	4581	4581	4581	4581	4581	4581	4581	4581	4581	4581	4581	4581	4581	4643	4581	4581	4581	4581	4581	4581	4581	4581	4581	4581	4581	4581	4581	4581	4581	4581	4581	4521	4581	4581	4581	4581	4581	4581	4581	4581	4581	4581	4581	4581	4581	4581	4581	4581	4581	4581	4581	4581	4581	4581	4581	4581	4581	4521	4521	4463	4463	4463	4521	4521	4521	4706	4643	4643	4581	4581	4581	4581	4581	4581	4581	4581	4581	4581	4581	4581	4581	4581	4581	4581	4581	4581	4581	4581	4581	4581	4581	4581	4581	4581	4581	4521	4581	4521	4521	4581	4581	4581	4643	4643	4643	4643	4643	4643	4643	4643	4643	4643	4643	4643	4643	4643	4643	4643	4643	4643	4643	4581	4581	4581	4581	4581	4521	4463	4463	4406	4406	4406	4406	4406	4406	4463	4521	4581	4643	4706	4643	4706	4706	4706	4771	4906	4906	4977	4977	4977	4906	4906	4906	4906	4906	4977	4906	4838	4906	4906	4906	4906	4906	4906	4906	4906	4906	4906	0	0	0	0	0	0	0	0	0	0	0	0	0	0	7287	7287	7444	7444	7444	7444	7444	7444	7287	7287	7287	7287	7287	7287	7287	7287	7444	7444	7444	7444	7444	7444	7444	7444	7444	7444	7444	7444	7444	7287	7287	7287	7287	7137	7137	7137	0	0	0	0	0	0	0	0	0	0	0	0	2532	2514	2532	2514	2496	2478	2478	2496	2478	2460	2460	2460	2460	2443	2426	2409	2392	2392	2392	2392	2392	2376	2376	2359	2343	2343	2327	2312	2312	2312	0	0	0	0	0	0	0	0	0	0	0	0	0	0	0	0	0	0	0	0	0	0	0	0	0	0	0	0	0	0	0	0	0	0	0
0	0	0	0	0	0	0	0	977	980	980	985	985	985	988	988	1000	1006	1008	1011	1011	1014	1017	1020	1023	1026	1030	1033	1039	1042	1045	1045	1048	1048	1048	1048	1048	1055	1058	1061	1068	1068	0	0	0	0	0	0	0	0	0	4643	4643	4643	4581	4643	4643	4643	4643	4643	4581	4581	4581	4521	4521	0	0	0	0	0	0	0	0	0	0	0	4643	4581	4521	4521	0	0	0	0	0	0	0	0	0	0	0	4643	4581	4643	4643	4643	4643	4643	4643	4643	4643	4643	4643	4643	4643	4643	4643	4643	4706	4643	4643	4643	4643	4706	4643	4643	4643	4643	4643	4581	4521	4581	4581	4581	4581	4581	4581	4643	4643	4643	4643	4706	4706	4838	4838	4906	4977	5050	5125	5050	5050	5125	5125	5202	5125	5125	5125	5202	5125	5125	5050	5050	5050	5050	5050	5125	5050	5050	5050	5050	5050	5050	5050	5050	5050	5050	4977	4977	4977	4977	4977	4977	4977	5050	5050	5050	5050	5050	5050	5050	5125	5125	5125	5125	5125	5125	5202	5282	5282	5202	5202	5202	0	0	0	0	0	0	0	0	0	0	0	0	0	0	0	0	0	0	0	0	0	0	0	0	0	0	0	0	0	0	0	0	0	0	0	0	0	0	0	0	0	0	0	5535	5448	5448	5535	5535	5535	5535	5535	5535	5535	0	0	0	0	0	0	0	3277	3309	3309	3309	3309	3309	3309	3309	3309	3277	3277	3309	3309	3309	3309	3309	3309	3341	3341	3373	3373	3373	3406	3406	3406	0	0	0	0	0	0	0	3373	3373	3373	3341	3341	3309	3309	3309	3309	3277	3309	3309	3309	3309	3309	3309	3309	3341	3341	3373	3406	3406	3406	3406	3406	0	0	0	0	0	0	0	0	4142	4142	4142	4142	4142	4142	4142	4142	4142	4142	4142	4142	4142	4142	4093	4142	4142	4142	4142	4192	4192	4243	4296	4521	4521	4521	4581	4581	4581	4521	4521	4521	4581	4581	4581	4581	4581	4581	4581	4581	4581	4581	4581	4581	4581	4581	4581	4581	4581	4581	4581	4581	4581	4581	4581	4581	4581	4581	4581	4521	4581	4581	4581	4581	4581	4581	4581	4581	4581	4581	4581	4581	4581	4581	4581	4521	4521	4581	4581	4581	4581	4581	4581	4581	4581	4521	4521	4521	4521	4521	4521	4521	4581	4706	4643	4643	4581	4581	4581	4581	4581	4581	4581	4581	4581	4581	4581	4581	4581	4581	4581	4581	4581	4581	4581	4581	4581	4581	4581	4581	4581	4581	4581	4521	4581	4521	4521	4581	4581	4581	4643	4643	4643	4643	4581	4643	4643	4643	4643	4643	4643	4643	4643	4643	4643	4643	4643	4643	4643	4581	4581	4581	4581	4581	4521	4463	4463	4406	4406	4406	4406	4406	4463	4463	4521	4581	4643	4706	4643	4643	4706	4771	4838	4906	4977	5050	4977	4977	4906	4906	4906	4906	4906	4977	4906	4838	4906	4906	4906	4906	4906	4906	4906	4906	4906	4906	0	0	0	0	0	0	0	0	0	0	0	0	0	0	0	7287	7444	7287	7287	7444	7444	7444	7444	7287	7444	7444	7287	7287	7444	7444	7444	7444	7444	7444	7444	7444	7444	7444	7444	7444	7444	7444	7444	7287	7287	7287	7287	7137	7137	7137	7137	0	0	0	0	0	0	0	0	0	0	0	2532	2514	2514	2496	2496	2478	2496	2496	2478	2460	2460	2460	2460	2443	2426	2409	2409	2392	2392	2392	2392	2376	2376	2359	2343	2327	2312	2312	2312	2312	0	0	0	0	0	0	0	0	0	0	0	0	0	0	0	0	0	0	0	0	0	0	0	0	0	0	0	0	0	0	0	0	0	0	0
0	0	0	0	0	0	0	0	980	980	980	985	985	988	988	997	1003	1008	1011	1011	1014	1014	1017	1020	1023	1026	1033	1033	1033	1042	1045	1045	1045	1048	1048	1048	1052	1058	1061	1061	1064	1064	0	0	0	0	0	0	0	0	0	4581	4581	4581	4581	4643	4643	4643	4643	4643	4581	4581	4581	4581	4581	0	0	0	0	0	0	0	0	0	0	0	4643	4643	4581	4463	4463	0	0	0	0	0	0	0	0	0	0	4521	4581	4706	4643	4643	4643	4643	4643	4643	4643	4643	4706	4643	4643	4643	4706	4643	4706	4706	4706	4643	4643	4643	4643	4643	4643	4643	4643	4643	4581	4581	4581	4581	4581	4581	4581	4643	4643	4643	4643	4643	4643	4643	4977	4977	5125	5125	5125	5050	5050	5050	5125	5125	5125	5125	5125	5125	5125	5125	5050	5125	5050	5125	5050	5050	5050	5050	5125	5125	5050	5050	5050	5050	5050	5050	5050	4977	4977	4977	4977	5050	5050	5050	5050	5050	5050	5050	5050	5050	5125	5125	5125	5125	5125	5125	5202	5282	5202	5202	5202	5202	5202	0	0	0	0	0	0	0	0	0	0	0	0	0	0	0	0	0	0	0	0	0	0	0	0	0	0	0	0	0	0	0	0	0	0	0	0	0	0	0	0	0	0	5535	5448	5448	5535	5535	5535	5535	5535	0	0	0	0	0	0	0	0	0	3309	3341	3341	3309	3309	3309	3309	3309	3309	3277	3277	3309	3309	3309	3309	3309	3309	3341	3341	3373	3373	3406	3406	3406	3406	3406	3406	0	0	0	0	0	3373	3373	3373	3341	3341	3309	3309	3309	3309	3277	3277	3309	3309	3309	3309	3309	3309	3309	3341	3341	3373	3373	3373	3406	3406	3406	0	0	0	0	0	0	4093	4093	4142	4142	4142	4142	4142	4142	4192	4142	4142	4142	4142	4142	4142	4142	4142	4142	4142	4192	4192	4192	4296	4296	4521	4521	4521	4521	4521	4581	4521	4521	4521	4521	4521	4521	4581	4521	4521	4521	4521	4521	4521	4521	4521	4581	4581	4521	4521	4581	4581	4581	4581	4581	4581	4581	4581	4581	4521	4521	4521	4521	4521	4521	4521	4581	4581	4581	4581	4581	4581	4581	4581	4521	4581	4581	4521	4521	4581	4581	4581	4581	4581	4581	4581	4581	4521	4521	4521	4463	4463	4521	4521	4521	4581	4643	4581	4581	4581	4581	4581	4581	4581	4581	4581	4581	4581	4581	4581	4581	4581	4581	4581	4581	4581	4581	4581	4581	4581	4581	4581	4581	4581	4581	4521	4581	4521	4581	4581	4581	4581	4643	4643	4643	4643	4581	4581	4581	4643	4643	4643	4643	4643	4643	4643	4643	4643	4643	4643	4581	4581	4581	4581	4521	4521	4521	4521	4463	4406	4406	4406	4406	4406	4463	4463	4521	4581	4643	4643	4643	4643	4706	4771	4771	4771	4977	5050	4977	4977	4906	4906	4906	4906	4906	0	0	0	4906	4906	4906	4906	4906	4906	4906	4906	0	0	0	0	0	0	0	0	0	0	0	0	0	0	0	0	0	7287	7287	7287	7287	7287	7287	7287	7287	7287	7444	7444	7444	7444	7444	7444	7444	7444	7444	7444	7444	7444	7444	7444	7444	7444	7287	7444	7287	7287	7287	7287	7287	7287	7287	7137	7137	0	0	0	0	0	0	0	0	0	0	0	2532	2514	2514	2496	2496	2478	2478	2496	2478	2478	2478	2478	2460	2443	2426	2426	2409	2409	2409	2409	2392	2392	2376	2359	2343	2327	2312	2312	2312	2312	0	0	0	0	0	0	0	0	0	0	0	0	0	0	0	0	0	0	0	0	0	0	0	0	0	0	0	0	0	0	0	0	0	0	0
0	0	0	0	0	0	0	0	977	977	980	985	985	988	988	1000	1006	1008	1008	1011	1011	1014	1017	1017	1023	1026	1030	1033	1036	1039	1042	1042	1045	1048	1048	1048	1052	1058	1064	1064	1068	1068	0	0	0	0	0	0	0	0	0	4581	4581	4581	4581	4643	4643	4643	4643	4643	4643	4581	4581	4581	4581	0	0	0	0	0	0	0	0	0	0	0	4643	4643	4581	4581	4463	0	0	0	0	0	0	0	0	0	0	4581	4643	4643	4643	4643	4643	4581	4643	4643	4643	4643	4643	4643	4706	4706	4706	4643	4706	4706	4706	4643	4643	4643	4643	4643	4643	4643	4581	4643	4581	4581	4581	4581	4581	4643	4643	4643	4643	4643	4643	4643	4643	4643	4977	4977	5125	5125	5050	5050	5050	5050	5050	5125	5125	5125	5125	5125	5125	5125	5050	5050	5050	5125	5050	5125	5050	5050	5125	5125	5125	5125	5050	5050	5050	5050	5050	5050	4977	5050	5050	5050	5050	5050	5050	5050	5050	5050	5050	4977	5050	5125	5125	5050	5125	5125	5202	5282	5202	5202	5202	5125	5125	0	0	0	0	0	0	0	0	0	0	0	0	0	0	0	0	0	0	0	0	0	0	0	0	0	0	0	0	0	0	0	0	0	0	0	0	0	0	0	0	0	0	0	5364	5364	5535	5535	5535	5535	5535	0	0	0	0	0	0	0	0	0	3309	3341	3341	3341	3309	3309	3309	3309	3277	3277	3277	3309	3309	3309	3309	3309	3341	3341	3373	3373	3373	3406	3406	3406	3373	3341	3341	0	0	0	0	0	3373	3373	3341	3341	3309	3309	3309	3309	3277	3277	3277	3277	3277	3277	3309	3309	3309	3309	3341	3341	3373	3373	3373	3406	3406	3406	0	0	0	0	0	0	4093	4093	4142	4142	4142	4142	4142	4142	4142	4142	4142	4093	4142	4142	4142	4142	4192	4192	4192	4243	4192	4243	4296	4296	4521	4521	4521	4521	4521	4521	4521	4463	4463	4521	4521	4463	4463	4463	4463	4463	4463	4521	4521	4521	4521	4521	4581	4521	4521	4581	4581	4581	4581	4581	4581	4581	4581	4521	4521	4521	4463	4521	4521	4521	4521	4521	4521	4521	4521	4521	4521	4521	4521	4521	4521	4521	4521	4521	4581	4581	4581	4521	4521	4521	4521	4521	4521	4521	4463	4406	4406	4463	4463	4521	4521	4581	4581	4581	4581	4581	4581	4521	4521	4581	4581	4581	4581	4581	4581	4581	4581	4581	4581	4581	4581	4581	4581	4581	4581	4581	4581	4581	4581	4581	4581	4581	4581	4581	4581	4581	4581	4643	4643	4643	4643	4581	4643	4643	4643	4643	4643	4643	4643	4643	4643	4643	4643	4643	4581	4581	4581	4581	4521	4521	4581	4521	4521	4463	4406	4406	4350	4406	4406	4463	4521	4581	4581	4643	4643	4643	4643	4643	4706	4706	4771	0	0	4977	4977	4906	4906	4906	0	0	0	0	0	0	0	0	0	0	0	0	0	0	0	0	0	0	0	0	0	0	0	0	0	0	0	0	0	0	7287	7287	7287	7287	7287	7287	7287	7287	7287	7287	7444	7444	7444	7444	7444	7444	7444	7444	7444	7444	7444	7444	7444	7444	7444	7444	7444	7444	7287	7287	7287	7287	7287	7287	7137	7137	0	0	0	0	0	0	0	0	0	0	2551	2532	2514	2514	2496	2496	2496	2496	2496	2478	2478	2478	2478	2460	2443	2443	2426	2426	2409	2409	2409	2392	2392	2376	2359	2359	2327	2312	2312	2312	2312	0	0	0	0	0	0	0	0	0	0	0	0	0	0	0	0	0	0	0	0	0	0	0	0	0	0	0	0	0	0	0	0	0	0	0
0	0	0	0	0	0	0	0	974	977	977	985	985	988	991	994	1000	1000	1008	1008	1014	1014	1017	1020	1023	1026	1030	1033	1036	1039	1039	1042	1045	1048	1048	1052	1055	1058	1064	1064	1068	1068	0	0	0	0	0	0	0	0	0	4521	4581	4581	4581	4643	4643	4643	4643	4643	4643	4581	4581	4581	4581	0	0	0	0	0	0	0	0	0	4643	4643	4643	4643	4643	4581	4581	0	0	0	0	0	0	0	0	0	4643	4643	4643	4706	4643	4643	4643	4581	4643	4643	4643	4643	4643	4643	4643	4706	4706	4643	4706	4706	4706	4643	4643	4706	4643	4643	4643	4643	4643	4643	4581	4581	4581	4581	4581	4581	4581	4581	4581	4643	4643	4706	4706	4706	4706	4977	5050	5125	5125	5125	5125	5125	5125	5202	5125	5125	5125	5125	5125	5125	5050	5125	5050	5125	5050	5050	5125	5125	5125	5125	5125	5125	5125	5125	5050	5050	5050	5050	4977	5050	4977	5050	5050	5050	4977	4977	4977	4977	4977	4977	5050	5125	5125	5125	5125	5125	5202	5202	5282	5202	5282	5282	5125	0	0	0	0	0	0	0	0	0	0	0	0	0	0	0	0	0	0	0	0	0	0	0	0	0	0	0	0	0	0	0	0	0	0	0	0	0	0	0	0	0	0	0	5364	5364	0	0	0	0	0	0	0	0	0	0	0	0	0	0	3309	3341	3341	3341	3341	3309	3309	3309	3277	3277	3277	3309	3309	3309	3309	3309	3341	3341	3373	3373	3373	3406	3406	3406	3373	3373	3341	0	0	0	0	3406	3406	3373	3373	3341	3341	3309	3309	3309	3277	3277	3277	3277	3309	3309	3309	3309	3309	3309	3341	3341	3341	3341	3373	3373	3373	3406	0	0	0	0	4093	4093	4093	4142	4142	4142	4142	4142	4142	4142	4142	4142	4142	4093	4142	4192	4192	4192	4243	4243	4243	4243	4243	4243	4296	4296	4521	4521	4463	4521	4521	4463	4406	4350	4296	4350	4350	4350	4406	4406	4406	4406	4406	4463	4463	4463	4463	4521	4521	4463	4463	4521	4521	4581	4581	4581	4581	4581	4521	4521	4463	4463	4463	4463	4463	4521	4521	4521	4521	4521	4521	4521	4521	4521	4521	4521	4521	4521	4521	4521	4521	4521	4521	4521	4521	4521	4521	4463	4463	4521	4463	4406	4463	4521	4521	4521	4581	4581	4581	4581	4581	4581	4521	4521	4581	4581	4581	4581	4581	4581	4581	4581	4581	4581	4581	4581	4581	4581	4581	4581	4581	4581	4581	4581	4581	4581	4581	4581	4581	4581	4581	4581	4581	4643	4643	4643	4581	4581	4643	4643	4643	4643	4643	4643	4643	4643	4643	4643	4643	4643	4581	4581	4581	4581	4581	4521	4581	4521	4521	4463	4406	4350	4350	4350	4406	4463	4521	4581	4581	4643	4643	4643	4643	4643	4706	4706	0	0	0	0	0	0	0	0	0	0	0	0	0	0	0	0	0	0	0	0	0	0	0	0	0	0	0	0	0	0	0	0	0	0	0	0	0	0	7287	7287	7287	7287	7287	7287	7287	7287	7287	7287	7287	7444	7444	7444	7444	7444	7444	7444	7444	7444	7444	7444	7444	7444	7444	7287	7287	7287	7287	7287	7287	7287	7287	7287	7137	7137	0	0	0	0	0	0	0	0	0	2551	2551	2532	2514	2514	2514	2514	2496	2496	2496	2496	2478	2478	2460	2460	2443	2426	2426	2426	2426	2426	2409	2409	2409	2392	2359	2359	2327	2312	2312	2312	2312	0	0	0	0	0	0	0	0	0	0	0	0	0	0	0	0	0	0	0	0	0	0	0	0	0	0	0	0	0	0	0	0	0	0	0
0	0	0	0	0	0	0	0	977	977	980	985	985	985	991	994	997	1006	1008	1014	1014	1014	1017	1017	1023	1023	1030	1033	1036	1039	1039	1042	1045	1045	1048	1052	1055	1058	1064	1064	1068	1068	0	0	0	0	0	0	0	0	0	4521	4581	4581	4581	4643	4643	4643	4643	4643	4581	4581	4581	4581	0	0	0	0	0	0	0	0	0	0	4643	4643	4581	4581	4581	4581	4581	0	0	0	0	0	0	0	0	0	4643	4643	4643	4643	4643	4643	4643	4643	4643	4643	4643	4643	4643	4643	4643	4706	4706	4643	4706	4706	4706	4706	4643	4706	4643	4643	4643	4643	4643	4643	4643	4643	4581	4581	4581	4581	4581	4581	4581	4581	4643	4643	4706	4706	4706	4906	5202	5202	5202	5202	5050	5202	5202	5202	5125	5125	5125	5125	5125	5125	5050	5125	5050	5125	5050	5125	5125	5125	5125	5125	5125	5125	5125	5050	5050	5050	5050	5050	5050	4977	4977	5050	5050	5050	4977	4977	4977	5050	4977	5050	5050	5125	5050	5050	5050	5050	5125	5202	5282	5282	5282	5202	5202	0	0	0	0	0	0	0	0	0	0	0	0	0	0	0	0	0	0	0	0	0	0	0	0	0	0	0	7287	7608	7608	0	0	0	0	0	0	0	0	0	0	0	0	0	0	0	0	0	0	0	0	0	0	0	0	0	0	0	0	0	3309	3341	3309	3341	3341	3309	3309	3309	3277	3277	3277	3309	3309	3309	3309	3341	3341	3373	3373	3373	3373	3373	3406	3406	3373	3341	3341	0	0	0	0	3406	3406	3373	3373	3341	3341	3309	3309	3309	3309	3277	3277	3277	3309	3309	3309	3309	3309	3309	3341	3341	3341	3341	3373	3373	3373	0	4093	4093	4093	4093	4093	4093	4093	4142	4142	4142	4142	4142	4142	4142	4142	4142	4142	4142	4142	4192	4192	4192	4243	4243	4243	4243	4243	4243	4243	4463	4463	4463	4406	4463	4406	4406	4350	4296	4350	4350	4350	4350	4406	4350	4350	4350	4350	4406	4350	4350	4406	4406	4463	4406	4406	4406	4521	4521	4581	4521	4521	4521	4521	4463	4463	4406	4406	4463	4463	4463	4463	4521	4521	4463	4463	4463	4463	4463	4463	4463	4463	4463	4463	4463	4521	4463	4463	4463	4463	4463	4463	4521	4521	4521	4521	4463	4463	4521	4521	4521	4521	4521	4521	4581	4521	4521	4521	4521	4521	4581	4581	4581	4521	4521	4521	4581	4521	4521	4581	4581	4581	4581	4581	4581	4581	4581	4581	4581	4581	4581	4581	4581	4581	4581	4581	4581	4581	4643	4643	4643	4643	4643	4643	4643	4643	4643	4643	4643	4643	4643	4643	4643	4643	4581	4581	4581	4581	4581	4581	4581	4521	4521	4521	4463	4406	4350	4350	4350	4406	4406	4463	4521	4581	4581	4643	4643	4643	4643	4643	4643	0	0	0	0	0	0	0	0	0	0	0	0	0	0	0	0	0	0	0	0	0	0	0	0	0	0	0	0	0	0	0	0	0	0	0	0	0	0	7287	7287	7287	7287	7287	7287	7287	7287	7287	7444	7444	7444	7444	7444	7444	7444	7444	7444	7444	7444	7444	7287	7287	7444	7444	7287	7444	7444	7444	7444	7444	7444	7444	7287	7287	7287	0	0	0	0	0	0	0	0	0	2551	2532	2514	2514	2514	2514	2496	2496	2496	2496	2478	2478	2478	2478	2460	2443	2426	2426	2426	2409	2409	2409	2392	2392	2392	2359	2359	2327	2312	2312	2312	2312	0	0	0	0	0	0	0	0	0	0	0	0	0	0	0	0	0	0	0	0	0	0	0	0	0	0	0	0	0	0	0	0	0	0	0
0	0	0	0	0	0	0	0	977	980	980	985	985	991	991	994	997	1008	1008	1014	1014	1014	1017	1017	1023	1026	1030	1033	1039	1039	1042	1045	1045	1045	1048	1048	1055	1058	1064	1068	1068	1068	0	0	0	0	0	0	0	0	0	4521	4581	4581	4581	4643	4643	4643	4643	4643	4581	4581	4581	4581	0	0	0	0	0	0	0	0	0	0	4643	4643	4643	4581	4581	4581	4581	0	0	0	0	0	0	0	0	4706	4706	4643	4643	4643	4643	4643	4643	4581	4643	4643	4643	4643	4643	4643	4643	4643	4643	4643	4643	4643	4706	4643	4643	4643	4643	4643	4643	4643	4643	4643	4643	4643	4581	4643	4643	4643	4581	4581	4581	4643	4643	4706	4706	4906	4906	4906	4977	5202	5202	5202	5202	5202	5202	5202	5125	5125	5125	5125	5125	5125	5050	5050	5050	5050	5050	5125	5125	5125	5125	5125	5125	5125	5125	5125	5125	5050	5050	5050	5050	5050	5050	5050	5050	5050	5050	5050	5050	5050	4977	4977	4977	5125	5125	5050	5125	5050	5202	5282	5202	5202	5282	5202	5202	0	0	0	0	0	0	0	0	0	0	0	0	0	0	0	0	0	0	0	0	0	0	0	0	0	0	0	7444	7444	7444	0	0	0	0	0	0	0	0	0	0	0	0	0	0	0	0	0	0	0	0	0	0	0	0	0	0	0	0	0	0	0	3309	3309	3309	3309	3309	3309	3277	3277	3277	3309	3309	3309	3309	3341	3341	3373	3373	3373	3373	3406	3406	3406	3373	3373	3341	0	0	0	0	3406	3406	3341	3341	3341	3309	3309	3309	3309	3309	3277	3277	3277	3309	3309	3309	3309	3309	3309	3341	3341	3341	3341	3373	3373	3373	3373	4093	4093	4093	4093	4093	4093	4093	4142	4142	4142	4142	4142	4142	4142	4142	4142	4142	4142	4142	0	4243	4243	4296	4296	4296	4296	4243	4296	4350	4406	4463	4463	4406	4350	4350	4350	4350	4296	4296	4350	4350	4350	4406	4350	4350	4350	4350	4350	4350	4350	4350	4350	4406	4350	4350	4350	4406	4463	4521	4463	4463	4463	4463	4406	4406	4350	4406	4406	4463	4463	4463	4463	4463	4406	4406	4406	4406	4406	4406	4406	4463	4406	4406	4406	4406	4406	4406	4406	4463	4463	4463	4521	4521	4521	4463	4463	4463	4463	4521	4521	4521	4521	4521	4521	4521	4521	4521	4521	4521	4521	4521	4521	4521	4521	4521	4521	4521	4521	4521	4581	4521	4581	4521	4521	4581	4581	4521	4521	4521	4521	4581	4581	4581	4581	4581	4581	4581	4581	4643	4643	4643	4643	4643	4643	4643	4643	4643	4643	4643	4643	4643	4643	4643	4581	4581	4581	4581	4581	4581	4521	4521	4521	4521	4463	4406	4350	4350	4350	4406	4406	4463	4521	4581	4581	4581	4581	4581	4581	4643	4643	0	0	0	0	0	0	0	0	0	0	0	0	0	0	0	0	0	0	0	0	0	0	0	0	0	0	0	0	0	0	0	0	0	0	0	0	7287	7287	7287	7287	7287	7287	7287	7287	7287	7287	7444	7444	7444	7444	7444	7444	7444	7444	7287	7287	7287	7287	7287	7287	7287	7287	7287	7287	7287	7444	7287	7444	7444	7287	7287	7287	7287	7287	7287	0	0	0	0	0	0	0	0	0	2532	2514	2496	2514	2496	2496	2496	2496	2478	2478	2478	2460	2460	2443	2443	2426	2409	2426	2409	2409	2409	2392	2392	2376	2359	2359	2343	2327	2312	2312	2312	0	0	0	0	0	0	0	0	0	0	0	0	0	0	0	0	0	0	0	0	0	0	0	0	0	0	0	0	0	0	0	0	0	0	0
0	0	0	0	0	0	0	0	980	980	983	985	985	988	988	994	1000	1008	1008	1011	1014	1014	1014	1017	1023	1026	1033	1033	1039	1042	1042	1045	1045	1045	1048	1048	1055	1058	1064	1064	1068	1068	0	0	0	0	0	0	0	4581	4521	4463	4521	4581	4581	4643	4643	4643	4643	4643	4643	4581	4581	4581	0	0	0	0	0	0	0	0	0	4771	4643	4706	4643	4581	4581	4581	4581	0	0	0	0	0	0	0	4838	4771	4706	4706	4706	4643	4643	4643	4643	4643	4643	4643	4643	4643	4643	4643	4643	4643	4643	4643	4643	4643	4706	4643	4643	4706	4643	4643	4643	4581	4643	4581	4581	4643	4581	4643	4643	4643	4581	4581	4581	4643	4643	4706	4771	4906	4906	4906	4977	4977	5050	5202	5202	5202	5202	5202	5202	5125	5125	5125	5050	5125	5050	5050	5050	5050	5050	5050	5125	5125	5125	5125	5125	5125	5125	5050	5050	5050	5050	5050	5050	5050	5050	5050	5050	5050	5050	5050	5050	5050	5050	5050	5050	5050	5125	5050	5125	5202	5125	5202	5282	5282	5282	5282	5202	0	0	0	0	0	0	0	0	0	0	0	0	0	0	0	0	0	0	0	0	0	0	0	0	0	0	0	7444	7444	7444	7444	0	0	0	0	0	0	0	0	0	0	0	0	0	0	0	0	0	0	0	0	0	0	0	0	0	0	0	0	0	0	3309	3309	3309	3309	3309	3309	3309	3277	3309	3309	3309	3341	3341	3341	3373	3373	3373	3406	3373	3406	3406	3373	3341	3341	3309	3309	0	0	0	0	3406	3341	3341	3309	3309	3309	3309	3309	3309	3309	3309	3309	3309	3309	3309	3309	3309	3309	3341	3341	3341	3341	3373	3373	3373	3373	4093	4093	4093	4142	4093	4093	4093	4142	4142	4142	4142	4142	4142	4142	4142	4142	4142	4142	0	0	4243	4243	4296	4296	4296	4296	4296	4296	4350	4406	4463	4463	4463	4350	4350	4350	4350	4350	4350	4350	4350	4350	4350	4350	4350	4350	4350	4350	4350	4350	4350	4350	4406	4350	4350	4350	4406	4463	4463	4463	4463	4463	4463	4406	4406	4350	4406	4406	4463	4406	4406	4406	4406	4350	4350	4350	4350	4350	4350	4406	4463	4406	4406	4406	4406	4406	4406	4406	4406	4463	4463	4463	4521	4521	4463	4406	4463	4463	4463	4521	4463	4463	4521	4521	4521	4521	4463	4463	4521	4463	4463	4463	4463	4463	4463	4521	4521	4521	4521	4521	4521	4521	4521	4521	4521	4521	4521	4521	4521	4521	4581	4581	4581	4581	4581	4581	4581	4643	4643	4643	4643	4643	4643	4643	4643	4643	4643	4643	4643	4643	4643	4643	4643	4581	4581	4581	4581	4581	4581	4521	4521	4521	4521	4463	4406	4350	4350	4350	4406	4406	4406	4463	4521	4581	4581	4581	4581	4581	4581	4581	0	0	0	0	0	0	0	0	0	0	0	0	0	0	0	0	0	0	0	0	0	0	0	0	0	0	0	0	0	0	0	0	0	0	0	0	7137	7287	7137	7137	7137	7137	7137	7287	7287	7287	7444	7444	7444	7444	7444	7444	7444	7444	7444	7287	7287	7287	7287	7137	7287	7287	7287	7287	7287	7444	7287	7444	7444	7287	7287	7287	7287	7287	7287	0	0	0	0	0	0	0	0	0	2532	2514	2514	2514	2496	2496	2496	2496	2496	2478	2478	2478	2460	2460	2426	2409	2392	2409	2409	2409	2409	2392	2392	2376	2359	2359	2343	2327	2327	2312	2312	0	0	0	0	0	0	0	0	0	0	0	0	0	0	0	0	0	0	0	0	0	0	0	0	0	0	0	0	0	0	0	0	0	0	0
0	0	0	0	0	0	0	0	983	983	985	985	985	988	988	994	997	1006	1008	1011	1014	1014	1014	1017	1026	1026	1033	1033	1036	1039	1042	1045	1045	1045	1045	1048	1052	1055	1064	1064	0	0	0	0	0	0	0	0	0	4581	4521	4463	4521	4581	4581	4643	4581	4581	4581	4581	4581	4581	4521	4521	0	0	0	0	0	0	0	0	0	4706	4706	4643	4643	4581	4581	4581	4581	0	0	0	0	0	0	0	4906	4838	4706	4706	4706	4643	4643	4643	4643	4581	4643	4643	4581	4643	4643	4643	4643	4643	4643	4643	4643	4643	4643	4643	4643	4706	4643	4643	4643	4581	4581	4581	4643	4643	4581	4643	4581	4643	4581	4581	4581	4581	4643	4706	4838	4906	4977	4977	4977	4977	4977	5202	5202	5202	5202	5202	5202	5125	5125	5125	5125	5125	5125	5125	5050	5050	5050	5125	5125	5125	5125	5125	5125	5125	5125	5050	5050	5050	5050	5050	5050	5050	5050	5050	5050	5050	5050	5125	5050	5050	5050	5050	5050	5125	5125	5050	5125	5202	5125	5202	5202	5202	5202	5202	0	0	0	0	0	0	0	0	0	0	0	0	0	0	0	0	0	0	0	0	0	0	0	0	0	0	0	0	7444	7444	7444	7444	7444	7444	0	0	0	0	0	0	0	0	0	0	0	0	0	0	0	0	0	0	0	0	0	0	0	0	0	0	0	0	0	3309	3277	3309	3309	3309	3309	3309	3309	3309	3309	3309	3341	3341	3341	3373	3373	3373	3373	3373	3373	3406	3406	3406	3406	3309	0	0	0	0	0	3341	3341	3309	3309	3309	3309	3309	3309	3309	3309	3277	3309	3309	3309	3309	3309	3309	3341	3341	3341	3341	3373	3373	3373	3373	3373	4093	4093	4142	4093	4093	4093	4142	4142	4142	4142	4142	4142	4192	4192	4192	4243	4243	0	0	0	0	4296	4296	4296	4296	4296	0	0	0	4463	4463	4463	4406	4406	4406	4350	4350	4406	4406	4406	4406	4406	4350	4350	4350	4350	4350	4406	4406	4406	4406	4406	4406	4406	4350	4406	4463	4463	4463	4463	4463	4463	4463	4406	4406	4406	4463	4406	4406	4406	4406	4406	4350	4350	4350	4350	4350	4406	4406	4463	4463	4463	4463	4406	4406	4406	4406	4463	4463	4521	4521	4521	4521	4463	4406	4463	4463	4463	4521	4463	4463	4521	4521	4463	4463	4463	4463	4463	4463	4406	4406	4406	4406	4350	4406	4463	4463	4463	4463	4463	4463	4521	4521	4521	4521	4463	4463	4463	4463	4521	4521	4581	4581	4581	4643	4581	4643	4643	4643	4643	4643	4581	4643	4643	4581	4581	4581	4643	4643	4581	4643	4643	4581	4581	4581	4581	4581	4581	4521	4521	4521	4521	4463	4406	4350	4350	4350	4406	4406	4406	4463	4521	4581	4581	4581	4581	4581	4581	4581	0	0	0	0	0	0	0	0	0	0	0	0	0	0	0	0	0	0	0	0	0	0	0	0	0	0	0	0	0	0	0	0	0	0	0	0	7137	7137	7137	7137	7137	7137	7137	7137	7287	7444	7444	7444	7444	7444	7444	7444	7608	7608	7608	7137	7137	7137	7137	6992	7137	7287	7287	7287	7287	7444	7444	7444	7444	7287	7287	7287	7287	7287	0	0	0	0	0	0	0	0	0	0	0	2237	2237	2496	2496	2496	2496	2496	2496	2478	2478	2478	2478	2478	2426	2392	2376	2392	2392	2409	2392	2376	2376	2376	2359	2343	2327	2327	2312	2312	2312	0	0	0	0	0	0	0	0	0	0	0	0	0	0	0	0	0	0	0	0	0	0	0	0	0	0	0	0	0	0	0	0	0	0	0
0	0	0	0	0	0	0	0	983	985	988	988	985	988	988	991	991	1003	1008	1014	1014	1017	1017	1020	1026	1030	1033	1036	1039	1042	1042	1045	1045	1045	1048	1048	1052	1055	1061	1061	0	0	0	0	0	0	0	0	0	4521	4521	4521	4581	4581	4581	4643	4581	4643	4581	4581	4581	4521	4521	4521	0	0	0	0	0	0	0	0	4706	4706	4706	4643	4643	4643	4643	4581	4581	0	0	0	0	0	0	0	4906	4838	4706	4706	4706	4643	4643	4643	4643	4643	4643	4643	4581	4643	4643	4643	4643	4643	4643	4643	4643	4643	4643	4643	4643	4643	4643	4643	4643	4581	4581	4581	4581	4643	4643	4643	4643	4643	4643	4581	4581	4581	4643	4771	4838	4906	4906	4906	4906	4906	4977	4977	5202	5202	5125	5202	5202	5125	5125	5125	5125	5125	5050	5050	5050	5050	5050	5050	5125	5125	5125	5125	5125	5125	5050	5050	5050	4977	5050	5125	5125	5050	5050	5050	5050	5050	5050	5125	5050	5050	5050	5050	5050	5050	5125	5125	5125	5202	5202	5202	5202	5202	5202	5202	0	0	0	0	0	0	0	0	0	0	0	0	0	0	0	0	0	0	0	0	0	0	0	0	6992	6992	7444	7444	7608	7608	7608	7608	7608	7608	7608	0	0	0	0	0	0	0	0	0	0	0	0	0	0	0	0	0	0	0	0	0	0	0	0	0	0	0	0	3309	3309	3277	3309	3309	3309	3309	3309	3309	3341	3341	3341	3341	3341	3341	3373	3373	3373	3373	3373	3406	3406	3406	3406	0	0	0	0	0	0	3341	3309	3309	3309	3309	3309	3309	3309	3309	3309	3309	3309	3309	3309	3309	3309	3309	3309	3341	3341	3341	3341	3373	3341	3341	4093	4093	4093	4142	4093	4093	4093	4142	4142	4142	4142	4142	4192	4192	4243	4243	4243	4243	0	0	0	0	0	0	0	0	0	0	0	0	4521	4521	4521	4463	4406	4406	4406	4406	4406	4463	4406	4463	4463	4406	4406	4406	4406	4406	4406	4463	4406	4406	4406	4406	4406	4406	4406	4521	4521	4521	4463	4463	4463	4463	4406	4406	4406	4463	4463	4406	4463	4406	4406	4350	4350	4350	4406	4406	4463	4463	4463	4463	4463	4463	4463	4406	4463	4463	4463	4521	4521	4521	4521	4521	4463	4463	4463	4463	4463	4521	4463	4463	4463	4521	4463	4463	4406	4406	4406	4406	4350	4350	4350	4350	4350	4350	4350	4406	4406	4406	4406	4406	4350	4350	4350	4350	4350	4406	4406	4406	4463	4521	4581	4581	4581	4581	4581	4643	4643	4643	4581	4581	4581	4581	4581	4581	4581	4581	4581	4581	4581	4581	4581	4581	4581	4581	4581	4581	4581	4521	4521	4521	4581	4463	4406	4350	4350	4350	4406	4406	4406	4463	4521	4581	4581	4581	4581	4581	4581	4581	4581	0	0	0	0	0	0	0	0	0	0	0	0	0	0	0	0	0	0	0	0	0	0	0	0	0	0	0	0	0	0	0	0	0	0	0	7137	7137	7137	7137	7137	7137	7137	7137	7137	7287	7444	7444	7444	2297	2297	2297	2297	7444	2281	2281	2281	2281	2266	2281	2281	2281	2266	2266	7287	7444	7444	7444	7444	7287	7287	7287	7287	0	0	0	0	0	0	2252	2252	0	0	2223	2223	2237	2237	2237	2496	2496	2496	2496	2496	2478	2478	2460	2460	2409	2409	2376	2376	2376	2376	2376	2376	2376	2376	2359	2343	2343	2327	2327	2312	2312	2312	0	0	0	0	0	0	0	0	0	0	0	0	0	0	0	0	0	0	0	0	0	0	0	0	0	0	0	0	0	0	0	0	0	0	0
