0	0	0	0	0	991	991	991	988	991	994	994	994	994	994	994	991	994	994	1003	1008	1008	1011	1014	1020	1026	1026	1030	1033	1033	1036	1033	1033	1033	1033	1081	1081	1095	1095	1091	1091	1095	1095	1102	1102	1102	1105	1109	1109	0	0	0	0	0	0	0	0	0	0	0	0	0	0	0	0	0	1342	1336	1336	1342	1342	1342	1342	1358	1352	1352	1352	1352	1352	1347	1347	1342	1342	1342	1347	1347	1358	1358	1363	1363	1363	1363	1363	1363	0	0	0	0	0	0	0	0	0	0	0	0	0	6853	6853	6853	6853	6992	6992	6853	6853	6992	6853	6853	6853	6853	6853	6853	6853	6853	6853	6853	6853	6853	6720	6853	6720	6853	6853	6853	6853	0	0	0	6853	6853	6853	6853	6853	6853	6853	6853	6853	6853	6853	6853	6853	6992	6992	6992	6992	6992	6992	6992	6992	6992	6992	6992	6992	6992	6992	6992	0	6592	6592	6592	6853	6853	6853	6853	6992	6992	6853	6853	6720	6720	6720	6592	6592	6592	6592	0	0	0	0	0	6992	6992	6992	6992	6992	6853	6853	6853	6720	6720	6720	6720	6853	6720	6853	6992	6992	6992	6992	6992	6992	6992	6992	6992	6992	6992	6992	6992	6992	6992	6853	6853	6853	6853	6853	6992	6992	6992	6992	6853	6853	6853	6720	6720	6720	6720	6720	6720	6720	6720	6853	6853	6853	6853	6853	6853	6853	6853	6853	6853	6720	6720	6592	6592	6592	6592	6592	6720	6853	6853	6853	6853	0	0	0	0	0	3510	3510	3510	3510	3510	3510	3510	3475	3475	3475	3440	3440	3440	3440	3440	3440	3475	3440	3475	3475	3475	3475	3475	3475	3475	3475	3475	3475	3440	3440	3475	3475	3475	6720	6853	6853	6853	6853	6720	6720	6853	6853	6853	6853	6720	6853	6720	6853	6853	6853	6992	6853	6853	6853	6853	6853	6992	6853	6853	7137	7137	7137	7137	6992	6992	6992	6992	6853	6853	6853	6720	6720	6853	6853	6853	6720	6720	6853	6853	6853	6853	6853	6853	6853	6853	6853	6992	6853	6853	6853	6853	6853	6853	6853	6853	6853	6853	6853	6853	6853	6853	6720	6720	6720	6720	6720	6720	6720	6720	6720	6720	6720	6720	6720	6720	6720	6720	6720	6720	6720	6720	6720	6720	6720	6720	6853	6720	6720	6720	6720	6720	6720	6720	6720	6720	6720	6592	6720	6720	6720	6720	6720	6720	6720	6720	6720	6592	6720	6592	6592	6720	6720	6720	6720	6720	6720	6720	6720	6720	6720	6720	6720	6720	6592	6592	6720	6592	6592	6592	0	0	0	0	0	0	0	0	0	0	0	0	0	0	0	0	0	0	0	0	0	0	0	0	0	0	0	0	0	0	0	0	0	0	0	0	0	0	0	0	0	0	0	0	0	0	0	0	6853	6853	6853	6853	6853	6853	6853	6853	6853	6853	6853	6853	6853	6853	6720	6853	6720	6853	6853	6853	6853	6853	6853	6853	6853	6853	6853	6992	7137	7137	6992	6992	6853	6853	6853	6853	6992	6992	7137	7137	7137	7287	7287	7444	7444	7444	0	0	0	0	0	0	0	0	0	0	0	0	0	0	0	0	0	0	0	0	0	0	0	0	1419	1419	1413	1413	1413	1396	1396	1336	1336	1331	1321	1311	1301	1301	1296	1296	1301	1296	1287	1282	1277	1268	1263	1259	1254	1249	1245	1236	1210	1210	1202	1202	1202	1197	1197	1193	1193	1197	1197	1193	1193	1193	1193	0	0	0	0	0	0	0	0	0	0	0	0	0	0	0	0	0	0	0	0	0	0	0	0	0	0	0	0	0	0	0	0	0	0	0	0	0	0	0	0	0	0	0
0	0	0	0	0	994	994	994	994	994	997	1000	1000	997	997	994	997	997	997	1003	1006	1008	1011	1014	1014	1020	1026	1030	1033	1036	1036	1036	1036	1036	1036	1081	1081	1088	1095	1091	1091	1095	1098	1102	1102	1102	1105	1109	1113	1113	0	0	0	0	0	0	0	0	0	0	0	0	0	0	0	0	0	0	0	1342	1352	1352	1352	1363	1358	1363	1363	1363	1358	1352	1352	1347	1347	1347	1352	1352	1363	1363	1368	1368	1363	1363	1368	1368	0	0	0	0	0	0	0	0	0	0	0	6853	6853	6853	6853	6853	6992	6992	6992	6853	6853	6853	6853	6853	6853	6853	6853	6853	6992	6992	6992	6992	6992	6992	6992	6992	6853	6853	6853	6853	6853	0	0	0	6853	6853	6853	6853	6853	6853	6853	6853	6853	6853	6853	6853	6853	6853	6853	6992	6992	6992	7137	7137	7137	7137	7137	6992	6992	6992	6992	6992	0	0	0	0	6853	6853	6853	6853	6992	7137	6992	6853	6720	6720	6720	6592	6592	6592	6592	0	0	0	0	0	0	7137	6992	6992	6992	0	0	0	0	0	0	0	6992	6853	6992	7137	6992	6992	6992	6992	6992	6992	6992	6992	6992	6992	6992	6992	6992	6992	6992	6992	6992	6992	6992	6992	6992	6992	6992	6992	6992	6853	6720	6720	6720	6720	6720	6853	6853	6853	6853	6853	6992	6853	6853	6853	6853	6853	6853	6853	6720	6720	6592	6592	6592	6720	6592	6720	6853	6992	6853	6853	0	0	0	0	3510	3475	3475	3510	3510	3510	3510	3510	3475	3475	3440	3440	3440	3440	3440	3440	3440	3440	3440	3440	3475	3475	3440	3475	3475	3475	3475	3475	3440	3440	3475	3475	3475	3475	3510	3510	6853	6720	6720	6720	6853	6853	6853	6853	6853	6853	6853	6853	6853	6992	6992	6992	6992	6992	6992	6992	6992	7137	6992	7137	7287	7287	7287	7137	7137	7137	6992	6992	6992	6853	6853	6853	6853	6992	6853	6853	6853	6853	6853	6992	6853	6992	6853	6992	6992	6992	6992	6992	6992	6992	6992	6853	6853	6853	6853	6853	6853	6853	6853	6853	6853	6853	6853	6720	6720	6720	6720	6720	6720	6720	6720	6720	6720	6720	6720	6853	6853	6853	6720	6720	6720	6720	6720	6720	6720	6720	6853	6720	6720	6720	6720	6720	6720	6720	6720	6720	6720	6720	6720	6720	6720	6720	6720	6720	6720	6720	6720	6720	6720	6592	6720	6720	6720	6720	6720	6720	6720	6720	6720	6720	6720	6720	6720	6720	6592	6592	6720	6720	6592	6592	0	0	0	0	0	0	0	0	0	0	0	0	0	0	0	0	0	0	0	0	0	0	0	0	0	0	0	0	0	0	0	0	0	0	0	0	0	0	0	0	0	0	0	0	0	0	0	0	6853	6853	6853	6853	6853	6853	6853	6853	6853	6853	6853	6853	6853	6853	6853	6853	6853	6853	6853	6853	6992	6992	6992	6992	6992	6992	6992	6992	7137	7137	6992	6992	6992	6992	6992	6992	6992	7137	7137	7287	7287	7287	7444	7444	7444	0	0	0	0	0	0	0	0	0	0	0	0	0	0	0	0	0	0	0	0	0	0	0	0	0	1419	1413	1413	1413	1413	1402	1396	1321	1321	1326	1316	1311	1306	1306	1296	1296	1301	1296	1287	1282	1277	1272	1263	1259	1254	1249	1245	1236	1210	1206	1197	1197	1197	1193	1193	1193	1193	1197	1197	1193	1197	1193	1193	0	0	0	0	0	0	0	0	0	0	0	0	0	0	0	0	0	0	0	0	0	0	0	0	0	0	0	0	0	0	0	0	0	0	0	0	0	0	0	0	0	0	0
0	0	0	0	0	997	997	1000	997	1000	1003	1003	1000	1000	997	997	1000	1000	1000	1003	1006	1008	1011	1014	1014	1014	1026	1030	1030	1036	1039	1042	1042	1042	1042	1074	1074	1081	1091	1088	1088	1095	1098	1102	1105	1105	1109	1113	1116	1116	0	0	0	0	0	0	0	0	0	0	0	0	0	0	0	0	0	0	0	0	1358	1358	1358	1368	1368	1368	1368	1368	1363	1363	1363	1358	1358	1358	1363	1363	1363	1374	1374	1368	1368	1363	1368	1368	0	0	0	0	0	0	0	0	0	0	0	6853	6853	6853	6853	6853	6992	6992	6992	6992	6992	6992	6992	6992	6853	6853	6853	6853	6992	6992	6992	6992	6992	6992	6992	6992	6992	6992	6853	6853	6853	0	0	0	0	6853	6853	6853	6853	6853	6853	6853	6853	6853	6853	6853	6853	6853	6992	6992	6992	7137	7137	7444	7137	7137	7137	7137	7137	7137	6992	6992	0	0	0	0	0	0	0	0	0	7137	6992	6853	6853	6720	6592	6468	6468	6468	6592	0	0	0	0	0	0	7137	6992	6992	0	0	0	0	0	0	0	0	6992	6992	6992	6992	6992	6992	6992	6992	6992	6992	6992	6992	6992	6992	6992	6992	6992	6992	6992	6992	6992	6992	6992	6992	6992	6992	6992	6992	6992	6853	6853	6853	6853	6853	6853	6853	6853	6992	6853	6853	6992	6853	6853	6853	6853	6853	6853	6853	6853	6853	6720	6720	6720	6720	6720	6853	6853	6853	6853	6853	0	0	0	0	3510	3475	3475	3510	3475	3475	3475	3475	3475	3440	3440	3440	3440	3440	3440	3440	3440	3440	3440	3440	3440	3440	3440	3440	3440	3475	3440	3440	3440	3440	3475	3475	3475	3510	3510	3510	3546	3546	3510	3510	3510	6853	6992	6992	6992	6992	6853	6853	6853	6992	6992	6992	6992	6992	6992	6992	7137	7137	7137	7137	7287	7287	7287	7137	7137	7137	7137	7137	6992	6853	6853	6720	6853	6992	6853	6992	6853	6853	6992	6992	6992	6992	6992	6992	6992	6992	6992	6992	6992	6992	6992	6992	6992	6853	6853	6992	6853	6853	6992	6853	6853	6853	6853	6853	6720	6720	6720	6720	6720	6720	6720	6853	6720	6853	6853	6992	6992	6853	6853	6853	6720	6720	6720	6720	6720	6720	6853	6720	6720	6853	6720	6720	6720	6720	6720	6720	6720	6720	6853	6720	6853	6853	6853	6720	6720	6720	6720	6720	6720	6720	6720	6720	6720	6720	6720	6720	6720	6720	6720	6720	6720	6720	6720	6720	6720	6592	6592	6720	0	0	0	0	0	0	0	0	0	0	0	0	0	0	0	0	0	0	0	0	0	0	0	0	0	0	0	0	0	0	0	0	0	0	0	0	0	0	0	0	0	0	0	0	0	0	0	0	0	6853	6992	6853	6853	6853	6853	6853	6853	6720	6720	6853	6720	6853	6853	6853	6853	6853	6992	6992	6992	6992	6992	6992	6992	6992	6992	6992	6992	7137	7137	7137	6992	7137	7137	6992	6992	6992	6992	7137	7137	7287	7287	7287	7444	7444	7444	0	0	0	0	0	0	0	0	0	0	0	0	0	0	0	0	0	0	0	0	0	0	0	0	1419	1419	1419	1413	1413	1413	1402	1321	1321	1316	1321	1316	1311	1306	1306	1296	1296	1301	1296	1291	1287	1282	1272	1263	1259	1254	1245	1240	1227	1210	1206	1197	1197	1197	1193	1193	1193	1193	1197	1193	1193	1193	1193	1193	0	0	0	0	0	0	0	0	0	0	0	0	0	0	0	0	0	0	0	0	0	0	0	0	0	0	0	0	0	0	0	0	0	0	0	0	0	0	0	0	0	0	0
0	0	0	0	0	1003	1003	1003	1003	1003	1003	1003	1003	1003	1000	1000	1003	1003	1006	1006	1008	1011	1014	1014	1014	1020	1026	1030	1030	1036	1039	1042	1042	1045	1045	1064	1071	1078	1085	1085	1088	1091	1095	1102	1105	1109	1109	1113	1116	1116	1116	0	0	0	0	0	0	0	0	0	0	0	0	0	0	0	0	0	0	0	1358	1358	1363	1374	1374	1374	1374	1374	1374	1374	1374	1368	1374	1374	1374	1368	1368	1374	1374	1374	1374	1368	1368	1358	1358	1425	1425	1425	0	0	0	0	0	0	0	0	0	6853	6853	6992	6992	6992	6992	6992	6992	6992	6992	6992	6992	6992	6992	6992	6992	6992	6992	7137	6992	6992	6992	6992	6992	6992	6992	6853	6853	0	0	0	0	6853	6853	6853	6853	6853	6853	6853	6853	6853	6853	6853	6853	6853	6992	6992	6992	7137	7287	7287	7287	7137	7287	7137	7137	7137	6992	6992	0	0	0	0	0	0	0	0	0	0	6992	6992	6853	6720	6592	6468	6468	6468	0	0	0	0	0	0	0	0	0	0	0	0	0	0	0	0	7137	7137	6992	6992	6992	6992	7137	7137	6992	6992	6992	6992	6992	6992	6992	6992	6992	6992	6992	6992	6992	6992	6853	6992	6992	6992	6992	6992	6992	6992	6992	6853	6853	6853	6853	6853	6853	6992	6992	6992	6992	6992	6992	6853	6853	6853	6853	6853	6853	6992	6853	6853	6720	6720	6720	6853	6853	6853	6853	6853	6853	0	0	0	3546	3510	3510	3475	3475	3475	3475	3475	3475	3475	3440	3440	3440	3440	3440	3440	3440	3440	3440	3440	3440	3440	3440	3440	3440	3440	3440	3440	3440	3440	3440	3440	3475	3475	3475	3510	3510	3510	3546	3546	3510	3510	3510	3510	6992	6992	6992	6992	6853	6992	6853	6992	6992	7137	6992	6992	6992	6992	6992	6992	7137	7137	7287	7287	0	7137	7137	7137	7137	7137	7137	7137	6992	6992	6992	6992	6992	6992	6992	6853	6992	6992	6992	6992	6992	6992	6992	6992	6992	6992	6992	6992	6853	6853	6992	6853	6853	6992	6853	6992	6992	6853	6853	6853	6853	6720	6720	6720	6720	6720	6720	6720	6720	6853	6853	6853	6853	6992	6992	6853	6853	6853	6853	6720	6720	6853	6720	6853	6853	6853	6853	6853	6853	6853	6853	6720	6720	6720	6720	6720	6853	6720	6853	6853	6853	6853	6853	6720	6720	6720	6720	6720	6720	6720	6720	6720	6720	6720	6720	6720	6720	6720	6720	6720	6720	6720	6720	6720	6592	0	0	0	0	0	0	0	0	0	0	0	0	0	0	0	0	0	0	0	0	0	0	0	0	0	0	0	0	0	0	0	0	0	0	0	0	0	0	0	0	0	0	0	0	0	0	0	0	0	0	6992	6992	6853	6853	6853	6853	6853	6853	6853	6720	6720	6720	6853	6853	6853	6992	6853	6853	6853	6853	7137	7137	7137	7137	7137	6992	6992	6992	6992	7137	7137	6992	6992	7137	6992	6992	6992	6992	7137	7287	7287	7287	7287	0	0	0	0	0	0	0	0	0	0	0	0	0	0	0	0	0	0	0	0	0	0	0	0	0	0	0	1419	1419	1419	1413	1413	1413	1326	1321	1321	1316	1321	1316	1311	1306	1306	1301	1296	1301	1296	1291	1287	1287	1277	1268	1263	1254	1249	1245	1232	1210	1202	1197	1197	1197	1193	1193	1193	1189	1193	1193	1189	1193	1193	1193	0	0	0	0	0	0	0	0	0	0	0	0	0	0	0	0	0	0	0	0	0	0	0	0	0	0	0	0	0	0	0	0	0	0	0	0	0	0	0	0	0	0	0
0	0	0	0	0	1003	1003	1006	1003	1006	1006	1006	1006	1006	1006	1006	1008	1008	1008	1008	1011	1017	1017	1017	1017	1020	1023	1030	1030	1039	1042	1042	1042	1048	1048	1061	1068	1071	1081	1081	1085	1091	1095	1102	1105	1109	1109	1113	1113	1113	1113	0	0	0	0	0	0	0	0	0	0	0	0	0	0	0	0	0	0	0	0	0	1363	1374	1379	1379	1379	1379	1379	1379	1379	1374	1374	1379	1379	1379	1379	1385	1385	1385	1385	1385	1385	1390	1390	1425	1425	1455	1449	1449	0	0	0	0	0	0	0	6853	6853	6992	6992	6992	6992	7137	6992	6992	6992	6992	6992	6853	6992	6992	6992	6992	6992	7137	7137	6992	6992	6992	6992	6992	6992	6992	6992	6992	6992	6992	6992	6992	6853	6853	6992	6992	6992	6992	6853	6853	6853	6992	6992	6992	6992	6992	6992	7137	7137	7287	7137	7287	7287	7137	7287	7137	6992	6992	0	0	0	0	0	0	0	0	0	0	6992	6992	6992	6853	6853	6592	6592	6592	0	0	0	0	7287	7444	7444	7444	7444	7444	7444	0	0	0	0	0	7137	7137	7137	6992	6992	7137	7137	7137	6992	6992	6992	6992	6992	6992	6992	6992	6992	6992	6992	6992	6992	6992	6992	6992	6992	6992	6992	6992	6992	6992	6992	6992	6853	6853	6853	6853	6992	6992	6992	6992	6992	6992	6992	6992	6992	6992	6992	6992	6992	6992	6992	6992	6992	6853	6853	3546	3583	3583	3583	3583	3583	3546	3546	3546	3510	3510	3475	3475	3475	3475	3475	3475	3475	3440	3440	3440	3440	3440	3440	3440	3440	3440	3440	3440	3440	3440	3440	3440	3440	3440	3440	3440	3440	3440	3440	3440	3475	3475	3475	3475	3510	3510	3510	3510	3510	3510	3510	3510	3510	6992	6853	6853	6853	6992	6853	6992	6992	7137	7137	7137	7137	7287	7287	7287	0	0	0	0	0	0	7137	7287	7287	7287	7287	7287	7137	7137	7137	6992	6992	6992	6992	6992	6992	6992	6992	6992	6992	6992	6992	6853	6992	6992	6853	6853	6853	6992	6992	6853	6992	6992	6992	6992	6992	6992	6853	6992	6853	6853	6720	6720	6720	6853	6853	6853	6853	6853	6853	6853	6853	6992	6992	6992	6992	6992	6992	6853	6853	6853	6853	6853	6992	6853	6853	6853	6853	6853	6853	6853	6853	6853	6853	6853	6853	6853	6853	6853	6853	6853	6853	6853	6720	6853	6720	6720	6720	6720	6720	6720	6720	6720	6720	6720	6720	6720	6720	6853	6720	6720	6720	6720	0	0	0	0	0	0	0	0	0	0	0	0	0	0	0	0	0	0	0	0	0	0	0	0	0	0	0	0	0	0	0	0	0	0	0	0	0	0	0	0	0	0	0	0	0	0	0	0	0	0	0	6992	6992	6992	6992	6853	6853	6992	6853	6853	6853	6720	6720	6720	6853	6853	6853	6853	6853	7137	7137	7137	7137	7137	7137	7137	6992	7137	6992	7137	7137	7137	6992	7137	7137	7137	7137	6992	6992	7137	7287	7287	7287	0	0	0	0	0	0	0	0	0	0	0	0	0	0	0	0	0	0	0	0	0	0	0	0	0	0	0	0	1419	1419	1419	1413	1413	1413	1326	1326	1326	1321	1321	1316	1316	1311	1306	1301	1296	1301	1296	1296	1291	1291	1277	1268	1263	1259	1245	1236	1223	1210	1202	1197	1197	1197	1193	1193	1193	1189	1193	1193	1189	1193	1193	1193	0	0	0	0	0	0	0	0	0	0	0	0	0	0	0	0	0	0	0	0	0	0	0	0	0	0	0	0	0	0	0	0	0	0	0	0	0	0	0	0	0	0	0
0	0	0	0	0	1003	1006	1006	1006	1006	1008	1008	1008	1008	1008	1011	1014	1011	1011	1011	1017	1017	1017	1017	1017	1020	1026	1030	1033	1042	1042	1045	1042	1042	1048	1061	1068	1071	1081	1081	1085	1091	1095	1098	1102	1105	1105	1109	1113	1113	1113	0	0	0	0	0	0	0	0	0	0	0	0	0	0	0	0	0	0	0	0	0	0	1379	1379	1385	1379	1385	1385	1385	1385	1385	1385	1385	1390	1390	1396	1396	1396	1390	1390	1390	1396	1402	1413	1425	1443	1449	1449	1443	1443	0	0	0	0	0	0	6853	6992	6992	7137	7137	7137	7137	7137	7137	6992	6992	6992	6992	6992	6992	7137	7137	7137	7137	7137	6992	6992	6992	6992	6992	6992	6992	6992	6992	6992	6992	6992	6992	6992	6992	6992	6992	6992	6992	6992	6992	6992	6992	6992	6992	6992	6992	6992	7137	7137	7137	7137	7287	7287	7137	7137	7137	7137	7137	0	0	0	0	0	0	0	0	7137	7287	7287	7137	7137	6853	6853	6720	6592	6592	0	0	0	0	7287	7287	7444	7444	7444	7444	7444	7444	7444	7444	0	7137	7137	7137	7137	7137	7137	7137	7137	7137	7137	7137	6992	6992	6992	6992	6992	6992	7137	6992	6992	6992	6992	6992	6992	6992	6992	6992	6992	6992	6992	6992	6992	6992	6853	6992	6992	6853	6992	6992	6992	6992	6992	6992	6992	6992	6992	6992	6992	6992	6992	6992	6992	6992	6992	6992	6992	3510	3510	3510	3510	3510	3546	3510	3510	3510	3475	3475	3475	3475	3440	3475	3475	3475	3440	3440	3440	3440	3440	3440	3440	3440	3440	3440	3440	3440	3440	3440	3440	3440	3440	3440	3440	3440	3440	3440	3440	3475	3475	3475	3475	3475	3510	3510	3510	3510	3510	3510	3546	3546	3546	3546	6853	6853	6853	6992	6992	7137	7137	7137	7137	7137	7287	7287	7287	7287	7287	0	0	0	0	0	0	7287	7287	7287	7287	7287	7137	7137	7137	6992	7137	7137	6992	6992	6992	6853	6992	6992	6992	6992	6992	6992	6992	6992	6992	6992	6992	6992	6992	6992	6992	6992	6992	7137	6992	6992	6992	6992	6853	6853	6853	6853	6853	6853	6853	6992	6992	6992	6992	6992	6992	6992	7137	6992	7137	7137	7137	6992	6992	6992	6992	6992	6992	6992	6992	6992	6853	6853	6853	6992	6992	6853	6992	6992	6992	6992	6992	6992	6992	6992	6992	6853	6853	6853	6853	6720	6720	6720	6720	6853	6853	6853	6853	6853	6853	6853	6853	6853	6853	6853	6720	6720	0	0	0	0	0	0	0	0	0	0	0	0	0	0	0	0	0	0	0	0	0	0	0	0	0	0	0	0	0	0	0	0	0	0	0	0	0	0	0	0	0	0	0	0	0	0	0	0	0	0	6992	6992	6992	6992	6992	6992	6992	7137	6992	6992	6853	6853	6853	6853	6853	6853	6853	6853	6853	7287	7287	7287	7137	7287	7137	7137	7137	7137	7137	7137	7137	7137	7137	7137	7287	7287	7137	7137	7137	7287	7287	7287	7287	0	0	0	0	0	0	0	0	0	0	0	0	0	0	0	0	0	0	0	0	0	0	0	0	0	0	0	0	1419	1419	1413	1413	1413	1413	1326	1326	1326	1321	1321	1316	1316	1311	1301	1301	1296	1301	1296	1296	1296	1291	1282	1282	1263	1245	1240	1236	1219	1210	1202	1197	1197	1193	1193	1193	1193	1189	1189	1189	1189	1193	1193	1193	0	0	0	0	0	0	0	0	0	0	0	0	0	0	0	0	0	0	0	0	0	0	0	0	0	0	0	0	0	0	0	0	0	0	0	0	0	0	0	0	0	0	0
0	0	0	0	0	0	1006	1006	1006	1006	1008	1011	1011	1011	1014	1014	1020	1017	1017	1017	1020	1020	1020	1023	1020	1020	1030	1033	1039	1045	1045	1045	1045	1048	1055	1061	1068	1071	1078	1081	1088	1091	1095	1098	1102	1102	1105	1105	1113	1109	1109	0	0	0	0	0	0	0	0	0	0	0	0	0	0	0	0	0	0	0	0	0	0	1379	1385	1390	1385	1390	1390	1390	1390	1390	1390	1390	1390	1390	1396	1396	1396	1396	1396	1396	1407	1407	1419	1425	1437	1443	1449	1443	1443	1443	0	0	0	0	0	0	6992	7137	7137	7137	7137	7137	7137	7137	6992	6992	6992	6992	6992	6992	7137	7137	7137	7137	7137	7137	7137	7137	6992	7137	7137	7137	7137	6992	6992	6992	6992	6992	6992	6992	6992	7137	6992	6992	6992	6992	6992	6992	6992	6992	6992	6992	6992	7137	7137	7137	7137	7137	7137	7137	7137	7137	7137	6992	7137	7137	0	0	0	0	0	0	7287	7287	7287	7287	7137	7137	6992	6720	6592	6592	6853	6853	0	0	7608	7444	7608	7444	7444	7444	7444	7444	7608	7608	0	7287	7137	7287	7137	7137	7137	7137	7137	7137	7137	7137	7137	6992	6992	6992	6992	6992	7137	7137	6992	6992	6992	6992	6992	6992	6992	6992	6992	6992	6992	6992	6992	6992	6992	6992	6992	6992	6992	6992	6992	6992	6992	6992	7137	7137	6992	6992	7137	7137	7137	6992	6992	6992	3406	3406	3406	3510	3510	3510	3510	3510	3510	3510	3510	3475	3475	3475	3475	3475	3440	3440	3440	3440	3440	3440	3440	3440	3440	3440	3440	3440	3440	3440	3440	3440	3440	3440	3406	3440	3440	3440	3440	3440	3440	3440	3440	3475	3475	3475	3475	3475	3475	3475	3510	3510	3510	3510	3510	3510	3510	3546	3510	3475	3475	7137	6992	6992	7137	7137	7137	7137	7287	7287	7287	7287	7287	7287	0	0	0	0	0	7287	7287	7287	7287	7287	7137	7137	7137	0	7137	7137	6992	6992	7137	6992	6992	6992	6992	6992	6992	6853	6992	6992	6992	6992	6992	6992	6992	6992	6992	7137	6992	6992	7137	6992	6992	6992	6992	6992	6992	6992	6992	6992	6992	7137	6992	6992	6992	6992	7137	7137	7137	7137	7137	7137	7137	7137	7137	7137	7137	6992	6992	6992	6992	6992	6992	6992	6992	6992	6992	6992	6992	6992	6992	6992	6992	6992	6992	6992	6992	6992	6992	6992	6992	6853	6853	6853	6720	6853	6853	6853	6853	6853	6853	6853	6853	6853	6853	6853	6853	6853	6853	0	0	0	0	0	0	0	0	0	0	0	0	0	0	0	0	0	0	0	0	0	0	0	0	0	0	0	0	0	0	0	0	0	0	0	0	0	0	0	0	0	0	0	0	0	0	0	0	0	7137	6992	7137	7137	7137	6992	7137	7137	6992	7137	7137	7137	6992	6992	6853	6853	6853	6853	6853	7287	7287	7287	7287	7287	7287	7287	7287	7137	7137	7287	7287	7287	7287	7287	7287	7287	7287	7287	7137	7287	7287	7287	7287	0	0	0	0	0	0	0	0	0	0	0	0	0	0	0	0	0	0	0	0	0	0	0	0	0	0	0	1419	1419	1419	1413	1413	1413	1413	1326	1326	1326	1326	1321	1316	1316	1311	1306	1301	1296	1301	1301	1296	1296	1296	1296	1245	1245	1240	1240	1236	1223	1210	1202	1197	1197	1193	1193	1193	1193	1193	1189	1189	1189	1193	1193	1193	0	0	0	0	0	0	0	0	0	0	0	0	0	0	0	0	0	0	0	0	0	0	0	0	0	0	0	0	0	0	0	0	0	0	0	0	0	0	0	0	0	0	0
0	0	0	0	0	0	0	0	1006	1011	1017	1017	1017	1020	1026	1023	1026	1026	1023	1020	1026	1023	1023	1023	1020	1023	1030	1033	1042	1045	1048	1048	1045	1048	1058	1061	1064	1068	1074	1078	1088	1091	1095	1095	1098	1098	1102	1105	1105	1105	1109	0	0	0	0	0	0	0	0	0	0	0	0	0	0	0	0	0	0	0	0	0	0	0	1385	1396	1396	1396	1396	1396	1396	1396	1396	1396	1396	1396	1402	1402	1402	1402	1402	1402	1407	1407	1419	1425	1431	1443	1443	1449	1449	1449	1449	1449	0	0	0	0	0	7137	7137	7137	6992	7137	7137	7137	7137	6992	6992	6992	6992	6992	7137	7137	7137	7137	7137	7137	7137	7137	6992	7137	7137	7137	7137	6992	6992	6992	6992	6992	6992	6992	6992	6992	6992	6992	6992	6992	6992	6992	7137	7137	7137	7137	7137	7137	7137	7287	7287	7287	7287	7287	7137	7137	7137	6992	6992	6992	0	0	0	0	0	7137	7137	7137	7287	7287	7287	7137	7137	6992	6853	6853	6853	7137	7608	7608	7608	7608	7608	7444	7444	7444	7444	7444	7444	7444	7287	7287	7137	7287	7287	7137	7137	7287	7137	7137	7137	7137	7137	7137	6992	6992	6992	6992	6992	6992	6992	6992	6992	6992	6992	6992	6992	6992	6992	6992	6992	6992	6992	6992	6992	6992	6992	6992	6992	6992	6992	6992	6992	6992	7137	7137	6992	6992	6992	7137	3510	3510	3510	3440	3440	3406	3475	3475	3510	3510	3510	3475	3510	3475	3475	3475	3475	3475	3475	3475	3475	3440	3440	3440	3440	3440	3440	3440	3440	3406	3406	3406	3406	3406	3440	3406	3406	3406	3406	3406	3406	3440	3440	3440	3440	3440	3440	3440	3475	3475	3475	3475	3475	3475	3475	3510	3510	3510	3510	3510	3510	3510	3475	3475	3475	3475	3475	6992	7287	7287	7287	7287	7287	7287	7287	7287	7287	7287	7287	7287	0	0	7444	7444	7287	7287	7287	7287	7137	7137	7287	7137	7137	7137	7137	7137	7137	6992	7137	7137	6992	6992	6992	6992	6992	6992	6992	6992	6992	6992	7137	6992	6992	6992	6992	7137	7137	7137	7137	7137	6992	7137	7137	6992	6992	7137	7137	7137	7137	6992	6992	6992	7137	7137	7137	7137	7137	7137	7137	7137	7137	7137	7137	7137	7137	6992	6992	6992	6992	6992	6992	7137	7137	7137	6992	7137	6992	6992	6992	6992	6992	6992	7137	7137	6992	6992	6992	6853	6853	6853	6853	6853	6853	6853	6992	6853	6853	6992	6992	6853	6853	6853	6853	6853	6720	6720	0	0	0	0	0	0	0	0	0	0	0	0	0	0	0	0	0	0	0	0	0	0	0	0	7444	7444	7444	0	0	0	0	0	0	0	0	0	0	0	0	0	0	0	0	0	0	0	0	7287	7287	7287	7137	7137	7137	7137	7137	7287	7137	7287	7137	7137	6992	6992	6853	6992	6992	6992	6992	7287	7287	7287	7287	7287	7287	7287	7287	7287	7287	7287	7287	7287	7287	7287	7444	7444	7287	7287	7287	7444	7444	7444	7444	0	0	0	7444	7444	7287	7444	7444	7444	0	0	0	0	0	0	0	0	0	0	0	0	0	0	0	0	0	0	1419	1419	1419	1419	1413	1413	1413	1331	1326	1326	1321	1321	1316	1316	1311	1306	1301	1301	1301	1301	1296	1296	1291	1291	1254	1254	1240	1240	1210	1197	1197	1197	1197	1193	1193	1193	1193	1193	1193	1193	1189	1189	1193	1193	1193	0	0	0	0	0	0	0	0	0	0	0	0	0	0	0	0	0	0	0	0	0	0	0	0	0	0	0	0	0	0	0	0	0	0	0	0	0	0	0	0	0	0	0
0	0	0	0	0	0	0	0	0	1014	1017	1023	1020	1026	1033	1030	1033	1030	1030	1026	1030	1026	1026	1026	1023	1023	1030	1033	1042	1045	1045	1048	1048	1052	1055	1058	1064	1064	1071	1078	1085	1085	1095	1098	1102	1102	1102	1105	1109	1109	0	0	0	0	0	0	0	0	0	0	0	0	0	0	0	0	0	0	0	0	0	0	0	0	0	1396	1396	1396	1402	1396	1396	1402	1407	1402	1402	1402	1407	1407	1407	1407	1407	1407	1407	1413	1419	1431	1431	1437	1437	1443	1443	1443	1443	1437	1437	0	0	0	0	0	0	7137	7137	7137	7137	6992	7137	6992	6992	6992	6992	6992	7137	7287	7287	7287	7287	7137	7137	7137	7137	7137	7287	7287	7137	6992	6992	6992	7137	6992	6992	6992	6992	6992	6992	6992	6992	6992	6992	7137	7137	7137	7137	7137	7287	7137	7137	7137	7137	7137	7287	7137	6992	6992	6992	6992	6992	6853	6992	6992	6992	7137	7137	7137	7137	7287	7287	7287	7287	7137	7137	6992	6992	6992	7137	7137	7608	7608	7608	7608	7608	7444	7444	7444	7444	7287	7444	7287	7287	7287	7287	7444	7287	7287	7137	7287	7287	7287	7137	7137	7137	7137	7137	6992	6992	6992	7137	6992	7137	6992	6992	6992	6992	6992	6992	7137	7137	7137	7137	6992	6992	6992	6992	6992	6992	6992	6992	7137	7137	6992	7137	7137	6992	7137	6992	6992	3621	3621	3475	3510	3510	3475	3440	3475	3475	3475	3475	3475	3475	3475	3475	3475	3475	3475	3475	3475	3475	3475	3475	3440	3440	3440	3440	3440	3440	3440	3440	3406	3406	3406	3406	3406	3406	3406	3406	3406	3406	3406	3406	3406	3440	3440	3440	3440	3440	3475	3475	3475	3475	3475	3475	3475	3475	3475	3475	3475	3475	3475	3475	3475	3475	3475	3475	3475	3475	0	7287	7287	7287	7287	7287	7287	7287	7287	7287	7137	7287	7444	7444	7444	7444	7444	7444	7444	7444	7287	7287	7287	7287	7137	7137	7137	7137	7137	7137	7137	7137	7137	6992	7137	6992	6992	7137	7137	7137	7137	7137	6992	6992	6992	7137	7137	7137	7137	7287	7137	7137	7137	6992	7137	7137	6992	7137	7137	7137	7137	7137	6992	6992	7137	7137	7137	7137	7137	7137	7137	7137	7137	7137	7137	7137	7137	7137	6992	6992	6992	7137	7137	7137	7137	7137	7137	7137	7137	7137	7137	7137	6992	7137	7137	7137	7137	6992	6992	6992	6853	6853	6853	6853	6853	6853	6992	6992	6992	6992	6992	7137	6992	6992	6853	6853	6853	6720	6720	0	0	0	0	0	0	0	0	0	0	0	0	0	0	0	0	0	6992	6992	6992	6992	6992	6992	7137	7287	7287	7287	0	0	0	0	0	0	0	0	0	0	0	0	0	0	0	0	0	0	0	7287	7444	7287	7287	7137	7287	7287	7287	7287	7287	7137	7287	7287	7287	7137	7137	6992	6992	7137	6992	7137	7287	7287	7287	7287	7287	7287	7287	7287	7287	7287	7287	7287	7287	7287	7444	7444	7444	7444	7287	7444	7444	7444	7444	7287	7444	7444	7444	7444	7444	7287	7287	7444	7287	7137	6992	6992	0	0	0	0	0	0	0	0	0	0	0	0	0	0	0	1419	1419	1419	1419	1419	1413	1413	1326	1326	1326	1321	1321	1316	1316	1311	1306	1301	1296	1301	1301	1296	1291	1291	1277	1277	1254	1245	1245	1210	1210	1197	1197	1197	1193	1193	1193	1193	1193	1193	1189	1189	1189	1193	1193	1193	0	0	0	0	0	0	0	0	0	0	0	0	0	0	0	0	0	0	0	0	0	0	0	0	0	0	0	0	0	0	0	0	0	0	0	0	0	0	0	0	0	0	0
0	0	0	0	0	0	0	0	0	1014	1020	1026	1026	1026	1036	1036	1036	1036	1033	1033	1033	1030	1030	1030	1026	1030	1036	1042	1042	1045	1048	1048	1048	1055	1058	1061	1064	1068	1071	1074	1081	1095	1095	1098	1102	1102	1102	1105	1105	1105	1105	0	0	0	0	0	0	0	0	0	0	0	0	0	0	0	0	0	0	0	0	0	0	0	0	0	0	0	1402	1396	1402	1402	1407	1407	1407	1407	1413	1407	1413	1407	1407	1413	1413	1419	1419	1425	1431	1437	1437	1443	1443	1449	1449	1437	1443	1443	0	0	0	0	0	0	7137	7137	7137	7137	7137	7137	7137	7137	7137	7137	7287	7287	7287	7287	7137	7287	7137	7137	7137	7287	7444	7444	7287	7287	7137	7137	7137	6992	6992	6992	6992	6992	6992	6992	6992	6992	6992	7137	7137	7137	7137	7137	7137	7137	7137	7137	7137	7137	7137	6992	6992	6992	6992	6992	6992	6853	6853	6992	6992	7137	7137	7137	7137	7137	7287	7287	7287	7137	7137	7137	7137	7137	7287	7444	7444	7444	7608	7444	7444	7444	7444	7444	7287	7444	7444	7444	7287	7287	7137	7444	7444	7287	7137	7287	7287	7137	7137	7137	7137	7137	7137	7137	7137	7137	7137	7137	7137	7137	7137	7137	7137	7137	7137	7137	7137	7137	7137	7137	7137	7137	6992	6992	7137	7137	7137	7137	7137	7137	7137	7137	7137	6992	6992	6992	3621	3621	3475	3475	3440	3440	3440	3440	3475	3475	3475	3475	3475	3475	3475	3475	3475	3440	3440	3440	3475	3440	3440	3440	3440	3440	3440	3440	3440	3406	3406	3406	3406	3406	3406	3406	3406	3406	3406	3406	3406	3406	3406	3406	3406	3406	3406	3440	3440	3440	3440	3440	3440	3440	3440	3440	3440	3475	3475	3475	3475	3475	3475	3475	3475	3475	3510	3510	3510	0	7137	7287	7287	7444	7287	7287	7287	7287	7287	7287	7287	7287	7608	7608	7608	7444	7444	7444	7444	7287	7287	7287	7287	7287	7287	7287	7287	7137	7137	7137	7137	7137	6992	7137	6992	6992	6992	6992	6992	7137	7137	7137	7137	7137	7137	7137	7137	7287	7287	7287	7137	7137	7137	7137	7137	7137	7137	7137	7137	7137	7137	7137	7137	7137	7137	7137	7137	7137	7137	7137	7137	7137	7137	7137	7137	7137	7137	7137	7137	7137	7137	7137	7137	7137	7137	7137	7137	7137	7137	7137	7137	6992	7137	7137	7137	7137	7137	6992	6992	6992	6992	6992	6853	6853	6992	6992	7137	7137	7137	7137	7137	7137	7137	6992	6992	6992	6853	6853	0	0	0	0	0	0	0	0	7287	7287	7287	0	0	0	0	0	6992	6992	6992	6992	7137	6992	7137	7137	7287	7287	7137	7287	7287	7287	7287	0	0	0	0	0	0	0	0	0	0	0	0	0	0	7287	7287	7287	7287	7287	7287	7137	7287	7287	7287	7287	7287	7287	7287	7287	7137	7137	7137	6992	6992	6992	6992	7137	7287	7287	7287	7287	7287	7287	7287	7287	7287	7287	7444	7287	7444	7444	7608	7444	7444	7444	7444	7444	7444	7444	7444	7444	7444	7444	7444	7287	7287	7444	7444	7287	7287	7137	7137	0	0	0	0	0	0	0	0	0	0	0	0	0	0	0	1419	1419	1419	1419	1419	1419	1419	1321	1321	1321	1321	1316	1316	1316	1311	1306	1301	1296	1301	1301	1296	1291	1291	1277	1259	1254	1245	1245	1245	1197	1197	1197	1197	1193	1193	1193	1193	1193	1193	1189	1189	1189	1189	1193	1193	0	0	0	0	0	0	0	0	0	0	0	0	0	0	0	0	0	0	0	0	0	0	0	0	0	0	0	0	0	0	0	0	0	0	0	0	0	0	0	0	0	0	0
0	0	0	0	0	974	974	974	977	977	972	972	972	1033	1039	1033	1039	1039	1039	1039	1042	1033	1042	1042	1042	1039	1042	1042	1045	1048	1048	1052	1052	1058	1058	1061	1064	1064	1068	1071	1074	1095	1095	1098	1102	1105	1105	1105	1105	1105	1105	0	0	0	0	0	0	0	0	0	0	0	0	0	0	0	0	0	0	0	0	0	0	0	0	0	0	0	1402	1402	1402	1402	1407	1407	1407	1407	1413	1413	1425	1413	1425	1431	1425	1425	1425	1431	1431	1437	1437	1443	1449	1449	1449	1449	1461	1461	0	0	0	0	0	0	0	7137	7137	6992	6992	6992	6992	7137	7137	7137	7287	7444	7444	7444	7287	7287	7287	7287	7137	7287	7444	7444	7444	7287	7287	7287	7287	7137	6992	6992	6992	7137	7137	6992	6992	6992	6992	7137	7137	7137	7137	7137	7137	7287	7137	7137	7137	7137	7137	7137	6992	6992	6992	6992	6992	6992	6992	6992	6992	7137	7137	7137	6992	7137	7137	7137	7137	7137	7137	7137	7137	7137	7287	7444	7444	7444	7444	7444	7444	7444	7444	7444	7287	7287	7444	7444	7444	7287	7444	7444	7444	7444	7287	7444	7287	7287	7287	7287	7137	7137	7137	7137	7137	7137	7137	7137	7137	7137	7137	7287	7287	7287	7287	7287	7137	7137	7137	7137	7137	7137	6992	6992	7137	7137	7137	7137	7137	7137	7137	7137	7137	7137	7137	0	3621	3583	3475	3475	3475	3475	3475	3475	3475	3475	3475	3475	3440	3440	3440	3440	3440	3440	3440	3440	3440	3440	3440	3440	3440	3440	3440	3406	3406	3406	3406	3406	3406	3406	3406	3406	3406	3406	3406	3406	3406	3406	3406	3406	3406	3406	3406	3440	3440	3440	3440	3440	3440	3440	3440	3440	3440	3440	3440	3440	3475	3475	3475	3475	3475	3475	3475	3510	3510	0	7137	7287	7287	7444	7287	7287	7287	7287	7287	7287	7287	7608	7608	7608	7444	7444	7444	7287	7287	7287	7287	7287	7287	7287	7287	7287	7287	7287	7287	7137	7137	7137	6992	6992	6992	7137	7137	7137	7137	7137	7287	7137	7137	7287	7287	7137	7287	7287	7287	7287	7287	7137	7137	7137	7287	7287	7137	7287	7287	7287	7287	7287	7137	7287	7287	7137	7137	7137	7287	7287	7137	7137	7137	7137	7137	7137	7137	7137	7137	7137	7137	7137	7287	7287	7137	7137	7137	7137	7137	7137	7137	7137	7137	7137	7137	7137	7137	6992	6992	6992	6992	6992	6992	6853	6992	7137	7137	7137	7137	7287	7287	7137	7137	7137	6992	6992	6853	6853	6853	0	0	0	0	0	0	7287	7287	7287	7287	7287	7287	7137	7137	6992	6992	6992	6992	7137	7137	7137	7137	7137	7287	7287	7137	7287	7287	7287	7287	7287	7287	7287	7287	0	0	0	0	0	0	0	0	7444	7287	7287	7287	7287	7287	7287	7287	7137	7287	7287	7287	7287	7287	7287	7287	7287	7287	7137	7137	6992	6992	6992	7137	7287	7287	7287	7287	7287	7287	7287	7287	7287	7287	7287	7444	7287	7444	7444	7444	7608	7444	7444	7444	7444	7444	7444	7444	7444	7444	7444	7444	7287	7287	7287	7444	7287	7287	7287	7137	7287	7287	0	0	0	0	0	0	0	0	0	0	0	0	0	1419	1419	1419	1419	1413	1419	1419	1419	1331	1326	1321	1316	1316	1316	1311	1306	1301	1301	1301	1301	1296	1296	1296	1282	1263	1254	1245	1245	1240	1202	1197	1197	1197	1193	1193	1193	1189	1193	1189	1189	1189	1189	1189	1193	1193	0	0	0	0	0	0	0	0	0	0	0	0	0	0	0	0	0	0	0	0	0	0	0	0	0	0	0	0	0	0	0	0	0	0	0	0	0	0	0	0	0	0	0
0	0	0	0	0	972	974	974	974	974	972	972	972	1045	1045	1042	1042	1042	1045	1039	1039	1042	1042	1042	1042	1039	1042	1045	1048	1048	1055	1055	1055	1058	1058	1061	1064	1064	1064	1068	1071	1091	1095	1098	1102	1102	1102	1105	1105	1105	0	0	0	0	0	0	0	0	0	0	0	0	0	0	0	0	0	0	0	0	0	0	0	0	0	0	0	0	0	1407	1407	1407	1425	1425	1425	1425	1431	1431	1431	1437	1437	1443	1431	1431	1437	1437	1443	1437	1437	1443	1449	1449	1455	1455	1467	1467	1467	0	0	0	0	0	0	7137	7137	6992	6992	6992	6992	7137	7137	7137	7444	7444	7444	7444	7444	7444	7287	7287	7287	7287	7444	7444	7444	7444	7287	7287	7287	7137	6992	7137	7137	7137	7137	7137	7137	7137	6992	7137	7137	7137	7137	7137	7287	7444	7287	7137	7137	7137	7137	7137	6992	6992	6992	6992	6992	6992	6992	7137	7137	7137	7137	7137	6992	7137	7137	7137	7137	7137	7137	7137	7137	7137	7137	7444	7444	7444	7444	7444	7444	7444	7444	7444	7287	7287	7444	7444	7444	7444	7444	7444	7444	7444	7444	7444	7287	7444	7287	7287	7137	7137	7137	7137	7137	7137	7137	7137	7287	7287	7287	7287	7287	7287	7287	7287	7287	7137	7137	7137	7137	7137	7137	7137	7137	7137	7137	7137	7137	7137	7137	7137	7137	7137	7137	0	3621	3583	3475	3475	3475	3475	3475	3475	3440	3475	3440	3440	3440	3440	3440	3440	3440	3440	3440	3440	3440	3440	3440	3440	3440	3406	3406	3406	3406	3406	3406	3406	3406	3406	3406	3406	3406	3406	3406	3406	3406	3406	3406	3406	3406	3406	3406	3406	3406	3406	3406	3406	3406	3440	3440	3440	3440	3440	3440	3440	3475	3475	3475	3475	3475	3475	3475	3475	3475	0	7137	7287	7287	7444	7287	7287	7287	7287	7287	7287	7287	7444	7444	7444	7444	7444	7444	7287	7287	7287	7287	7287	7287	7287	7287	7287	7287	7287	7287	7287	7287	7137	7137	7137	7137	7137	7137	7137	7287	7287	7287	7287	7287	7287	7287	7287	7137	7287	7287	7287	7287	7137	7137	7287	7287	7287	7287	7444	7444	7287	7287	7287	7287	7287	7287	7287	7287	7287	7287	7287	7287	7287	7287	7287	7137	7137	7137	7137	7137	7137	7137	7137	7287	7287	7137	7137	7137	7137	7137	7137	7137	6992	7137	7137	7137	7137	7137	7137	7137	7137	7137	7137	6992	6992	6992	7137	7137	7287	7287	7287	7287	7287	7137	7137	7137	6992	6992	6853	6853	6853	0	0	0	0	7287	7287	7287	7287	7287	7287	7287	7287	7287	7137	7137	7137	7137	7137	7287	7287	7287	7287	7287	7287	7287	7287	7287	7287	7287	7287	7287	7287	7287	0	0	0	0	0	0	7444	7444	7444	7287	7287	7137	7287	7287	7287	7287	7137	7287	7287	7287	7287	7287	7287	7287	7287	7287	7287	7287	7137	7287	7137	7287	7287	7444	7444	7444	7444	7444	7287	7287	7287	7287	7287	7444	7287	7287	7444	7444	7608	7444	7444	7444	7444	7444	7444	7444	7444	7444	7444	7444	7444	7287	7444	7444	7287	7287	7287	7137	7137	7287	7287	0	0	0	0	0	0	0	0	0	0	0	0	0	1419	1419	1413	1413	1413	1413	1374	1342	1331	1326	1321	1316	1311	1311	1306	1306	1301	1306	1301	1296	1291	1291	1272	1259	1254	1245	1245	1210	1202	1202	1202	1197	1193	1193	1193	1189	1193	1189	1189	1189	1189	1189	1193	1193	0	0	0	0	0	0	0	0	0	0	0	0	0	0	0	0	0	0	0	0	0	0	0	0	0	0	0	0	0	0	0	0	0	0	0	0	0	0	0	0	0	0	0
0	0	0	0	0	972	974	974	977	974	972	972	972	972	1042	1036	1036	1039	1039	1042	1042	1042	1045	1045	1045	1045	1048	1052	1052	1055	1058	1058	1058	1061	1061	1061	1064	1064	1068	1068	1074	1091	1095	1098	1102	1098	1102	1102	1105	0	0	0	0	0	0	0	0	0	0	0	0	0	0	0	0	0	0	0	0	0	0	0	0	0	0	0	0	0	0	1407	1407	1413	1425	1425	1431	1431	1437	1437	1437	1443	1443	1443	1437	1437	1443	1443	1443	1437	1443	1449	1449	1449	1461	1467	1467	1473	1473	0	0	0	0	0	0	0	7137	6992	6992	6992	7137	7137	7287	7287	7444	7444	7608	7608	7444	7444	7287	7287	7287	7444	7444	7444	7444	7444	7444	7287	7287	7287	7137	7137	7137	7137	7287	7287	7287	7137	7287	7287	7137	7137	7137	7287	7287	7287	7287	7137	7287	7137	7137	7137	6992	7137	7137	7137	7137	7137	7137	7137	6992	6992	7137	6992	6992	7137	7137	7137	7137	7137	7137	7137	7137	7137	7287	7444	7444	7608	7608	7444	7444	7287	7287	7287	7287	7287	7287	7444	7444	7444	7444	7444	7444	7444	7444	7444	7444	7444	7287	7287	7287	7137	7137	7137	7137	7137	7137	7287	7287	7287	7287	7287	7287	7287	7287	7287	7137	7287	7287	7137	7137	7137	7137	7137	7137	7287	7287	7287	7287	7287	7287	7287	7287	7287	3621	3583	3583	3583	3440	3440	3440	3440	3440	3475	3440	3475	3440	3440	3440	3440	3440	3440	3440	3440	3440	3440	3440	3440	3440	3440	3440	3406	3406	3406	3406	3406	3406	3406	3406	3406	3406	3406	3406	3406	3406	3406	3406	3406	3406	3406	3406	3406	3406	3406	3406	3406	3406	3406	3406	3406	3440	3440	3440	3440	3440	3440	3440	3440	3475	3475	3475	3475	3475	3475	3475	0	7137	7287	7287	7444	7444	7287	7444	7287	7287	7444	7444	7444	7444	7444	7444	7444	7444	7287	7287	7287	7287	7287	7287	7287	7287	7287	7287	7287	7287	7287	7287	7287	7137	7137	7137	7137	7137	7287	7287	7287	7287	7287	7287	7444	7287	7287	7287	7287	7287	7287	7287	7287	7287	7287	7287	7287	7287	7287	7444	7444	7287	7287	7287	7287	7287	7287	7287	7287	7287	7287	7287	7287	7287	7287	7137	7137	7137	7137	7287	7137	7137	7137	7287	7287	7287	7287	7287	7287	7137	7137	7137	7137	7137	7137	7137	7137	7137	7137	7137	7137	7137	7137	6992	6992	7137	7137	7287	7287	7287	7287	7287	7287	7287	7137	7137	7137	6992	6992	6992	6853	0	0	0	0	7287	7287	7287	7287	7287	7287	7287	7287	7287	7287	7287	7287	7287	7287	7287	7287	7287	7287	7287	7287	7287	7287	7287	7287	7287	7287	7287	7287	7287	0	0	0	0	0	0	7444	7287	7444	7287	7137	7137	7287	7287	7287	7287	7287	7287	7287	7287	7444	7287	7287	7444	7444	7444	7287	7287	7287	7287	7287	7287	7287	7444	7444	7444	7444	7444	7444	7287	7287	7287	7287	7444	7444	7444	7444	7444	7608	7444	7608	7608	7608	7608	7608	7444	7444	7444	7444	7444	7444	7444	7444	7444	7287	7287	7287	7287	7287	7287	7287	7287	0	0	0	0	0	0	0	0	0	0	0	0	1419	1419	1413	1413	1413	1374	1374	1358	1326	1321	1316	1311	1311	1306	1306	1301	1301	1301	1301	1296	1291	1287	1277	1263	1259	1249	1249	1206	1202	1197	1197	1197	1193	1193	1193	1189	1193	1193	1189	1189	1189	1189	1193	1193	0	0	0	0	0	0	0	0	0	0	0	0	0	0	0	0	0	0	0	0	0	0	0	0	0	0	0	0	0	0	0	0	0	0	0	0	0	0	0	0	0	0	0
0	0	0	0	0	972	972	977	977	974	974	974	988	988	994	994	994	1042	1042	1042	1042	1042	1045	1055	1045	1052	1052	1052	1058	1058	1058	1061	1058	1061	1061	1061	1064	1068	1068	1074	1078	1085	1091	1091	1095	1095	1098	1098	0	0	0	0	0	0	0	0	0	0	0	0	0	0	0	0	0	0	0	0	0	0	0	0	0	0	0	0	0	0	0	0	0	1413	1431	1431	1431	1437	1443	1443	1443	1449	1449	1449	1443	1443	1449	1449	1449	1443	1443	1443	1455	1455	1467	1467	1473	1473	1473	0	0	0	0	0	0	0	6992	6992	6992	6992	7137	7137	7287	7287	7444	7444	7608	7608	7444	7444	7444	7444	7444	7444	7444	7608	7444	7444	7444	7444	7444	7287	7137	7287	7137	7287	7287	7287	7287	7287	7287	7287	7137	7137	7137	7287	7287	7444	7287	7287	7444	7444	7287	7287	7137	7287	7287	7137	7137	7137	7137	7137	6992	6853	6992	6992	6992	6992	7137	7137	7287	7137	7137	7137	7287	7287	7287	7444	7444	7608	7444	7444	7444	7287	7287	7287	7287	7287	7287	7444	7608	7444	7608	7608	7444	7444	7444	7444	7287	7444	7287	7287	7287	7137	7287	7137	7137	7137	7287	7287	7287	7287	7287	7287	7444	7444	7444	7287	7287	7444	7287	7287	7287	7137	7137	7137	7287	7287	7287	7287	7287	7287	7444	7444	7444	7287	3621	3583	3475	3475	3475	3440	3440	3440	3440	3475	3440	3475	3440	3440	3440	3440	3440	3406	3406	3406	3440	3440	3440	3440	3440	3440	3406	3406	3406	3406	3406	3406	3406	3406	3406	3406	3406	3406	3406	3406	3406	3406	3406	3406	3406	3406	3406	3406	3406	3406	3406	3406	3406	3406	3406	3406	3440	3440	3440	3440	3440	3440	3440	3440	3440	3475	3475	3440	3475	3475	3475	0	7287	7287	7444	7608	7444	7444	7444	7287	7608	7608	7444	7444	7444	7444	7444	7444	7444	7287	7287	7287	7444	7287	7287	7287	7287	7287	7287	7287	7287	7287	7287	7287	7287	7287	7287	7287	7287	7287	7287	7287	7287	7287	7287	7444	7287	7287	7287	7287	7287	7287	7287	7137	7287	7287	7287	7287	7287	7287	7444	7444	7287	7287	7287	7287	7287	7287	7287	7287	7444	7287	7287	7287	7287	7287	7287	7137	7287	7287	7287	7287	7137	7287	7287	7287	7287	7287	7287	7287	7287	7287	7137	7137	7137	7137	7137	7137	7137	7137	7137	7137	7137	7137	7137	7137	7137	7137	7287	7287	7287	7287	7287	7287	7287	7287	7137	7137	7137	6992	6992	6992	0	0	0	0	7287	7287	7287	7287	7287	7287	7444	7444	7287	7287	7287	7287	7287	7287	7287	7287	7287	7287	7287	7287	7287	7287	7287	7287	7287	7287	7287	7287	7287	7287	7287	0	0	0	7608	7444	7287	7287	7287	7137	7137	7137	7137	7287	7287	7287	7287	7287	7287	7444	7287	7287	7444	7444	7444	7444	7444	7287	7287	7287	7444	7444	7608	7444	7444	7444	7444	7444	7287	7287	7287	7287	7287	7287	7444	7444	7444	7608	7608	7608	7608	7608	7779	7444	7444	7444	7608	7608	7444	7444	7444	7608	7444	7444	7444	7444	7287	7444	7287	7287	7287	7287	0	0	0	0	0	0	0	0	0	0	0	1419	1419	1413	1407	1413	1379	1379	1358	1316	1321	1316	1316	1311	1311	1306	1306	1301	1301	1301	1296	1287	1282	1277	1268	1259	1249	1245	1206	1202	1197	1197	1197	1197	1193	1193	1189	1189	1189	1193	1189	1189	1189	1193	1193	0	0	0	0	0	0	0	0	0	0	0	0	0	0	0	0	0	0	0	0	0	0	0	0	0	0	0	0	0	0	0	0	0	0	0	0	0	0	0	0	0	0	0
0	0	0	0	0	972	974	977	977	977	974	980	988	988	994	994	994	991	991	1045	1048	1052	1052	1058	1048	1055	1055	1071	1068	1064	1064	1068	1061	1064	1061	1061	1068	1071	1071	1081	1081	1085	1088	1091	1091	1091	1091	1091	0	0	0	0	0	0	0	0	0	0	0	0	0	0	0	0	0	0	0	0	0	0	0	0	0	0	0	0	0	0	0	0	0	0	1431	1431	1431	1437	1443	1443	1449	1449	1455	1455	1455	1449	1455	1455	1455	1449	1449	1449	1455	1467	1473	1480	1480	1480	1480	0	0	0	0	0	0	0	6992	6992	6992	6992	7137	7287	7287	7444	7444	7444	7444	7608	7608	7444	7444	7444	7444	7608	7608	7608	7608	7608	7444	7444	7444	7444	7444	7444	7444	7444	7444	7287	7287	7287	7287	7287	7287	7137	7287	7444	7444	7444	7444	7444	7444	7444	7287	7287	7287	7287	7287	7287	7287	7287	7137	7137	6992	6992	6992	6992	6992	7137	7137	7287	7287	7287	7287	7287	7287	7287	7287	7444	7608	7608	7444	7444	7444	7287	7444	7287	7287	7444	7444	7444	7608	7608	7608	7608	7444	7608	7444	7444	7444	7444	7287	7287	7287	7137	7137	7137	7137	7137	7287	7287	7444	7444	7444	7444	7444	7444	7444	7444	7444	7444	7444	7444	7287	7287	7287	7137	7287	7287	7287	7444	7444	7444	7608	7608	7444	0	3510	3475	3475	3475	3475	3440	3475	3440	3440	3440	3440	3440	3440	3440	3440	3440	3440	3406	3406	3406	3406	3406	3406	3406	3440	3440	3406	3406	3406	3406	3406	3406	3406	3406	3406	3406	3406	3406	3406	3406	3406	3406	3406	3406	3406	3406	3406	3406	3406	3406	3406	3406	3406	3406	3406	3406	3406	3406	3406	3440	3440	3440	3440	3440	3440	3440	3440	3440	3475	3475	3475	3475	7287	7444	7608	7608	7608	7608	7608	7608	7608	7608	7608	7444	7608	7444	7444	7444	7444	7444	7444	7287	7444	7608	7608	7444	7444	7444	7444	7287	7287	7444	7287	7287	7287	7287	7287	7287	7287	7287	7287	7287	7287	7444	7444	7444	7444	7444	7444	7444	7287	7287	7287	7137	7287	7287	7287	7287	7287	7287	7444	7444	7287	7287	7287	7287	7444	7444	7444	7444	7444	7287	7287	7287	7287	7287	7287	7287	7287	7287	7287	7287	7287	7287	7287	7444	7287	7287	7444	7287	7287	7287	7287	7137	7137	7137	7137	7137	7137	7137	7287	7287	7287	7287	7287	7287	7287	7287	7287	7287	7444	7287	7287	7287	7287	7287	7287	7137	7137	7137	7137	7137	7287	7287	7287	7287	7287	7287	7287	7287	7287	7287	7444	7444	7444	7287	7287	7287	7287	7287	7444	7287	7444	7444	7444	7287	7444	7287	7287	7287	7287	7287	7287	7287	7287	7444	7444	7444	0	0	7608	7444	7444	7444	7287	7137	7137	7287	7287	7287	7444	7287	7444	7444	7444	7444	7444	7444	7444	7444	7608	7444	7444	7444	7444	7444	7444	7444	7608	7608	7608	7608	7608	7608	7444	7444	7444	7287	7444	7444	7444	7444	7444	7444	7444	7608	7608	7608	7779	7779	7608	7608	7779	7608	7608	7444	7287	7444	7608	7444	7444	7444	7287	7444	7444	7444	7287	7287	0	0	0	0	0	0	0	0	0	0	0	1419	1413	1407	1407	1402	1390	1390	1368	1321	1321	1316	1311	1311	1306	1306	1301	1296	1301	1301	1296	1287	1287	1277	1268	1254	1249	1210	1206	1202	1202	1197	1197	1197	1193	1193	1189	1189	1189	1189	1189	1189	1189	1193	1193	0	0	0	0	0	0	0	0	0	0	0	0	0	0	0	0	0	0	0	0	0	0	0	0	0	0	0	0	0	0	0	0	0	0	0	0	0	0	0	0	0	0	0
0	0	0	0	0	974	974	974	977	977	977	980	991	991	994	997	997	997	994	994	1048	1052	1061	1061	1058	1064	1068	1074	1071	1071	1071	1071	1071	1071	1064	1064	1074	1078	1081	1085	1081	1085	1088	1091	1091	1091	1091	1091	0	0	0	0	0	0	0	0	0	0	0	0	0	0	0	0	0	0	0	0	0	0	0	0	0	0	0	0	0	0	0	0	0	0	0	1431	1431	1437	1449	1449	1449	1455	1455	1455	1455	1455	1455	1455	1461	1455	1455	1461	1461	1473	1480	1486	1492	1492	1492	0	0	0	0	0	0	0	6992	6853	6853	6992	7137	7137	7287	7287	7444	7444	7444	7608	7608	7444	7444	7608	7608	7608	7608	7608	7608	7608	7444	7444	7444	7444	7444	7444	7444	7444	7444	7444	7444	7444	7444	7444	7287	7287	7287	7444	7444	7444	7444	7444	7444	7444	7444	7444	7444	7444	7444	7287	7287	7287	7287	7287	6992	6992	6992	6992	6992	7137	7287	7287	7287	7287	7287	7287	7444	7444	7444	7444	7608	7608	7444	7444	7444	7287	7287	7287	7287	7444	7444	7444	7608	7608	7608	7608	7608	7608	7608	7608	7444	7444	7287	7287	7287	7287	7287	7287	7287	7287	7287	7444	7444	7444	7608	7608	7444	7444	7444	7444	7444	7444	7444	7444	7444	7444	7287	7287	7287	7287	7287	7287	7287	7444	7608	7608	0	0	3510	3475	3475	3475	3475	3475	3475	3440	3475	3440	3440	3440	3440	3440	3440	3406	3406	3406	3406	3406	3406	3406	3406	3406	3406	3406	3406	3406	3406	3406	3406	3406	3406	3406	3406	3406	3406	3406	3406	3406	3406	3406	3406	3406	3406	3406	3406	3406	3406	3406	3406	3406	3406	3406	3406	3406	3406	3406	3406	3440	3440	3440	3440	3440	3440	3440	3440	3440	3440	3475	3475	3475	0	7287	7444	7608	7608	7608	7608	7608	7608	7779	7608	7608	7608	7608	7608	7444	7444	7444	7608	7608	7608	7608	7608	7444	7444	7444	7444	7287	7287	7444	7444	7287	7287	7287	7287	7287	7287	7287	7287	7287	7287	7444	7444	7444	7444	7444	7287	7287	7287	7287	7287	7287	7287	7287	7287	7287	7287	7444	7444	7444	7287	7287	7287	7287	7287	7444	7444	7444	7444	7444	7444	7444	7444	7444	7287	7287	7444	7444	7444	7287	7287	7287	7444	7444	7444	7444	7444	7444	7444	7444	7287	7137	7287	7137	7287	7287	7287	7287	7287	7287	7287	7287	7287	7287	7287	7287	7287	7287	7444	7444	7287	7287	7287	7287	7137	7137	7137	7137	7137	7287	7287	7287	7287	7287	7444	7287	7287	7287	7287	7287	7444	7444	7444	7444	7444	7444	7287	7444	7444	7444	7444	7444	7444	7444	7444	7444	7287	7287	7287	7287	7287	7287	7287	7444	7444	7444	0	0	7608	7444	7444	7444	7287	7137	6992	7137	7287	7287	7444	7444	7444	7444	7608	7608	7444	7444	7444	7444	7608	7444	7444	7444	7444	7444	7444	7608	7608	7779	7779	7779	7779	7608	7444	7444	7444	7287	7444	7444	7444	7444	7444	7444	7444	7444	7608	7608	7779	7779	7779	7779	7779	7608	7608	7444	7444	7608	7608	7444	7444	7444	7444	7444	7444	7444	7444	7287	0	0	0	0	0	0	0	0	0	0	0	1419	1413	1407	1402	1396	1390	1390	1374	1363	1321	1316	1311	1306	1306	1301	1301	1296	1301	1301	1296	1291	1291	1282	1259	1249	1245	1210	1206	1202	1202	1197	1197	1193	1193	1189	1189	1189	1189	1189	1189	1189	1189	1189	1189	0	0	0	0	0	0	0	0	0	0	0	0	0	0	0	0	0	0	0	0	0	0	0	0	0	0	0	0	0	0	0	0	0	0	0	0	0	0	0	0	0	0	0
0	0	0	0	0	972	972	974	974	974	977	988	994	994	997	997	1000	997	997	994	994	994	1064	1061	1061	1064	1071	1074	1074	1074	1074	1074	1074	1074	1068	1071	1081	1081	1081	1085	1085	1088	1088	1091	1091	1091	1091	1091	0	0	1486	1486	1486	1486	1486	0	0	0	0	0	0	0	0	0	0	0	0	0	0	0	0	0	0	0	0	0	0	0	0	0	0	0	0	0	0	0	1455	1455	1455	1455	1461	1461	1461	1461	1461	1461	1467	1467	1467	1467	1473	1480	1480	1486	1492	1492	1492	1499	1506	1512	1512	0	0	0	6992	6853	6853	6992	7137	7137	7444	7444	7444	7444	7608	7608	7608	7444	7444	7608	7608	7608	7444	7608	7608	7608	7444	7444	7444	7444	7444	7444	7444	7608	7608	7608	7444	7444	7444	7444	7444	7444	7444	7444	7444	7444	7444	7608	7608	7608	7608	7608	7608	7444	7444	7444	7444	7287	7287	7287	7287	7137	7137	7137	7137	7287	7287	7287	7444	7287	7444	7444	7444	7444	7444	7444	7608	7608	7444	7444	7444	7444	7287	7444	7444	7444	7444	7444	7608	7608	7608	7608	7608	7608	7608	7608	7608	7608	7444	7444	7287	7287	7287	7287	7287	7444	7444	7444	7444	7608	7608	7608	7444	7444	7444	7444	7444	7444	7444	7444	7444	7444	7444	7287	7287	7287	7287	7444	7444	7444	7608	7608	0	0	3510	3510	3510	3475	3475	3475	3475	3440	3440	3440	3440	3440	3440	3440	3440	3406	3406	3406	3406	3406	3406	3406	3406	3406	3406	3406	3406	3406	3406	3406	3406	3406	3406	3406	3406	3406	3406	3406	3406	3406	3406	3406	3406	3406	3406	3406	3406	3406	3406	3406	3406	3406	3406	3406	3406	3406	3406	3406	3406	3440	3440	3440	3440	3440	3440	3440	3440	3440	3440	3475	3475	3475	3475	3475	7444	7444	7608	7608	7608	7608	7779	7779	7779	7608	7608	7608	7608	7444	7444	7444	7444	7444	7608	7779	7779	7444	7444	7444	7444	7287	7287	7444	7287	7287	7287	7287	7287	7287	7287	7287	7287	7287	7444	7444	7444	7608	7444	7444	7287	7287	7287	7287	7287	7287	7287	7444	7444	7444	7444	7608	7444	7444	7287	7287	7287	7287	7287	7444	7444	7444	7608	7444	7444	7444	7444	7444	7444	7444	7608	7608	7608	7444	7444	7444	7444	7444	7444	7444	7444	7444	7444	7444	7287	7287	7287	7137	7287	7287	7287	7287	7444	7287	7444	7444	7444	7444	7444	7287	7444	7444	7444	7444	7287	7287	7287	7287	7137	7137	7137	7137	7287	7444	7444	7444	7444	7444	7444	7287	7287	7287	7287	7287	7444	7444	7444	7444	7444	7444	7444	7444	7608	7444	7608	7608	7608	7608	7444	7444	7444	7444	7287	7287	7287	7287	7287	7444	7444	7444	0	0	7779	7608	7444	7444	7287	7137	7137	7137	7287	7444	7444	7444	7444	7444	7608	7608	7608	7608	7608	7608	7608	7608	7444	7444	7444	7444	7444	7608	7779	7779	7779	7779	7779	7779	7608	7444	7444	7444	7444	7444	7444	7444	7444	7444	7444	7444	7779	7779	7779	7779	7779	7779	7779	7779	7608	7608	7608	7608	7779	7779	7608	7608	7608	7608	7779	7959	7959	0	0	0	0	0	0	0	0	0	0	0	0	1413	1407	1402	1402	1396	1390	1390	1368	1358	1347	1316	1311	1306	1301	1301	1296	1296	1301	1301	1296	1291	1291	1277	1249	1245	1240	1210	1210	1202	1202	1202	1197	1193	1193	1189	1189	1189	1189	1189	1189	1185	1185	1185	1185	0	0	0	0	0	0	0	0	0	0	0	0	0	0	0	0	0	0	0	0	0	0	0	0	0	0	0	0	0	0	0	0	0	0	0	0	0	0	0	0	0	0	0
0	0	0	0	0	972	972	974	974	977	977	988	994	994	997	997	1000	1000	997	997	994	994	1064	1068	1064	1064	1068	1074	1074	1078	1078	1078	1078	1078	1074	1078	1081	1081	1085	1088	1085	1088	1088	1091	1091	1091	1091	1091	0	0	1480	1480	1492	1486	1486	0	0	0	0	0	0	0	0	0	0	0	0	0	0	0	0	0	0	0	0	0	0	0	0	0	0	0	0	0	0	0	1455	1467	1461	1461	1467	1467	1467	1461	1467	1473	1473	1473	1473	1486	1480	1486	1492	1492	1499	1492	1499	1499	1506	1519	1525	1525	1525	0	0	0	0	6992	7137	7608	7608	7444	7444	7444	7444	7608	7608	7444	7444	7608	7608	7608	7608	7608	7608	7608	7608	7608	7608	7608	7608	7444	7608	7608	7608	7608	7444	7444	7608	7444	7444	7444	7608	7608	7444	7444	7608	7608	7608	7608	7608	7779	7779	7608	7444	7444	7444	7444	7287	7287	7287	7137	7287	7287	7287	7287	7444	7444	7444	7444	7444	7444	7444	7444	7444	7444	7608	7608	7608	7608	7444	7444	7444	7444	7444	7444	7444	7608	7608	7608	7779	7779	7779	7779	7779	7779	7608	7608	7608	7608	7444	7444	7444	7444	7444	7444	7444	7444	7608	7608	7608	7608	7444	7608	7608	7608	7608	7608	7608	7608	7444	7444	7444	7287	7444	7444	7444	7608	7608	7608	7608	0	0	0	3510	3510	3510	3475	3475	3475	3440	3440	3440	3440	3440	3440	3440	3440	3440	3406	3406	3406	3406	3406	3406	3406	3406	3406	3406	3406	3373	3373	3406	3406	3406	3373	3406	3406	3406	3406	3373	3406	3406	3406	3373	3406	3373	3373	3406	3406	3406	3406	3406	3406	3406	3406	3406	3406	3406	3406	3406	3406	3406	3406	3406	3406	3440	3440	3440	3440	3440	3440	3440	3475	3475	3475	3475	3475	3475	7444	7608	7608	7608	7779	7779	7779	7779	7779	7779	7608	7608	7444	7444	7608	7608	7608	7608	7779	7779	7444	7444	7444	7287	7287	7287	7444	7444	7444	7444	7444	7287	7444	7444	7287	7444	7444	7444	7608	7608	7608	7444	7608	7608	7444	7444	7287	7287	7287	7444	7444	7444	7444	7444	7444	7444	7287	7287	7287	7287	7287	7287	7444	7444	7608	7608	7444	7444	7444	7444	7444	7444	7444	7608	7608	7608	7608	7444	7444	7444	7444	7444	7444	7444	7444	7444	7444	7287	7287	7287	7287	7287	7287	7287	7444	7444	7444	7444	7444	7444	7444	7444	7444	7444	7444	7444	7444	7287	7287	7287	7287	7137	7137	7137	7137	7287	7444	7444	7444	7444	7444	7444	7444	7287	7287	7287	7287	7444	7444	7444	7444	7444	7444	7444	7444	7608	7608	7608	7608	7608	7608	7608	7444	7444	7444	7287	7287	7287	7287	7287	7287	7287	7444	0	7779	7779	7608	7608	7444	7444	7287	7287	7287	7444	7608	7779	7444	7444	7444	7779	7608	7608	7608	7608	7608	7608	7608	7608	7608	7608	7779	7779	7959	7959	7779	7779	7779	7779	7779	7608	7608	7608	7608	7608	7444	7444	7444	7444	7444	7444	7779	7779	7779	7779	7779	7779	7779	7779	7608	7779	7608	7779	7608	7779	7779	7779	7959	7959	7959	7959	7959	7959	0	0	0	0	0	0	0	0	0	0	0	0	1413	1413	1402	1402	1396	1390	1385	1368	1352	1336	1321	1311	1306	1306	1301	1296	1296	1301	1296	1291	1287	1277	1272	1245	1245	1240	1214	1210	1206	1202	1202	1197	1193	1193	1189	1189	1189	1189	1189	1185	1185	1185	1185	1185	0	0	0	0	0	0	0	0	0	0	0	0	0	0	0	0	0	0	0	0	0	0	0	0	0	0	0	0	0	0	0	0	0	0	0	0	0	0	0	0	0	0	0
0	0	0	0	0	972	972	974	974	977	980	991	994	994	997	997	1000	1000	1000	997	997	997	1064	1068	1061	1061	1068	1074	1078	1081	1081	1081	1081	1081	1081	1081	1085	1085	1085	1088	1088	1091	1088	1091	1091	1091	1091	1091	0	1499	1492	1492	1492	1492	1492	1499	1499	0	0	0	0	0	0	0	0	0	0	0	0	0	0	0	0	0	0	0	0	0	0	0	0	0	0	0	0	0	0	1467	1473	1473	1480	1486	1480	1473	1480	1486	1486	1492	1492	1492	1492	1492	1499	1499	1499	1499	1499	1506	1512	1525	1525	1532	1539	1539	1539	0	0	0	0	7608	7608	7444	7444	7444	7444	7444	7444	7444	7444	7608	7608	7608	7608	7608	7608	7608	7608	7608	7608	7608	7608	7608	7608	7608	7608	7608	7608	7608	7608	7608	7444	7444	7608	7608	7444	7444	7444	7608	7608	7608	7608	7779	7779	7608	7608	7444	7608	7444	7444	7444	7287	7287	7287	7287	7287	7444	7444	7444	7444	7444	7444	7444	7444	7444	7444	7444	7608	7608	7608	7608	7444	7444	7444	7444	7608	7608	7608	7608	7608	7608	7779	7779	7779	7779	7779	7779	7779	7608	7608	7608	7444	7444	7444	7444	7608	7608	7608	7608	7608	7608	7608	7608	7608	7608	7608	7608	7608	7608	7608	7608	7608	7444	7444	7444	7444	7444	7444	7608	7608	7608	7608	0	0	0	3510	3510	3510	3475	3475	3440	3440	3440	3440	3440	3440	3440	3440	3440	3406	3406	3406	3406	3373	3373	3373	3373	3373	3373	3373	3373	3373	3373	3373	3406	3406	3373	3373	3373	3373	3373	3373	3373	3373	3373	3373	3373	3373	3373	3373	3406	3406	3373	3406	3406	3406	3406	3406	3406	3406	3406	3406	3406	3406	3406	3406	3406	3440	3440	3440	3440	3440	3440	3440	3475	3475	3475	3475	3475	3475	3510	3510	7608	7779	7779	7779	7779	7779	7779	7779	7779	7779	7608	7608	7779	7608	7608	7608	7608	7608	7608	7444	7444	7444	7444	7444	7444	7444	7444	7608	7608	7608	7608	7608	7444	7608	7608	7608	7608	7608	7608	7444	7608	7608	7608	7444	7287	7287	7444	7444	7444	7444	7444	7444	7444	7444	7287	7287	7287	7287	7287	7287	7444	7444	7444	7444	7444	7444	7444	7444	7444	7444	7444	7608	7608	7608	7608	7608	7444	7444	7444	7444	7444	7444	7444	7444	7444	7287	7287	7444	7287	7444	7444	7444	7444	7444	7444	7444	7444	7444	7444	7444	7444	7608	7608	7444	7444	7287	7287	7287	7287	7137	7287	7137	7137	7287	7444	7444	7444	7444	7608	7444	7444	7444	7444	7444	7287	7608	7444	7444	7444	7444	7444	7444	7608	7608	7608	7779	7959	7959	7959	7608	7444	7444	0	7444	7444	7444	7287	7287	7444	7444	7779	7779	7779	7779	7608	7608	7444	7444	7287	7444	7444	7444	7608	7779	7779	7779	7608	7608	7779	7779	7779	7779	7779	7779	7608	7608	7779	7608	7779	7779	7959	7779	7779	7959	7779	7779	7779	7608	7608	7779	7779	7779	7444	7444	0	7608	7608	7444	7779	7779	7779	7608	7779	7779	7779	7779	7779	7779	7608	7779	7779	7779	7959	7959	7959	7959	7959	7959	7959	0	0	0	0	0	0	0	0	0	0	0	0	0	1413	1413	1402	1402	1396	1390	1379	1368	1326	1321	1316	1311	1311	1306	1301	1296	1296	1301	1296	1291	1282	1245	1245	1245	1245	1240	1210	1210	1206	1202	1202	1197	1197	1193	1189	1189	1189	1189	1189	1189	1185	1185	1185	1185	0	0	0	0	0	0	0	0	0	0	0	0	0	0	0	0	0	0	0	0	0	0	0	0	0	0	0	0	0	0	0	0	0	0	0	0	0	0	0	0	0	0	0
0	0	0	0	0	972	972	974	974	977	980	991	994	997	997	997	1003	1003	1003	1003	1006	1006	1068	1071	1068	1068	1074	1078	1081	1081	1085	1085	1081	1081	1085	1085	1085	1085	1085	1088	1088	1091	1091	1095	1095	1095	1095	1095	0	1499	1506	1499	1499	1499	1499	1499	1499	1499	0	0	0	0	0	0	0	0	0	0	0	0	0	0	0	0	0	0	0	0	0	0	0	0	0	0	0	0	0	0	1473	1473	1486	1492	1486	1486	1486	1499	1499	1499	1499	1506	1506	1506	1506	1506	1506	1506	1506	1506	1512	1525	1532	1532	1539	1546	1546	1539	1539	0	0	0	0	7444	7444	7444	7444	7444	7444	7444	7608	7608	7608	7608	7608	7608	7608	7608	7608	7608	7608	7608	7608	7608	7608	7608	7608	7608	7608	7608	7608	7608	7444	7608	7608	7608	7608	7608	7608	7608	7779	7608	7608	7779	7779	7608	7608	7608	7608	7608	7608	7444	7444	7444	7444	7444	7444	7608	7608	7608	7608	7444	7444	7444	7444	7444	7444	7444	7444	7608	7608	7608	7608	7608	7608	7608	7779	7779	7779	7779	7608	7779	7779	7779	7779	7779	7779	7779	7779	7779	7608	7608	7608	7444	7444	7444	7444	7608	7608	7608	7608	7608	7608	7608	7779	7779	7779	7779	7779	7608	7608	7608	7608	7444	7444	7444	7287	7444	7444	7444	7444	7608	0	0	0	3546	3510	3510	3510	3475	3475	3440	3440	3440	3440	3406	3406	3440	3440	3406	3406	3406	3406	3406	3373	3373	3373	3373	3373	3373	3373	3373	3373	3373	3373	3406	3406	3373	3406	3406	3406	3406	3373	3373	3406	3373	3373	3373	3373	3373	3373	3373	3373	3373	3373	3373	3373	3373	3406	3406	3406	3406	3373	3406	3406	3406	3406	3406	3406	3440	3440	3440	3440	3440	3440	3475	3510	3475	3475	3475	3475	3510	3510	0	7959	7779	7779	7779	7779	7779	7959	7779	7779	7779	7779	7959	7779	7779	7608	7608	7608	7608	7608	7608	7608	7608	7608	7608	7608	7608	7608	7608	7608	7608	7608	7444	7444	7608	7608	7608	7608	7608	7608	7779	7779	7608	7608	7444	7608	7608	7444	7444	7608	7444	7444	7608	7444	7444	7287	7287	7287	7287	7287	7444	7444	7444	7444	7444	7444	7444	7608	7444	7608	7608	7779	7608	7608	7608	7608	7608	7608	7608	7608	7608	7608	7444	7608	7608	7444	7444	7444	7444	7444	7444	7444	7608	7608	7608	7608	7608	7608	7608	7608	7608	7608	7779	7608	7444	7287	7287	7287	7287	7137	7287	7137	7287	7287	7444	7444	7444	7444	7608	7608	7444	7444	7444	7444	7444	7608	7444	7444	7444	7444	7608	7444	7608	7779	7779	7959	7959	8146	8146	0	0	0	7444	7444	7444	7444	7444	7444	7444	7608	7779	7779	7779	7779	7779	7608	7444	7444	7444	7444	7444	7608	7608	7779	7779	7779	7779	7959	7959	7779	7779	7608	7608	7779	7779	7608	7779	7779	7779	7959	7959	7959	7959	7959	7779	7779	7779	7608	7608	7608	7779	7779	0	0	0	7608	7608	0	7779	7779	7779	7779	7779	7779	7779	7779	7608	7779	7608	7779	7779	7959	7959	7959	7959	7959	7959	7959	7959	0	0	0	0	0	0	0	0	0	0	0	0	0	1419	1413	1402	1402	1396	1390	1390	1368	1321	1321	1316	1311	1306	1306	1301	1296	1296	1301	1296	1291	1277	1249	1249	1245	1240	1236	1210	1210	1206	1202	1202	1202	1197	1193	1193	1189	1189	1189	1189	1189	1189	1189	1185	1185	0	0	0	0	0	0	0	0	0	0	0	0	0	0	0	0	0	0	0	0	0	0	0	0	0	0	0	0	0	0	0	0	0	0	0	0	0	0	0	0	0	0	0
0	0	0	0	0	972	972	974	974	977	980	991	994	994	997	997	1003	1003	1003	1006	1006	1008	1008	1008	1068	1068	1071	1074	1081	1081	1085	1081	1081	1081	1081	1081	1081	1085	1085	1088	1088	1091	1091	1095	1095	1095	1095	1095	0	0	1506	1506	1506	1506	1499	1506	1506	1506	1506	0	0	0	0	0	0	0	0	0	0	0	0	0	0	0	0	0	0	0	0	0	0	0	0	0	0	0	0	0	0	0	1486	1499	1492	1486	1492	1506	1506	1506	1506	1506	1506	1506	1512	1512	1512	1512	1512	1512	1519	1525	1532	1539	1539	1546	1546	1539	1539	1539	0	0	0	0	0	7444	7444	7444	7444	7444	7444	7608	7608	7608	7608	7608	7608	7608	7608	7608	7608	7608	7608	7608	7608	7608	7608	7608	7608	7608	7608	7608	7608	7608	7779	7608	7608	7608	7608	7779	7779	7608	7608	7608	7779	7608	7608	7608	7608	7608	7608	7608	7608	7608	7608	7444	7608	7608	7608	7608	7608	7608	7608	7608	7608	7608	7608	7608	7779	7608	7608	7608	7779	7779	7779	7779	7779	7779	7779	7779	7779	7779	7779	7959	7959	7959	7959	7779	7779	7779	7779	7608	7608	7444	7444	7608	7608	7608	7608	7608	7608	7779	7779	7779	7779	7779	7779	7779	7779	7779	7608	7608	7608	7608	7444	7444	7444	7608	7444	7608	7608	0	0	0	0	3546	3510	3510	3510	3475	3475	3440	3440	3440	3406	3406	3406	3406	3406	3406	3406	3406	3406	3406	3406	3406	3406	3373	3373	3373	3373	3373	3373	3373	3373	3373	3373	3373	3406	3373	3373	3373	3373	3373	3406	3373	3373	3373	3373	3373	3373	3373	3373	3373	3373	3406	3373	3406	3406	3406	3406	3406	3406	3406	3406	3406	3406	3406	3406	3440	3440	3440	3440	3440	3440	3475	3510	3475	3475	3475	3510	3510	3475	3475	7959	7959	7779	7779	7779	7779	7959	7959	7959	7779	7959	7959	7959	7779	7608	7608	7608	7608	7608	7608	7608	7779	7779	7779	7779	7779	7608	7608	7608	7608	7608	7444	7608	7779	7779	7779	7608	7608	7608	7608	7779	7779	7608	7608	7608	7608	7608	7608	7608	7608	7608	7608	7444	7444	7444	7444	7444	7287	7444	7444	7444	7608	7608	7608	7608	7779	7608	7608	7779	7779	7779	7779	7779	7779	7779	7779	7779	7608	7608	7779	7608	7608	7779	7779	7608	7608	7608	7608	7608	7608	7608	7608	7608	7608	7608	7608	7608	7608	7608	7608	7779	7608	7608	7444	7444	7287	7287	7287	7287	7287	7287	7287	7287	7444	7444	7444	7444	7608	7444	7444	7444	7444	7444	7444	7608	7608	7608	7608	7608	7608	7779	7779	7779	7959	7959	7959	7959	8146	7959	7959	0	7444	7444	7444	7444	7444	7444	7444	7608	7779	7779	7779	7779	7779	7779	7779	7444	7444	7444	7608	7779	7779	7779	7779	7779	7959	7959	7779	7959	7779	7608	7779	7779	7779	7779	7779	7779	7959	7959	7959	7959	7779	7959	7779	7779	7779	7779	7779	7608	0	0	0	0	0	0	0	0	7779	7779	7779	7779	7779	7779	7608	7608	7608	7608	7608	7779	7779	7959	7959	7959	7959	7959	8146	8146	0	0	0	0	0	0	0	0	0	0	0	0	0	0	1419	1413	1402	1402	1396	1390	1379	1363	1352	1321	1321	1311	1306	1306	1301	1296	1296	1296	1296	1291	1245	1245	1245	1245	1240	1236	1210	1210	1206	1202	1202	1197	1193	1193	1189	1189	1189	1189	1189	1189	1189	1185	1185	1185	0	0	0	0	0	0	0	0	0	0	0	0	0	0	0	0	0	0	0	0	0	0	0	0	0	0	0	0	0	0	0	0	0	0	0	0	0	0	0	0	0	0	0
0	0	0	0	0	972	974	974	974	977	980	988	994	994	997	1000	1003	1006	1006	1008	1008	1011	1017	1017	1026	1030	1030	1081	1081	1081	1081	1081	1081	1081	1081	1081	1081	1081	1085	1085	1085	1088	1088	1095	1095	1095	1098	1098	0	0	1512	1512	1506	1506	1506	1512	1506	1506	1525	1519	1519	0	0	0	0	0	0	0	0	0	0	0	0	0	0	0	0	0	0	0	0	0	0	0	0	0	0	0	0	0	0	1499	1492	1499	1506	1512	1512	1512	1512	1519	1512	1512	1519	1519	1519	1519	1519	1519	1525	1532	1539	1539	1539	1546	1546	1546	1546	1546	0	0	0	0	0	0	7444	7444	7444	7444	7608	7608	7608	7608	7608	7779	7779	7779	7779	7608	7779	7779	7779	7779	7779	7608	7608	7608	7608	7608	7608	7608	7608	7779	7779	7779	7779	7608	7779	7779	7779	7779	7779	7779	7779	7779	7779	7959	7779	7779	7608	7608	7608	7608	7608	7608	7608	7608	7779	7779	7779	7779	7779	7779	7608	7608	7608	7608	7779	7608	7608	7608	7779	7779	7779	7779	7779	7779	7779	7779	7779	7779	7959	7959	8146	7959	7779	7779	7779	7608	7608	7608	7608	7608	7608	7608	7608	7779	7779	7779	7779	7779	7779	7779	7779	7779	7779	7779	7779	7779	7779	7608	7608	7608	7608	7608	7444	7608	7444	7444	7444	0	0	0	0	3546	3510	3510	3475	3475	3440	3440	3440	3406	3406	3406	3406	3406	3406	3406	3406	3406	3406	3373	3373	3373	3373	3373	3373	3373	3373	3373	3373	3373	3373	3373	3373	3373	3373	3373	3373	3373	3373	3373	3406	3373	3373	3373	3373	3373	3373	3373	3341	3341	3373	3373	3373	3373	3373	3373	3406	3406	3406	3406	3406	3406	3406	3440	3440	3440	3440	3440	3440	3440	3440	3475	3475	3510	3475	3510	3510	3510	3475	3475	3475	7959	7959	7959	7959	7959	7959	7959	7959	7779	7959	7959	7959	7779	7608	7608	7608	7608	7608	7608	7779	7779	7779	7779	7959	7779	7779	7779	7779	7779	7779	7608	7608	7779	7779	7779	7608	7779	7779	7779	7779	7779	7608	7608	7608	7608	7608	7608	7608	7608	7608	7779	7608	7608	7608	7608	7608	7444	7444	7608	7608	7608	7608	7608	7608	7779	7779	7779	7779	7779	7959	7779	7779	7779	7779	7779	7779	7779	7608	7779	7608	7608	7779	7779	7779	7779	7608	7608	7608	7608	7608	7608	7608	7608	7608	7444	7608	7608	7608	7608	7779	7779	7608	7608	7444	7444	7287	7287	7287	7287	7287	7287	7444	7444	7608	7608	7608	7608	7608	7444	7444	7444	7608	7608	7608	7608	7779	7608	7608	7608	7608	7608	7779	7779	7959	7959	7959	7959	7959	7959	7959	7608	7608	7444	7444	7444	7444	7444	7608	7779	7779	7779	7779	7779	7608	7608	7608	7444	7608	7608	7779	7779	7959	7959	7959	7959	7959	7779	7779	7779	7779	7779	7779	7779	7779	7779	7779	7779	7959	7959	7959	7779	7779	7779	7779	7779	7608	7608	0	0	0	0	0	0	0	0	0	0	7779	7779	7608	7608	7608	7608	7608	7608	7608	7608	7959	7959	7959	7959	7959	7959	7959	8146	8146	0	0	0	0	0	0	0	0	0	0	0	0	0	0	1419	1413	1402	1402	1396	1390	1374	1363	1352	1326	1321	1311	1306	1301	1296	1296	1291	1296	1296	1282	1249	1245	1245	1245	1240	1236	1210	1206	1202	1197	1197	1193	1189	1189	1189	1185	1185	1185	1185	1189	1185	1185	1185	1185	0	0	0	0	0	0	0	0	0	0	0	0	0	0	0	0	0	0	0	0	0	0	0	0	0	0	0	0	0	0	0	0	0	0	0	0	0	0	0	0	0	0	0
0	0	0	0	0	972	972	974	974	974	977	985	991	994	997	997	1003	1006	1006	1011	1014	1017	1020	1020	1026	1030	1030	1030	1081	1081	1085	1081	1081	1081	1081	1081	1081	1081	1081	1085	1088	1088	1091	1091	1098	1098	1095	1091	1091	0	1512	1519	1512	1519	1519	1519	1519	1519	1525	1525	1525	0	0	0	0	0	0	0	0	0	0	0	0	0	0	0	0	0	0	0	0	0	0	0	0	0	0	0	0	0	0	0	0	1499	1506	1519	1519	1519	1519	1525	1519	1519	1525	1525	1525	1525	1525	1532	1532	1539	1539	1546	1546	1546	1553	1553	1553	1553	1553	0	0	0	0	0	7444	7444	7444	7608	7608	7779	7779	7779	7779	7779	7779	7779	7779	7608	7779	7779	7779	7779	7608	7608	7608	7608	7608	7608	7608	7608	7608	7608	7779	7608	7608	7608	7608	7779	7779	7608	7608	7779	7779	7779	7779	7779	7779	7779	7779	7779	7608	7779	7608	7608	7608	7608	7779	7608	7608	7779	7779	7779	7779	7608	7608	7608	7779	7608	7608	7779	7779	7779	7779	7779	7779	7779	7779	7779	7779	7779	7959	7959	7959	7959	7959	7779	7779	7779	7608	7608	7608	7608	7608	7779	7779	7779	7779	7779	7779	7779	7779	7779	7779	7779	7779	7779	7779	7779	7779	7608	7608	7608	7608	7608	7608	7608	7444	7444	7444	0	0	0	0	3546	3475	3475	3475	3440	3440	3440	3406	3406	3406	3406	3406	3406	3406	3406	3406	3406	3373	3373	3373	3373	3373	3373	3373	3373	3341	3373	3373	3373	3373	3373	3373	3373	3373	3373	3373	3373	3373	3373	3406	3373	3373	3373	3373	3341	3341	3341	3341	3341	3341	3373	3373	3373	3373	3373	3373	3406	3406	3406	3406	3406	3406	3406	3440	3440	3440	3440	3475	3440	3440	3475	3510	3510	3510	3510	3510	3510	3510	3510	3475	7959	7959	7959	7959	7959	7959	7959	7959	7779	7959	7959	7959	7779	7608	7444	7444	7444	7444	7608	7608	7608	7779	7779	7959	7779	7779	7779	7779	7959	7779	7608	7779	7959	7779	7779	7779	7779	7779	7779	7779	7779	7779	7779	7779	7608	7608	7779	7608	7779	7779	7779	7779	7779	7608	7779	7608	7608	7608	7608	7608	7779	7779	7779	7779	7779	7779	7779	7959	7959	7959	7959	7779	7779	7779	7779	7779	7779	7779	7779	7959	7959	7959	7779	7779	7779	7779	7608	7608	7608	7608	7608	7608	7608	7444	7444	7608	7444	7608	7608	7779	7779	7608	7608	7608	7608	7444	7287	7287	7444	7444	7444	7444	7608	7608	7608	7608	7779	7779	7608	7608	7608	7608	7779	7959	7959	7959	7779	7779	7608	7779	7608	7779	7779	7779	7959	7959	7959	7959	7779	7779	7779	7608	7608	7608	7444	7444	7608	7608	7608	7608	7608	7779	7608	7608	7608	7608	7608	7779	7779	7959	7959	7959	7959	7959	7959	7959	7959	7959	7959	7959	7959	7959	7959	7959	7959	7959	7959	7959	7959	7779	7779	7779	7779	7779	7779	7779	7608	0	0	0	0	0	0	0	0	0	0	7779	7779	7608	7608	7608	7608	7608	7608	0	7959	7959	7959	7959	7959	7959	7959	7959	7959	8146	0	0	0	0	0	0	0	0	0	0	0	0	0	0	1419	1413	1402	1402	1396	1385	1363	1358	1352	1326	1321	1311	1306	1301	1296	1296	1291	1296	1291	1277	1245	1245	1245	1240	1236	1227	1210	1206	1202	1197	1193	1193	1193	1189	1189	1185	1185	1185	1185	1185	1185	1185	1185	1185	0	0	0	0	0	0	0	0	0	0	0	0	0	0	0	0	0	0	0	0	0	0	0	0	0	0	0	0	0	0	0	0	0	0	0	0	0	0	0	0	0	0	0
0	0	0	0	0	969	972	974	974	977	980	985	991	994	997	997	1003	1006	1008	1011	1014	1017	1020	1020	1026	1030	1033	1036	1036	1033	1033	1081	1081	1081	1081	1078	1078	1081	1081	1081	1085	1088	1088	1095	1095	1095	1091	1088	1088	0	0	1532	1525	1525	1525	1525	1525	1525	1532	1532	1532	1532	0	0	0	0	0	0	0	0	0	0	0	0	0	0	0	0	0	0	0	0	0	0	0	0	0	0	0	0	0	0	0	0	0	1525	1525	1525	1525	1525	1525	1525	1525	1532	1532	1532	1532	1532	1539	1539	1546	1546	1546	1553	1553	1553	1553	1553	1553	1553	0	0	0	0	0	7444	7608	7608	7779	7779	7959	7779	7779	7959	7779	7779	7959	7779	7779	7779	7959	7779	7779	7608	7608	7608	7608	7608	7608	7608	7608	7608	7779	7608	7608	7608	7608	7779	7779	7779	7779	7779	7779	7779	7779	7779	7959	7959	7779	7959	7959	7959	7959	7779	7779	7779	7959	7779	7779	7779	7779	7959	7779	7779	7779	7779	7959	7779	7779	7779	7779	7779	7779	7779	7779	7779	7779	7779	7779	7779	7959	7959	8146	7959	7959	7779	7779	7779	7779	7779	7608	7779	7779	7779	7779	7779	7779	7779	7779	7779	7779	7779	7779	7779	7779	7779	7779	7779	7779	7608	7608	7608	7608	7608	7608	7608	7608	7779	7779	0	0	0	0	3510	3475	3475	3440	3440	3440	3440	3406	3406	3406	3406	3406	3406	3406	3406	3406	3406	3406	3406	3406	3406	3373	3373	3373	3373	3373	3373	3373	3373	3373	3373	3373	3373	3406	3406	3406	3373	3373	3373	3373	3373	3373	3373	3373	3341	3341	3341	3341	3341	3341	3341	3341	3373	3373	3373	3406	3406	3406	3406	3406	3406	3406	3406	3440	3440	3440	3440	3440	3440	3440	3440	3475	3475	3475	3510	3510	3510	3510	3510	0	7959	7959	7959	7959	7959	7959	7959	7959	7959	7959	7959	7959	7779	7779	7779	7444	7444	7444	7608	7779	7779	7779	7959	7959	7959	7779	7959	7959	7959	7959	7779	7959	7959	7779	7779	7779	7779	7779	7779	7779	7779	7779	7779	7779	7779	7779	7779	7779	7779	7779	7779	7779	7779	7779	7779	7779	7608	7779	7779	7779	7779	7779	7779	7779	7959	7779	7779	7959	7959	7959	7959	7779	7779	7959	7779	7779	7959	7779	7959	7959	7959	7959	7959	7779	7779	7779	7779	7779	7608	7608	7779	7608	7608	7608	7608	7608	7608	7608	7608	7779	7779	7608	7608	7779	7779	7608	7444	7444	7444	7608	7608	7608	7608	7608	7779	7779	7779	7779	7608	7779	7779	7779	7779	7959	7959	7959	7779	7779	7608	7779	7608	7779	7779	7779	7779	7959	7959	7779	7779	7779	7779	7608	7608	7608	7608	7608	7608	7608	7608	7608	7779	7779	7608	7608	7779	7608	7608	7608	7608	7959	7959	7959	7959	7959	7959	7959	7959	7959	7959	7959	7959	7959	7959	7959	7959	7959	7959	7959	7959	7959	7959	7959	7959	7959	7959	7779	0	0	0	0	0	0	0	0	0	0	0	0	7779	7779	0	0	0	0	0	0	7959	7959	7959	7959	7959	7959	7959	8146	8146	0	0	0	0	0	0	0	0	0	0	0	0	0	0	1425	1419	1413	1402	1402	1390	1379	1363	1358	1347	1331	1326	1316	1311	1306	1301	1296	1291	1291	1287	1272	1245	1245	1245	1240	1240	1232	1210	1202	1197	1197	1193	1193	1189	1189	1189	1185	1185	1185	1185	1185	1185	1185	1185	1185	0	0	0	0	0	0	0	0	0	0	0	0	0	0	0	0	0	0	0	0	0	0	0	0	0	0	0	0	0	0	0	0	0	0	0	0	0	0	0	0	0	0	0
0	0	0	0	0	972	974	974	974	974	980	983	991	994	997	997	1003	1006	1011	1014	1014	1017	1017	1020	1023	1023	1030	1030	1033	1071	1074	1074	1078	1078	1078	1078	1078	1081	1081	1085	1085	1088	1091	1095	1095	1095	1095	1098	1098	0	0	1539	1532	1532	1532	1532	1532	1532	1532	1532	1539	1546	1539	1539	0	0	0	0	0	0	0	0	0	0	0	0	0	0	0	0	0	0	0	0	0	0	0	0	0	0	0	0	0	0	0	1525	1532	1532	1532	1532	1532	1532	1532	1532	1532	1539	1539	1539	1539	1546	1546	1553	1553	1553	1560	1560	1553	1553	1574	1574	0	0	0	0	0	0	7779	7779	7779	7959	8146	7959	7959	7959	7959	7959	7959	7779	7779	7779	7779	7779	7779	7608	7608	7608	7608	7608	7608	7608	7608	7779	7779	7608	7608	7779	7779	7779	7779	7779	7779	7959	7779	7779	7779	7779	7779	7959	7959	7959	7959	7959	7959	7959	7959	7779	7779	7779	7779	7779	7779	7959	7779	7779	7779	7779	7959	7779	7779	7779	7779	7779	7779	7779	7779	7779	7779	7779	7779	7959	7959	7959	8146	7959	7959	7959	7959	7779	7779	7779	7779	7959	7959	7779	7959	7959	7959	7779	7779	7779	7779	7779	7959	7779	7779	7779	7779	7779	7779	7779	7608	7608	7779	7779	7779	7779	7779	7779	7779	0	0	0	0	3475	3475	3440	3440	3440	3440	3440	3406	3406	3406	3406	3406	3406	3406	3406	3406	3406	3406	3373	3373	3373	3373	3373	3341	3341	3341	3341	3373	3341	3373	3373	3373	3373	3373	3406	3373	3373	3373	3373	3373	3373	3373	3341	3341	3341	3309	3309	3309	3309	3341	3341	3373	3373	3373	3373	3373	3406	3406	3406	3406	3406	3406	3406	3440	3440	3440	3440	3440	3440	3440	3440	3475	3475	3475	3475	3510	3510	3510	3510	0	0	7959	7959	7959	7959	7959	7959	7959	7779	7959	7959	7959	7959	7959	7959	7779	7779	7779	7779	7779	7779	7779	7959	7959	8146	7959	8146	8146	8146	7959	7959	7959	7959	7959	7959	7779	7959	7959	7959	7779	7779	7779	7779	7779	7779	7779	7779	7779	7779	7779	7779	7779	7779	7779	7779	7779	7779	7779	7779	7779	7779	7779	7779	7959	7959	7779	7779	7959	7959	7959	7959	7959	7959	8146	7959	7959	7959	7959	7959	7959	7959	7959	7959	7959	7959	7779	7779	7779	7779	7779	7779	7779	7779	7608	7608	7779	7608	7608	7779	7779	7779	7779	7779	7779	7779	7608	7444	7608	7608	7608	7608	7608	7779	7779	7779	7779	7779	7779	7779	7779	7779	7779	7779	7959	7959	7959	7779	7779	7608	7608	7608	7608	7608	7779	7779	7779	7779	7779	7959	7779	7959	7779	7779	7779	7779	7779	7608	7779	7608	7779	7779	7779	7608	7779	7779	7779	7779	7779	7779	7959	7959	7959	7959	7959	7959	7959	7959	7959	7959	7959	7959	7959	7959	7959	7959	7959	7959	7959	7959	7959	7959	7959	7959	7959	7959	0	0	0	0	0	0	0	0	0	0	0	0	0	7779	7608	7608	7608	0	0	7959	7959	7959	7959	7959	8146	8146	8146	8146	8146	8146	0	0	0	0	0	0	0	0	0	0	0	0	0	0	1419	1419	1413	1396	1396	1379	1374	1363	1358	1347	1336	1326	1316	1311	1306	1301	1301	1291	1291	1287	1249	1245	1245	1245	1240	1236	1210	1206	1202	1197	1193	1193	1193	1193	1189	1189	1185	1185	1185	1185	1185	1185	1185	1185	1185	0	0	0	0	0	0	0	0	0	0	0	0	0	0	0	0	0	0	0	0	0	0	0	0	0	0	0	0	0	0	0	0	0	0	0	0	0	0	0	0	0	0	0
0	0	0	0	0	972	974	974	974	977	983	985	991	994	994	997	997	1008	1014	1017	1017	1020	1020	1020	1023	1030	1033	1033	1058	1061	1068	1068	1071	1074	1078	1074	1078	1081	1081	1081	1085	1088	1088	1095	1095	1098	1098	1098	1098	0	0	1553	1546	1546	1546	1539	1539	1539	1539	1546	1546	1546	1546	1553	1553	0	0	0	0	0	0	0	0	0	0	0	0	0	0	0	0	0	0	0	0	0	0	0	0	0	0	0	0	0	0	0	1532	1532	1539	1539	1539	1539	1539	1539	1546	1553	1553	1553	1553	1553	1553	1553	1553	1553	1560	1560	1560	1574	1574	1589	1589	0	0	0	0	0	7779	7959	7959	8146	8146	7959	7959	7959	7959	7779	7959	7779	7779	7779	7959	7959	7959	7779	7608	7608	7779	7779	7779	7779	7779	7959	7779	7779	7779	7779	7959	7959	7959	7959	7959	7959	7779	7779	7779	7779	7779	7779	7959	7959	7959	7959	7959	7959	7959	7779	7779	7779	7779	7959	7959	7959	7779	7779	7959	7779	7959	7959	7779	7779	7959	7779	7779	7779	7779	7779	7779	7779	7779	7959	7959	7959	8146	7959	7959	7959	7959	7779	7959	7959	8146	8146	8146	8146	7959	7959	7959	7959	7779	7779	7779	7779	7959	7779	7779	7779	7779	7779	7779	7779	7779	7779	7779	7779	7779	7779	7779	7779	0	0	0	0	0	3475	3440	3440	3440	3440	3440	3440	3440	3440	3406	3406	3406	3406	3406	3406	3373	3373	3373	3373	3373	3373	3373	3373	3341	3341	3341	3341	3373	3341	3373	3373	3373	3373	3373	3373	3373	3373	3373	3373	3373	3373	3341	3341	3341	3341	3309	3309	3309	3309	3309	3341	3341	3373	3373	3373	3373	3406	3406	3406	3406	3406	3406	3406	3406	3440	3440	3440	3440	3440	3440	3440	3475	3475	3475	3510	3510	3510	3510	3510	0	0	7959	7959	7959	7959	7959	7959	7959	7779	7959	7959	7959	7959	7779	7959	7779	7779	7779	7779	7779	8146	8146	8146	8146	8146	7959	8146	8146	8146	8146	8146	7959	7959	7959	7959	7959	7959	7959	7959	7959	7959	7959	7959	7959	7959	7959	7959	7779	7779	7779	7779	7779	7779	7779	7779	7779	7779	7779	7959	7779	7779	7779	7959	7959	7959	7779	7959	7959	7959	8146	7959	7959	7959	7959	7959	7959	7959	7959	7959	7959	7959	7959	7959	7959	7959	7959	7959	7779	7779	7779	7779	7779	7779	7779	7779	7779	7779	7779	7779	7779	7959	7779	7779	7779	7779	7779	7608	7608	7608	7608	7608	7608	7779	7779	7959	7959	7779	7779	7779	7779	7779	7779	7779	7959	7959	7959	7959	7959	7779	7779	7779	7779	7779	7779	7779	7779	7779	7959	7959	7959	7959	7959	7959	7959	7779	7779	7779	7779	7779	7779	7779	7779	7779	7779	7779	7959	7779	7779	7959	7959	7959	7959	8146	8146	8146	8146	8146	7959	7959	7959	7959	7959	7959	7959	7959	7959	7959	7959	7959	7959	7959	7959	7959	7959	0	0	0	0	0	0	0	0	0	0	0	0	0	0	7608	7608	7608	7608	0	0	7959	7959	7959	7959	8146	8146	8146	8146	8146	8146	0	0	0	0	0	0	0	0	0	0	0	0	0	0	1419	1419	1419	1413	1396	1396	1385	1374	1358	1352	1347	1336	1326	1316	1311	1306	1301	1296	1291	1296	1287	1249	1245	1245	1245	1236	1232	1223	1206	1202	1197	1193	1193	1193	1189	1189	1189	1185	1185	1185	1185	1185	1185	1185	1185	1185	0	0	0	0	0	0	0	0	0	0	0	0	0	0	0	0	0	0	0	0	0	0	0	0	0	0	0	0	0	0	0	0	0	0	0	0	0	0	0	0	0	0	0
0	0	0	0	0	969	974	977	977	977	983	985	988	991	997	997	1000	1014	1014	1017	1020	1020	1020	1020	1023	1030	1033	1036	1039	1045	1064	1064	1071	1074	1078	1081	1081	1085	1085	1085	1085	1088	1091	1098	1098	1098	1098	1098	0	0	0	1567	1553	1553	1553	1553	1553	1553	1546	1553	1553	1553	1553	1553	1560	1567	1567	0	0	0	0	0	0	0	0	0	0	0	0	0	0	0	0	0	0	0	0	0	0	0	0	0	0	0	0	0	1532	1532	1539	1539	1546	1553	1546	1546	1560	1567	1560	1560	1560	1560	1560	1560	1560	1560	1560	1567	1567	1581	1589	1589	1589	0	0	0	0	0	0	8146	8146	8146	8146	7959	7959	7959	7959	7779	7779	7779	7779	7779	7779	7959	7959	7959	7959	7959	7959	7959	7959	7779	7779	7959	7779	7779	7779	7779	7959	7959	7959	7959	8146	8146	7959	7959	7959	7779	7959	7779	7959	7959	7959	7959	7959	7959	7959	7959	7779	7779	7779	7779	7779	7959	7779	7779	7779	7779	7959	7779	7779	7779	7959	7779	7779	7779	7779	7779	7959	7959	7959	8146	8146	8146	7959	7959	7959	7959	7779	7779	7779	7959	8146	8146	8146	8146	8146	8146	8146	7959	7959	7959	7959	7959	7959	7779	7779	7779	7779	7779	7779	7779	7779	7779	7779	7959	7779	7779	7779	7779	7779	0	0	0	0	3440	3440	3440	3440	3440	3440	3440	3440	3440	3406	3406	3406	3406	3406	3373	3373	3373	3373	3373	3373	3373	3373	3373	3341	3341	3341	3341	3341	3341	3341	3373	3373	3373	3373	3406	3373	3373	3373	3373	3373	3373	3341	3341	3341	3341	3309	3309	3309	3309	3309	3341	3341	3341	3341	3373	3373	3406	3406	3406	3406	3406	3406	3406	3406	3440	3440	3440	3440	3440	3440	3440	3475	3475	3475	3510	3510	3510	3510	3510	0	0	7959	7959	7959	7959	7959	7959	7959	7779	7959	7959	7959	7959	7779	7779	7779	7779	7959	7959	7959	8343	8343	8550	8343	8343	8146	8146	8146	8146	8146	8146	8146	8146	8146	7959	7959	7959	7959	7959	7959	7959	7959	7959	7959	7959	8146	8146	7959	7959	7959	7959	7959	7959	7779	7959	7959	7959	7959	7959	7959	7959	7959	7959	7959	7959	7959	7959	8146	7959	8146	7959	7959	7959	8146	7959	7959	7959	7959	7959	7959	7959	7959	7959	7959	7959	7959	7959	7959	7779	7959	7779	7779	7779	7779	7779	7779	7779	7779	7959	7959	7959	7959	7779	7779	7779	7779	7608	7608	7779	7779	7779	7779	7779	7779	7959	7959	7959	7959	7959	7779	7779	7779	7779	7959	7959	7959	7959	7959	7779	7779	7779	7779	7779	7959	7959	7959	7779	7779	7959	7959	7959	7959	7959	7959	7959	7959	7959	7779	7779	7779	7779	7779	7779	7779	7959	7959	7779	7779	7959	7959	8146	8146	8146	8146	8146	8146	8146	8146	7959	7959	7959	7959	7959	7959	7959	7959	7959	7959	7959	8146	7959	7959	8146	8146	0	0	0	0	0	0	0	0	0	0	0	0	0	0	7608	7608	7608	0	0	0	0	7959	7959	8146	8146	8146	8146	8146	7959	7959	0	0	0	0	0	0	0	0	0	0	0	0	0	0	1419	1419	1419	1413	1402	1396	1396	1358	1358	1352	1347	1336	1326	1316	1311	1306	1301	1296	1291	1296	1291	1249	1245	1245	1245	1240	1236	1236	1206	1197	1193	1193	1193	1189	1189	1189	1189	1185	1185	1181	1181	1181	1185	1185	1185	1185	0	0	0	0	0	0	0	0	0	0	0	0	0	0	0	0	0	0	0	0	0	0	0	0	0	0	0	0	0	0	0	0	0	0	0	0	0	0	0	0	0	0	0
0	0	0	0	0	972	974	977	977	977	983	985	988	991	997	997	1000	1014	1017	1017	1020	1020	1020	1020	1023	1026	1039	1039	1042	1045	1055	1068	1068	1071	1078	1081	1081	1085	1085	1085	1088	1088	1091	1098	1098	1098	1098	1098	0	0	0	1574	1560	1553	1553	1553	1553	1553	1553	1553	1560	1560	1560	1560	1567	1567	1581	1581	0	0	0	0	0	0	0	0	0	0	0	0	0	0	0	0	0	0	0	0	0	0	0	0	0	0	0	0	1532	1532	1539	1546	1560	1560	1553	1560	1567	1574	1567	1574	1567	1567	1567	1567	1567	1567	1574	1574	1581	1581	1589	1589	1589	1589	1589	0	0	0	0	8146	8146	8146	8146	7959	7959	7959	7779	8146	7779	7779	7779	7779	7959	8146	8146	7959	7959	7959	8146	8146	7959	7959	7959	7959	7959	7779	7779	8146	8146	8146	8146	8146	8146	8146	8146	7959	7959	7959	7959	7959	7959	7959	7959	7959	7959	7959	7959	7959	7779	7779	7959	7959	7959	7959	7959	7959	7959	7779	7959	7779	7779	7779	7959	7959	7959	7959	7779	7959	7959	7959	8146	8146	8146	8146	8146	7959	7959	7959	7959	7959	7959	8146	8343	8343	8343	8343	8343	8146	8343	8146	8146	8146	7959	7959	7959	7779	7779	7779	7779	7779	7959	7779	7779	7779	7779	7959	7959	7959	7959	7779	7779	0	0	0	0	3475	3475	3475	3440	3440	3440	3440	3440	3440	3406	3406	3406	3406	3406	3373	3373	3373	3373	3373	3373	3373	3373	3373	3373	3341	3341	3341	3341	3341	3341	3341	3341	3373	3373	3373	3406	3373	3373	3373	3341	3341	3341	3341	3309	3309	3309	3309	3309	3309	3309	3341	3341	3341	3341	3341	3373	3373	3406	3373	3406	3406	3406	3406	3406	3406	3406	3406	3440	3440	3440	3440	3475	3475	3475	3475	3510	3510	3510	0	0	0	8146	7959	7959	7959	7959	8146	7959	7959	7779	7779	7959	7959	7959	7959	7959	7959	7959	7959	7959	7959	8343	8343	8343	8146	7959	8146	8146	8146	8146	8146	8146	8146	8146	7959	7959	7959	7959	7959	7959	7959	8146	8343	8146	8146	8343	8146	7959	7959	7959	7959	7959	7959	7959	7959	7959	7959	7959	7959	7959	7959	7959	8146	8146	7959	7959	7959	7959	7959	7959	7959	7959	7959	7959	7959	7959	7959	7959	7959	7959	7959	7959	7959	7959	7959	7959	7959	7959	7779	7959	7959	7959	7779	7779	7959	7959	7779	7959	7959	7959	7959	7959	7779	7779	7779	7779	7779	7779	7779	7779	7779	7779	7779	7959	7959	7959	7959	7959	7959	7959	7779	7959	7779	7959	7959	7959	7959	7959	7959	7959	7959	7959	7959	7959	7959	7959	7959	7959	7959	7959	7959	7959	7959	7959	7959	7959	7959	7959	7779	7779	7779	7779	7779	7779	7959	7959	7959	7959	7959	7959	8146	8146	8146	8146	8146	8146	8146	8146	8146	7959	8146	8146	8146	8146	7959	7959	7959	7959	7959	8146	8146	8146	8146	8146	8146	0	0	0	0	0	0	0	0	0	0	7959	7959	7959	7959	7779	7779	7779	0	0	0	7959	7959	8146	8146	8146	8146	8146	8146	7959	0	0	0	0	0	0	0	0	0	0	0	0	0	0	0	1419	1419	1413	1402	1402	1402	1358	1358	1347	1342	1336	1326	1316	1311	1306	1301	1301	1296	1296	1287	1249	1245	1245	1240	1236	1232	1227	1202	1193	1193	1193	1189	1189	1189	1189	1189	1189	1185	1185	1185	1185	1185	1185	1185	1185	0	0	0	0	0	0	0	0	0	0	0	0	0	0	0	0	0	0	0	0	0	0	0	0	0	0	0	0	0	0	0	0	0	0	0	0	0	0	0	0	0	0	0
0	0	0	0	0	972	974	977	977	977	985	988	991	994	997	997	997	1003	1014	1017	1017	1020	1020	1023	1023	1026	1036	1039	1039	1045	1045	1064	1068	1071	1074	1081	1081	1081	1085	1085	1088	1091	1095	1098	1098	1102	1102	1102	0	0	0	1574	1574	1560	1560	1560	1560	1560	1553	1560	1560	1560	1560	1560	1567	1574	1581	1581	1581	0	0	0	0	0	0	0	0	0	0	0	0	0	0	0	0	0	0	0	0	0	0	0	0	0	0	0	0	0	1539	1560	1560	1567	1567	1581	1581	1581	1581	1581	1581	1574	1574	1574	1574	1574	1581	1574	1581	1581	1589	1589	1596	1618	1618	0	0	0	0	0	8146	8343	8343	8146	8146	8146	7959	8146	7779	7779	7779	7779	7959	8146	8146	8146	8146	8146	8146	8146	8146	7959	7959	7959	8146	7959	7959	8146	8146	8146	8343	8146	8146	8146	8146	8146	7959	7959	7959	7959	7959	7959	7959	7959	7959	7959	7959	7959	0	0	7959	7959	7959	7959	7959	7959	7959	7959	8146	7959	7959	7959	7959	7959	7959	7779	7779	7779	7959	8146	8146	8146	8146	8146	8146	8146	8146	7959	7959	8146	8146	8146	8146	8343	8343	8343	8343	8343	8343	8343	8146	8146	7959	7959	7959	7779	7779	7779	7779	7959	7959	7779	7779	7779	7959	7959	7959	7959	7959	7959	0	0	0	0	0	3475	3510	3475	3475	3440	3440	3440	3440	3440	3406	3406	3406	3406	3373	3373	3373	3373	3373	3373	3373	3373	3341	3341	3373	3341	3341	3341	3341	3341	3341	3373	3373	3373	3373	3373	3373	3373	3341	3341	3341	3341	3341	3309	3309	3309	3309	3309	3309	3309	3309	3309	3341	3341	3341	3341	3373	3373	3373	3373	3373	3406	3406	3406	3406	3406	3406	3406	3440	3440	3440	3440	3475	3475	3475	3510	3510	3510	3510	0	0	0	8146	7959	7959	8146	8146	8146	7959	7959	7779	7959	7959	7959	7959	7959	7959	7959	8146	7959	7959	7959	8343	8343	8343	8343	8146	8343	8343	8343	8343	8343	8343	8343	8146	8146	7959	8146	8146	8146	8146	8146	8343	8343	8343	8146	8146	8146	7959	7959	7959	7959	7959	7959	7959	7959	7959	7959	8146	8146	8146	8146	8146	8146	8146	8146	8146	7959	7959	7959	7959	7959	7959	7959	7959	7959	7959	7959	7959	7959	7959	7959	8146	8146	7959	8146	7959	7959	7959	7959	7959	7779	7959	7959	7779	7959	7959	7959	7959	7959	7959	7959	7959	7779	7779	7779	7779	7779	7779	7779	7779	7779	7779	7959	7959	7959	7959	7959	7959	7959	7959	7959	7959	7779	7959	7959	7959	7959	7959	7959	7959	7959	7959	7959	7959	7959	7959	7959	7959	7959	7959	7959	7959	7959	7959	7959	7959	7959	7959	7959	7959	7959	7959	7959	7959	7959	8146	7959	7959	7959	7959	8146	8146	8146	8146	8146	8146	8146	8146	8146	8146	8146	8146	8146	8146	8146	7959	7959	8146	8146	8146	8146	8146	8146	8146	8146	8146	8146	8146	7959	7959	7959	7959	8146	7959	7959	7959	7959	7959	7779	7608	7779	7779	7779	7779	7779	7959	7959	8146	8146	8146	8146	8146	8146	8146	0	0	0	0	0	0	0	0	0	0	0	0	0	0	0	1419	1419	1413	1402	1402	1402	1402	1342	1336	1336	1326	1321	1311	1311	1301	1301	1296	1291	1296	1268	1249	1245	1245	1240	1236	1227	1227	1197	1193	1193	1193	1189	1189	1189	1189	1189	1189	1185	1185	1185	1181	1181	1181	1185	1185	0	0	0	0	0	0	0	0	0	0	0	0	0	0	0	0	0	0	0	0	0	0	0	0	0	0	0	0	0	0	0	0	0	0	0	0	0	0	0	0	0	0	0
0	0	0	0	0	0	974	977	977	980	988	988	994	994	1000	1000	1000	1006	1014	1017	1017	1020	1020	1020	1023	1023	1039	1039	1039	1042	1045	1064	1068	1068	1078	1081	1081	1081	1085	1085	1088	1091	1095	1098	1102	1102	1102	1102	0	0	0	1581	1574	1567	1567	1574	1574	1560	1560	1567	1574	1567	1567	1567	1574	1581	1589	1589	1596	1596	0	0	0	0	0	0	0	0	0	0	0	0	0	0	0	0	0	0	0	0	0	0	0	0	0	0	0	0	0	1560	1567	1574	1574	1589	1589	1589	1581	1581	1581	1581	1581	1581	1581	1589	1589	1589	1596	1596	1596	1596	1611	1618	1634	1634	1634	0	0	0	0	8343	8343	8146	7959	7959	7959	7959	7959	7959	7959	7959	8146	8146	8146	8146	8146	8146	8146	8146	8146	8146	8146	8146	8146	8146	8343	8146	8146	8146	8343	8343	8343	8146	8146	8146	8146	7959	7959	7959	7959	7959	8146	8146	8146	8146	8146	8146	8146	8146	7959	7959	7959	7959	7959	7959	7959	7959	8146	7959	7959	7959	7959	7959	7959	7959	7959	7959	8146	8146	8146	8146	8146	8146	8146	8146	8146	8146	8146	8146	8146	8343	8343	8343	8343	8343	8550	8550	8550	8343	8343	8343	8146	8146	8146	7959	7959	7959	7959	7959	7959	7959	8146	8146	8146	8146	8146	7959	7959	7959	0	0	0	0	0	3475	3510	3475	3440	3440	3440	3440	3440	3440	3406	3406	3406	3406	3373	3373	3373	3373	3373	3373	3373	3373	3341	3341	3373	3341	3341	3341	3341	3341	3341	3341	3373	3373	3373	3373	3373	3373	3341	3341	3341	3341	3341	3341	3309	3309	3309	3309	3309	3309	3309	3309	3341	3341	3341	3341	3341	3373	3373	3373	3373	3406	3406	3406	3406	3406	3406	3406	3440	3440	3440	3440	3475	3475	3475	3510	3510	3510	3510	3475	3475	0	8343	8146	8146	8343	8146	8146	7959	7959	7959	7959	7959	7959	7959	7959	8146	8146	8146	8146	8146	8343	8343	8550	8550	8343	8343	8343	8343	8343	8343	8146	8343	8343	8146	8146	7959	8146	8146	8146	8146	8146	8343	8343	8343	8146	8343	8146	8146	7959	8146	8146	8146	8146	8146	8146	8146	8146	8146	8146	8146	8146	8146	8146	8146	8146	8146	7959	7959	7959	7959	7959	7959	7959	7959	7959	7959	7959	7959	7959	7959	8146	8146	8146	8146	8146	8146	8146	7959	7959	7959	7959	7959	7959	7959	7959	7959	7959	7959	7959	7959	7959	8146	7959	7779	7779	7779	7779	7779	7779	7779	7779	7959	7959	8146	8146	8146	8146	7959	7959	7959	7959	7959	7779	7959	7959	7959	8146	8146	7959	7959	7959	7959	7959	7959	7959	7959	7959	7959	7959	7959	7959	8146	8146	8146	8146	8146	8146	8146	8146	8146	8146	8146	8146	8146	8146	8146	8146	8146	8146	8146	8146	8146	8146	8146	8146	8146	8146	8146	8146	8146	8146	8146	8146	8146	8146	8146	8146	8146	8146	8146	8146	8146	8146	8146	8146	8146	8146	8146	8146	8146	8146	8146	8146	8146	7959	7959	7959	7959	7959	7779	7959	7959	7959	7959	7959	7959	7959	8146	8146	8146	8146	8146	8146	8146	0	0	0	0	0	0	0	0	0	0	0	0	0	0	0	1419	1419	1413	1407	1402	1402	1402	1342	1342	1336	1326	1321	1311	1306	1301	1301	1296	1296	1296	1268	1249	1245	1245	1240	1236	1227	1202	1197	1193	1193	1193	1189	1189	1189	1189	1189	1189	1189	1185	1185	1181	1177	1177	1181	1181	0	0	0	0	0	0	0	0	0	0	0	0	0	0	0	0	0	0	0	0	0	0	0	0	0	0	0	0	0	0	0	0	0	0	0	0	0	0	0	0	0	0	0
0	0	0	0	0	0	974	974	977	980	980	991	991	997	1000	1000	1003	1003	1014	1017	1017	1020	1020	1023	1023	1026	1036	1039	1042	1045	1048	1064	1064	1068	1078	1078	1078	1081	1085	1085	1085	1088	1095	1098	1102	1102	1102	1102	0	0	1589	1589	1581	1567	1574	1581	1581	1574	1574	1567	1581	1574	1574	1581	1589	1596	1596	1603	1603	1611	1611	0	0	0	0	0	0	0	0	0	0	0	0	0	0	0	0	0	0	0	0	0	0	0	0	0	0	0	0	0	1567	1574	1574	1589	1589	1589	1589	1589	1589	1596	1596	1596	1596	1603	1603	1603	1603	1603	1603	1603	1611	1618	1626	1618	1618	1618	0	0	0	0	0	8146	7959	7959	7959	7779	7779	7779	7959	7959	8146	8146	8146	8146	8146	8146	8146	8146	8146	8146	8146	8146	8146	8343	8343	8343	8343	8146	8343	8343	8343	8343	8146	8146	8146	8146	8146	8146	7959	8146	8146	8146	8146	8146	8146	8146	8146	8146	8146	8146	8146	8146	7959	7959	8146	7959	8146	8146	7959	7959	7959	7959	8146	8146	8146	8146	8343	8343	8343	8343	8343	8343	8343	8146	8146	8146	8146	8146	8146	8146	8343	8343	8343	8343	8343	8550	8550	8550	8343	8343	8343	8343	8146	7959	7959	8146	8146	8146	8146	8146	8146	8146	8146	8146	8146	8146	8146	0	0	0	0	0	0	3475	3475	3475	3475	3440	3440	3440	3440	3440	3440	3406	3406	3406	3406	3373	3373	3373	3373	3373	3373	3373	3341	3373	3341	3341	3341	3341	3341	3341	3341	3373	3373	3341	3373	3373	3373	3341	3341	3341	3341	3309	3309	3309	3309	3309	3341	3309	3341	3309	3309	3341	3341	3341	3341	3341	3341	3373	3373	3373	3373	3406	3406	3406	3406	3406	3406	3406	3440	3440	3440	3440	3475	3475	3510	3510	3510	3475	3475	3475	3475	0	8343	8343	8146	8343	8146	8343	8146	8146	7959	8146	7959	7959	7959	7959	7959	7959	7959	7959	8146	8146	8343	8343	8343	8343	8343	8343	8343	8343	8146	8146	8343	8343	8146	8146	8146	8146	8146	8146	8146	8343	8343	8343	8343	8343	8343	8343	8146	8146	8146	8343	8343	8343	8146	8146	8343	8146	8146	8146	8146	8146	8146	8146	8146	8146	8146	8146	8146	7959	7959	7959	7959	7959	7959	7959	7959	7959	7959	7959	8146	8146	8146	8146	8146	8146	8343	8343	8146	8146	8146	8146	8146	7959	7959	7959	8146	7959	7959	7959	7959	8146	8146	7959	7959	7779	7779	7779	7779	7779	7779	7779	7959	7959	8146	8146	8146	7959	7959	7959	7959	7959	7959	7959	8146	7959	7959	7959	8146	7959	7959	7959	7959	8146	8146	8146	8146	7959	7959	8146	8146	8146	8146	8146	8146	8146	8146	8146	8146	8146	8146	8146	8146	8146	8343	8343	8343	8146	8146	8146	8146	8146	8146	8146	8146	8146	8146	8146	8146	8146	8146	8146	8146	8146	8146	8146	8146	8146	8146	8146	8146	8146	8146	8146	8146	8146	8146	8146	8146	8146	8146	8146	8146	8146	7959	7959	7959	7959	7959	7959	7779	7959	7959	7959	7959	7959	8146	8146	8146	8146	8146	8146	8146	8146	8146	0	0	0	0	0	0	0	0	0	0	0	0	0	0	0	1419	1419	1413	1407	1402	1402	1402	1342	1342	1336	1316	1316	1311	1306	1301	1296	1296	1296	1296	1259	1249	1245	1245	1240	1232	1223	1202	1197	1193	1193	1193	1189	1189	1189	1189	1189	1189	1189	1185	1185	1181	1181	1177	1181	1181	0	0	0	0	0	0	0	0	0	0	0	0	0	0	0	0	0	0	0	0	0	0	0	0	0	0	0	0	0	0	0	0	0	0	0	0	0	0	0	0	0	0	0
0	0	0	0	0	0	974	974	977	980	980	988	991	991	997	1000	1006	1006	1014	1017	1020	1020	1020	1023	1026	1030	1039	1042	1042	1045	1048	1058	1061	1068	1068	1078	1078	1081	1085	1085	1088	1091	1095	1098	1102	1098	1102	1102	0	0	1589	1596	1589	1581	1589	1589	1589	1589	1581	1618	1596	1596	1596	1603	1603	1611	1611	1611	1611	1611	1618	1618	0	0	0	0	0	0	0	0	0	0	0	0	0	0	0	0	0	0	0	0	0	0	0	0	0	0	0	0	0	0	1574	1589	1603	1603	1596	1596	1596	1603	1603	1603	1611	1611	1611	1611	1611	1611	1603	1603	1618	1626	1634	1634	1634	1673	1673	0	0	0	0	0	7959	8146	8146	7959	7959	7959	8146	8146	8146	8146	8343	8343	8146	8146	8146	8146	8146	8343	8146	8146	8146	8343	8343	8343	8146	8146	8343	8343	8343	8343	8146	8146	8146	8146	8146	8146	8146	8146	8146	8146	8146	8146	8146	8146	8146	8146	8146	8146	8146	8146	8146	8146	8146	8146	8343	8146	8146	8146	8146	8146	8146	8343	8343	8343	8343	8343	8343	8343	8343	8343	8343	8343	8343	8146	8146	8146	8146	8146	8343	8343	8343	8343	8550	8550	8550	8550	8550	8550	8343	8343	8146	8146	7959	8146	8146	7959	8146	8343	8343	8343	8146	8146	8343	8146	8146	0	0	0	0	0	3510	3475	3475	3510	3475	3440	3440	3440	3440	3440	3440	3406	3406	3406	3406	3373	3373	3373	3373	3373	3373	3373	3341	3373	3341	3341	3341	3341	3309	3341	3341	3341	3341	3341	3373	3373	3373	3341	3341	3341	3341	3341	3341	3341	3341	3341	3341	3341	3341	3309	3309	3309	3309	3309	3309	3309	3341	3341	3341	3373	3373	3406	3406	3406	3406	3406	3406	3406	3440	3440	3440	3440	3440	3475	3510	3510	3510	3475	3475	3475	3475	0	8343	8343	8343	8343	8343	8343	8343	8343	8146	8146	8146	7959	7959	7959	8146	8146	8146	8146	8343	8550	8550	8550	8550	8550	8343	8343	8343	8343	8146	8146	8343	8343	8343	8146	8146	8343	8343	8343	8146	8343	8343	8343	8343	8343	8343	8343	8146	8343	8343	8343	8343	8343	8146	8343	8343	8146	8146	8146	8343	8146	8343	8146	8146	8146	8146	8146	8146	7959	7959	7959	7959	7959	7959	7959	7959	7959	7959	7959	8146	8146	8146	8146	8146	8343	8343	8343	8146	8146	8146	8146	8146	7959	7959	7959	7959	7959	7959	7959	7959	7959	8146	7959	7959	7959	7959	7959	7959	7779	7959	7959	7959	7959	7959	7959	7959	7959	7959	7959	7959	7779	7959	7779	7959	7959	7959	7959	8146	7959	7959	8146	8146	8146	8146	8146	8146	8146	8146	8146	8146	8146	8146	8146	8146	8146	8146	8146	8146	8146	8146	8146	8146	8146	8343	8343	8343	8343	8146	8146	8146	8146	8146	7959	7959	8146	8146	8146	8146	8146	8146	8146	8146	8146	8146	8146	8146	8146	8146	8146	8146	8146	8146	8146	8146	8146	8146	8146	8146	8146	8146	8146	8146	8146	8146	7959	7959	7959	7959	7959	7959	7959	7959	8146	8146	8146	8146	8146	8146	8146	8146	8146	8146	8146	8146	0	0	0	0	0	0	0	0	0	0	0	0	0	0	0	1419	1413	1413	1407	1402	1407	1402	1402	1342	1321	1316	1316	1311	1306	1301	1301	1296	1296	1296	1249	1245	1240	1240	1236	1227	1214	1197	1197	1193	1193	1193	1189	1189	1189	1189	1189	1189	1189	1185	1185	1177	1177	1177	1177	1177	0	0	0	0	0	0	0	0	0	0	0	0	0	0	0	0	0	0	0	0	0	0	0	0	0	0	0	0	0	0	0	0	0	0	0	0	0	0	0	0	0	0	0
0	0	0	0	0	0	972	972	974	977	985	985	991	994	997	1003	1003	1008	1017	1017	1020	1020	1023	1023	1026	1030	1039	1042	1045	1048	1048	1055	1061	1068	1068	1078	1078	1081	1085	1085	1085	1088	1091	1098	1102	1102	1102	1102	0	0	1603	1603	1596	1596	1603	1603	1603	1603	1596	1596	1611	1611	1611	1611	1611	1611	1611	1611	1611	1611	1618	1618	0	0	0	0	0	0	0	0	0	0	0	0	0	0	0	0	0	0	0	0	0	0	0	0	0	0	0	0	0	0	0	0	1603	1603	1603	1611	1611	1611	1618	1618	1618	1618	1618	1611	1611	1611	1611	1611	1611	1634	1641	1657	1665	1673	1673	0	0	0	0	0	0	8146	8146	8146	7959	7959	8146	8146	8146	8146	8146	8146	8146	8146	8146	8146	8146	8343	8343	8146	8343	8343	8343	8343	8146	8146	8343	8343	8343	8343	8146	8146	8146	8146	8146	8146	8146	8146	8146	8146	8146	8146	8146	8146	8146	8146	8146	8146	8146	8146	8146	8146	8146	8146	8146	8343	8343	8343	8343	8343	8343	8343	8343	8343	8343	8343	8343	8343	8343	8343	8343	8343	8343	8343	8343	8146	8146	8146	8343	8343	8343	8343	8550	8550	8550	8550	8550	8550	8343	8343	8146	8146	8146	8146	8146	8146	8146	8343	8343	8343	8146	8343	8343	8343	8343	0	0	0	0	0	3510	3510	3510	3510	3475	3475	3440	3440	3440	3440	3440	3406	3406	3406	3406	3406	3373	3406	3373	3373	3373	3373	3373	3373	3341	3341	3341	3341	3309	3309	3309	3341	3341	3341	3373	3373	3373	3341	3341	3341	3341	3309	3309	3341	3341	3341	3341	3341	3341	3341	3309	3309	3309	3341	3341	3309	3341	3341	3341	3341	3373	3406	3406	3406	3406	3406	3406	3406	3440	3440	3440	3440	3475	3475	3510	3510	3510	3475	3475	3475	3475	0	8146	8146	8146	8343	8343	8343	8343	8343	8343	8343	8343	8146	8146	8146	8146	8146	8343	8343	8343	8550	8550	8550	8550	8550	8550	8343	8343	8343	8343	8146	8343	8343	8343	8343	8343	8343	8343	8146	8146	8146	8146	8343	8343	8343	8146	8343	8146	8343	8343	8343	8343	8343	8343	8343	8343	8343	8146	8343	8343	8146	8343	8146	8146	8146	8146	8343	8146	8146	8146	8146	7959	7959	7959	7959	7959	7959	7959	7959	7959	8146	8146	8343	8146	8343	8343	8343	8146	8146	8146	8146	8146	7959	7959	7959	8146	7959	7959	7959	7959	7959	8146	7959	7959	7959	7959	7959	7959	7959	7959	7959	8146	8146	8146	7959	7959	7959	7959	7959	7959	7779	7959	7779	7959	7959	7959	7959	8146	7959	7959	7959	8146	8146	8146	8146	8146	8146	8146	8146	8146	8146	8146	8146	8146	8146	8146	8146	8146	8146	8146	8146	8146	8146	8343	8343	8550	8343	8343	8343	8146	8146	8146	7959	7959	7959	8146	8146	8146	8146	8146	8146	8146	8146	8146	8146	8146	8146	8146	8146	8146	8146	8146	8146	8146	8146	8146	8146	8146	8146	8146	8343	8146	8146	8146	8146	8146	7959	7959	7959	7959	7959	8146	8146	8146	8146	8146	8343	8343	8343	8146	8146	8146	8146	8146	0	0	0	0	0	0	0	0	0	0	0	0	0	0	0	1419	1419	1413	1413	1413	1407	1407	1321	1321	1316	1311	1311	1311	1306	1301	1301	1296	1296	1296	1245	1245	1240	1240	1236	1223	1214	1197	1197	1193	1189	1189	1189	1189	1189	1189	1185	1189	1189	1185	1181	1177	1177	1177	1177	1177	0	0	0	0	0	0	0	0	0	0	0	0	0	0	0	0	0	0	0	0	0	0	0	0	0	0	0	0	0	0	0	0	0	0	0	0	0	0	0	0	0	0	0
