0	0	0	0	0	0	0	0	0	0	0	0	0	0	0	0	0	0	0	0	0	0	0	0	0	0	0	0	0	0	0	0	0	0	0	0	0	0	0	0	0	0	0	0	0	0	0	0	0	0	0	0	0	0	0	0	0	0	0	0	0	0	0	0	0	0	0	0	0	0	0	0	0	0	0	0	0	0	0	0	0	0	0	0	0	0	0	0	0	0	0	0	0	0	0	0	0	0	0	0	0	0	0	0	0	0	0	0	0	0	0	0	0	0	0	0	0	0	0	0	0	0	0	0	0	0	0	0	0	0	0	0	0	0	0	0	0	0	0	0	0	0	0	0	0	0	0	0	0	0	0	0	0	0	0	0	0	0	0	0	0	0	0	0	0	0	0	0	0	0	0	0	0	0	0	0	0	0	0	0	0	0	0	0	0	0	0	0	0	0	0	0	0	0	0	0	0	0	0	0	0	0	0	0	0	0	0	0	0	0	0	0	0	0	0	0	0	0	0	0	0	0	0	0	0	0	0	0	0	0	0	0	0	0	0	0	0	0	0	0	0	0	0	0	0	0	0	0	0	0	0	0	0	0	0	0	0	0	0	0	0	0	0	0	0	0	0	0	0	0	0	0	0	0	0	0	0	0	0	0	0	0	0	0	0	0	0	0	0	0	0	0	0	0	0	0	0	0	0	0	0	0	0	0	0	0	0	0	0	0	0	0	0	0	0	0	0	0	0	0	0	0	0	0	0	0	0	0	0	0	0	0	0	0	0	0	0	0	0	0	0	0	0	0	0	0	0	0	4771	4838	4838	4838	4838	4771	4771	4771	4771	4838	4838	4838	4838	4838	4838	4771	4771	4771	4771	4771	4771	4771	4771	4771	4771	4771	4771	4771	4771	4771	4771	4771	4771	4771	4771	4771	4771	4771	4771	4771	4771	4771	4771	4771	4771	4771	4771	4771	4771	4771	4771	4771	4838	4838	4838	4838	4838	4838	4771	4771	4838	4838	4771	4838	4838	4838	4838	4771	4771	4771	4771	4838	4838	4838	4838	4838	4838	4838	4838	4838	4838	4838	4838	4838	4838	4906	4906	4906	4906	4906	4906	4906	4906	4906	4838	4906	4838	4838	4838	4838	4838	4838	4838	4838	4838	4838	4838	4838	4838	4838	4838	4838	4838	4838	4838	4838	4838	4838	4838	4838	4838	4838	4838	4838	4906	4838	4838	4838	4838	4838	4838	4838	4838	4838	4838	4838	4838	4838	4838	4838	4771	4771	4706	4706	4706	4771	4771	4771	4771	4706	4771	4838	4771	4771	4706	4771	4771	4771	4771	4771	4706	4706	4771	4771	4771	4771	4771	4706	4706	4706	4706	4706	4706	4706	4706	4643	4706	4706	4643	4706	4706	4706	4771	4706	4706	4706	4771	4771	4771	4771	4771	4706	4771	4771	4771	4706	4706	4706	4771	4771	4706	4706	4706	4706	4706	4643	4706	4706	4706	4643	4643	4643	4643	4706	4706	4706	4706	4706	4706	4643	4643	4643	4706	4706	4706	4706	4771	4838	4771	4771	4706	4706	4706	4643	4643	4581	4581	4521	4521	4581	4581	4643	4643	4706	4706	4643	4643	4643	4643	4643	4643	4581	4581	4581	4581	4581	0	0	0	0	0	0	0	0	0	0	0	0	0	0	0	0	0	0	0	0	0	0	0	0	0	0	0	0	0	0	0	0	0	0	0	0
0	0	0	0	0	0	0	0	0	0	0	0	0	0	0	0	0	0	0	0	0	0	0	0	0	0	0	0	0	0	0	0	0	0	0	0	0	0	0	0	0	0	0	0	0	0	0	0	0	0	0	0	0	0	0	0	0	0	0	0	0	0	0	0	0	0	0	0	0	0	0	0	0	0	0	0	0	0	0	0	0	0	0	0	0	0	0	0	0	0	0	0	0	0	0	0	0	0	0	0	0	0	0	0	0	0	0	0	0	0	0	0	0	0	0	0	0	0	0	0	0	0	0	0	0	0	0	0	0	0	0	0	0	0	0	0	0	0	0	0	0	0	0	0	0	0	0	0	0	0	0	0	0	0	0	0	0	0	0	0	0	0	0	0	0	0	0	0	0	0	0	0	0	0	0	0	0	0	0	0	0	0	0	0	0	0	0	0	0	0	0	0	0	0	0	0	0	0	0	0	0	0	0	0	0	0	0	0	0	0	0	0	0	0	0	0	0	0	0	0	0	0	0	0	0	0	0	0	0	0	0	0	0	0	0	0	0	0	0	0	0	0	0	0	0	0	0	0	0	0	0	0	0	0	0	0	0	0	0	0	0	0	0	0	0	0	0	0	0	0	0	0	0	0	0	0	0	0	0	0	0	0	0	0	0	0	0	0	0	0	0	0	0	4771	4771	4771	4771	4771	4771	4771	4771	4771	4771	4771	4771	4771	4838	4771	4771	4771	4771	4771	4771	4838	4771	4771	4838	4838	4771	4771	4771	4838	4838	4838	4771	4838	4838	4838	4838	4838	4838	4838	4838	4838	4771	4771	4771	4771	4771	4771	4771	4771	4838	4771	4771	4771	4838	4838	4838	4838	4838	4838	4838	4771	4771	4771	4838	4838	4838	4838	4838	4838	4838	4838	4838	4838	4838	4771	4838	4838	4838	4771	4771	4771	4771	4771	4771	4771	4771	4771	4771	4771	4771	4771	4771	4771	4771	4771	4771	4771	4771	4771	4771	4771	4771	4771	4771	4771	4771	4838	4838	4838	4838	4838	4838	4771	4771	4771	4838	4838	4838	4838	4838	4838	4838	4838	4838	4838	4771	4838	4906	4838	4838	4906	4838	4906	4838	4838	4838	4906	4906	4906	4838	4906	4838	4906	4906	4838	4906	4906	4906	4906	4906	4906	4906	4838	4838	4838	4838	4838	4838	4838	4906	4906	4906	4906	4906	4906	4906	4838	4838	4838	4838	4838	4838	4838	4838	4838	4838	4906	4838	4906	4906	4838	4838	4838	4838	4838	4838	4838	4838	4838	4838	4838	4838	4838	4838	4838	4771	4771	4771	4771	4771	4771	4771	4771	4771	4771	4838	4838	4838	4771	4771	4771	4771	4771	4771	4771	4771	4771	4771	4771	4838	4838	4771	4771	4771	4771	4771	4706	4706	4706	4771	4771	4771	4771	4706	4771	4838	4838	4838	4838	4706	4706	4771	4771	4771	4771	4706	4706	4706	4706	4706	4706	4771	4706	4771	4771	4706	4706	4706	4706	4706	4706	4706	4706	4706	4643	4643	4643	4706	4706	4643	4706	4771	4771	4706	4643	4643	4643	4643	4706	4643	4706	4771	4771	4771	4771	4706	4771	4706	4706	4643	4581	4643	4643	4643	4643	4643	4643	4706	4706	4706	4706	4706	4706	4706	4706	4643	4581	4581	4643	4643	4643	4643	0	0	0	0	0	0	0	0	0	0	0	0	0	0	0	0	0	0	0	0	0	0	0	0	0	0	0	0	0	0	0	0	0	0	0
0	0	0	0	0	0	0	0	0	0	0	0	0	0	0	0	0	0	0	0	0	0	0	0	0	0	0	0	0	0	0	0	0	0	0	0	0	0	0	0	0	0	0	0	0	0	0	0	0	0	0	0	0	0	0	0	0	0	0	0	0	0	0	0	0	0	0	0	0	0	0	0	0	0	0	0	0	0	0	0	0	0	0	0	0	0	0	0	0	0	0	0	0	0	0	0	0	0	0	0	0	0	0	0	0	0	0	0	0	0	0	0	0	0	0	0	0	0	0	0	0	0	0	0	0	0	0	0	0	0	0	0	0	0	0	0	0	0	0	0	0	0	0	0	0	0	0	0	0	0	0	0	0	0	0	0	0	0	0	0	0	0	0	0	0	0	0	0	0	0	0	0	0	0	0	0	0	0	0	0	0	0	0	0	0	0	0	0	0	0	0	0	0	0	0	0	0	0	0	0	0	0	0	0	0	0	0	0	0	0	0	0	0	0	0	0	0	0	0	4838	4838	4838	4838	4838	4838	4838	4838	4906	4838	4838	4906	4838	4838	4838	4771	4771	4771	4771	4771	4771	4771	4771	4771	4771	4771	4771	4771	4771	4771	4771	4706	4771	4771	4771	4771	4771	4771	4771	4838	4838	4771	4771	4771	4771	4771	4771	4771	4771	4771	4838	4838	4838	4838	4771	4771	4771	4771	4771	4771	4838	4771	4838	4838	4838	4838	4771	4771	4771	4771	4706	4706	4771	4771	4771	4771	4838	4771	4771	4771	4771	4771	4771	4771	4771	4771	4771	4838	4771	4771	4771	4771	4771	4771	4838	4838	4838	4838	4838	4771	4771	4771	4771	4771	4771	4771	4838	4838	4838	4838	4838	4838	4838	4838	4838	4771	4771	4771	4771	4771	4771	4771	4771	4838	4838	4771	4838	4838	4838	4838	4838	4838	4838	4838	4771	4771	4771	4838	4838	4838	4838	4838	4838	4838	4838	4838	4838	4838	4838	4838	4838	4838	4838	4771	4771	4771	4771	4771	4771	4771	4771	4771	4771	4771	4771	4771	4771	4771	4771	4771	4771	4771	4771	4771	4771	4771	4771	4771	4771	4838	4838	4838	4838	4838	4838	4838	4838	4838	4838	4838	4838	4838	4838	4838	4838	4838	4838	4838	4838	4838	4838	4906	4906	4906	4906	4906	4906	4838	4906	4838	4906	4906	4906	4906	4906	4906	4906	4906	4906	4906	4906	4906	4906	4906	4906	4906	4838	4838	4838	4838	4838	4838	4906	4906	4906	4906	4906	4906	4906	4906	4906	4906	4838	4838	4838	4838	4838	4906	4906	4906	4906	4906	4906	4906	4838	4838	4838	4838	4838	4838	4838	4838	4838	4838	4838	4838	4838	4838	4771	4771	4771	4771	4771	4771	4771	4771	4838	4838	4838	4838	4838	4838	4771	4771	4771	4771	4771	4771	4771	4771	4771	4771	4771	4838	4838	4771	4771	4771	4771	4771	4771	4771	4771	4771	4771	4771	4771	4771	4906	4838	4906	4838	4838	4838	4838	4838	4771	4771	4771	4706	4706	4706	4706	4706	4771	4771	4771	4771	4771	4706	4706	4706	4706	4706	4771	4706	4771	4706	4706	4706	4706	4706	4771	4706	4706	4771	4771	4706	4643	4643	4643	4706	4643	4706	4706	4706	4771	4771	4706	4706	4706	4643	4706	4706	4706	4643	4643	4643	4706	4706	4706	4706	4706	4706	4706	4706	4706	4706	4706	4706	4643	4643	4643	4643	4643	4643	0	0	0	0	0	0	0	0	0	0	0	0	0	0	0	0	0	0	0	0	0	0	0	0	0	0	0	0	0	0	0	0	0	0	0
0	0	0	0	0	631	629	631	632	633	636	639	640	640	641	642	642	0	0	0	0	0	671	671	675	676	678	678	678	680	683	690	691	693	697	697	698	698	698	0	714	716	716	760	758	758	756	753	753	753	753	753	753	753	753	755	755	756	756	755	756	756	756	756	760	761	763	765	765	767	767	767	0	795	795	791	793	795	795	795	795	797	797	0	0	0	0	0	1134	1138	1138	1138	1138	1138	1146	1146	1146	0	0	1146	1146	1146	1146	1146	1146	1146	1146	1146	1150	1150	1150	1150	1150	1150	1146	1146	1146	1142	1142	1142	1142	1142	1142	1142	1142	1142	1138	1138	1138	1138	1138	1142	1142	1142	1146	1146	1150	1150	1146	1146	1146	1146	1142	1146	1146	1146	1146	1150	1146	1153	1153	0	0	0	0	0	0	0	0	4977	4977	4906	4906	4906	4906	4906	4838	4906	4838	4838	4838	4838	4838	4906	4906	4906	4838	4838	4906	4838	4838	4771	4771	4771	4838	4838	4838	4838	4838	4838	4838	4838	4838	4838	4838	4838	4838	4838	4838	4906	4906	4906	4838	4838	4838	4838	4906	4977	4977	4977	4977	4977	4977	4906	4906	4906	4838	4838	4838	4838	4838	4838	4838	4838	4838	4838	4838	4906	4906	4906	4906	4906	4838	4838	4838	4771	4771	4771	4771	4771	4771	4771	4771	4771	4771	4771	4771	4771	4771	4771	4706	4771	4771	4771	4771	4771	4771	4838	4838	4838	4771	4771	4771	4706	4706	4771	4771	4771	4771	4838	4838	4838	4838	4838	4771	4771	4771	4771	4771	4838	4771	4771	4838	4838	4838	4771	4771	4771	4771	4771	4771	4771	4771	4771	4771	4838	4838	4838	4771	4838	4838	4838	4771	4771	4771	4771	4838	4838	4771	4771	4771	4771	4771	4838	4838	4838	4838	4838	4838	4771	4838	4838	4838	4838	4771	4838	4838	4838	4838	4838	4838	4838	4838	4838	4838	4838	4838	4838	4838	4771	4771	4838	4838	4838	4838	4838	4838	4838	4838	4838	4838	4838	4838	4771	4771	4771	4838	4838	4838	4838	4838	4838	4838	4838	4838	4838	4838	4838	4838	4838	4838	4838	4771	4771	4771	4771	4771	4771	4771	4771	4771	4771	4771	4771	4771	4771	4771	4771	4771	4771	4771	4771	4771	4771	4771	4771	4771	4838	4838	4838	4838	4906	4838	4906	4906	4906	4838	4838	4838	4838	4838	4838	4838	4838	4838	4838	4838	4838	4838	4838	4906	4906	4906	4906	4906	4906	4906	4906	4906	4906	4906	4906	4906	4906	4906	4906	4906	4906	4906	4906	4906	4906	4906	4906	4906	4906	4906	4906	4906	4906	4838	4906	4906	4906	4906	4906	4906	4906	4906	4906	4906	4838	4906	4906	4906	4906	4906	4906	4906	4906	4906	4906	4906	4906	4906	4906	4906	4906	4906	4906	4906	4906	4906	4906	4906	4838	4838	4838	4838	4771	4771	4771	4771	4838	4838	4838	4906	4838	4906	4838	4838	4771	4771	4771	4771	4771	4771	4771	4771	4838	4838	4771	4838	4838	4771	4771	4771	4771	4771	4771	4771	4771	4838	4838	4838	4838	4838	4906	4906	4906	4906	4906	4906	4838	4838	4771	4706	4771	4706	4706	4771	4771	4706	4771	4771	4771	4771	4771	4771	4706	4771	4771	4771	4706	4706	4771	4706	4706	4706	4706	4771	4771	4771	4771	4771	4771	4706	4643	4643	4706	4706	4706	4706	4706	4706	4771	4771	4706	4706	4706	4771	4706	4771	4838	4838	4771	4771	4838	4838	4771	4771	4771	4771	4771	4771	4706	4771	4771	4706	4706	4643	4706	4706	4706	4706	4706	0	0	0	0	0	0	0	0	0	0	0	0	0	0	0	0	0	0	0	0	0	0	0	0	0	0	0	0	0	0	0	0	0	0
0	0	0	0	0	632	633	633	636	636	638	639	640	641	641	644	642	642	661	661	662	666	670	670	674	675	676	678	679	682	686	690	693	693	697	697	698	700	704	705	713	716	716	760	760	760	758	756	756	755	755	753	755	755	755	755	756	756	756	758	758	758	760	760	758	760	761	763	765	767	767	767	793	793	793	793	795	795	795	797	797	797	797	0	0	0	0	0	1134	1138	1142	1142	1142	1142	1146	1146	1146	1146	1146	1146	1146	1146	1146	1146	1146	1146	1146	1146	1146	1150	1150	1150	1150	1150	1150	1146	1146	1142	1142	1142	1146	1142	1146	1142	1142	1142	1138	1134	1138	1138	1138	1138	1142	1142	1142	1146	1146	1146	1146	1146	1142	1146	1142	1142	1146	1146	1146	1150	1150	1153	1153	0	0	0	0	0	0	0	0	4906	4906	4906	4906	4906	4906	4838	4838	4838	4838	4838	4838	4906	4906	4906	4906	4906	4906	4838	4906	4838	4838	4771	4771	4838	4838	4838	4838	4838	4838	4838	4838	4906	4838	4838	4838	4838	4838	4906	4838	4906	4838	4838	4838	4838	4838	4838	4906	4977	4977	4977	4977	4977	4977	4906	4906	4906	4906	4906	4906	4838	4838	4838	4838	4838	4838	4838	4838	4906	4838	4838	4906	4838	4838	4838	4838	4771	4771	4771	4838	4771	4838	4838	4771	4838	4838	4771	4771	4771	4771	4771	4771	4771	4771	4771	4771	4838	4838	4906	4906	4838	4838	4771	4771	4771	4771	4771	4771	4838	4838	4838	4906	4838	4838	4838	4838	4771	4838	4771	4838	4838	4838	4838	4838	4838	4838	4838	4838	4838	4838	4838	4838	4838	4838	4838	4838	4838	4838	4838	4838	4838	4838	4838	4838	4771	4771	4838	4838	4838	4838	4838	4838	4838	4838	4838	4838	4838	4838	4906	4838	4838	4838	4838	4838	4838	4838	4838	4838	4838	4838	4838	4838	4838	4906	4838	4838	4838	4838	4838	4838	4838	4838	4838	4838	4838	4838	4838	4838	4838	4838	4838	4838	4838	4838	4838	4838	4838	4838	4838	4838	4838	4838	4838	4838	4838	4838	4838	4838	4838	4838	4838	4838	4838	4838	4838	4838	4838	4838	4771	4771	4771	4771	4771	4771	4771	4771	4771	4771	4771	4838	4838	4771	4838	4838	4838	4838	4771	4838	4838	4838	4838	4838	4906	4906	4906	4906	4906	4906	4906	4838	4838	4838	4838	4838	4838	4838	4838	4838	4838	4838	4838	4906	4906	4906	4906	4906	4977	4906	4977	4977	4977	4977	4977	4906	4906	4906	4906	4906	4906	4906	4906	4906	4906	4906	4906	4906	4906	4906	4906	4906	4906	4906	4906	4906	4906	4906	4906	4906	4906	4906	4906	4906	4906	4906	4906	4906	4906	4906	4906	4977	4977	4977	4977	4977	4977	4977	4977	4906	4906	4906	4906	4906	4906	4906	4906	4906	4906	4906	4838	4838	4838	4838	4838	4838	4838	4906	4906	4906	4906	4906	4906	4838	4771	4771	4771	4771	4706	4771	4771	4771	4838	4838	4838	4771	4838	4771	4838	4771	4771	4771	4771	4771	4771	4838	4838	4838	4838	4838	4906	4906	4906	4906	4906	4906	4906	4906	4906	4838	4771	4771	4771	4771	4771	4771	4771	4771	4771	4771	4771	4771	4771	4771	4838	4771	4706	4838	4706	4706	4706	4706	4771	4838	4838	4838	4771	4838	4771	4706	4706	4643	4706	4706	4771	4771	4771	4771	4771	4771	4771	4706	4706	4643	4643	4643	4838	4838	4838	4838	4838	4906	4838	4838	4771	4771	4771	4771	4771	4838	4771	4706	4706	4706	4706	4706	4706	4706	4706	0	0	0	0	0	0	0	0	0	0	0	0	0	0	0	0	0	0	0	0	0	0	0	0	0	0	0	0	0	0	0	0	0	0
0	0	0	0	0	632	634	636	638	636	636	639	640	641	641	642	642	660	660	660	661	663	666	667	671	672	675	676	678	682	686	690	691	693	695	697	698	700	710	710	714	716	716	716	716	760	758	758	756	756	756	755	756	756	755	756	756	756	756	758	758	756	760	760	758	760	761	765	765	765	784	791	791	791	791	793	795	797	797	798	798	798	798	0	0	0	0	1138	1138	1142	1146	1142	1142	1142	1142	1142	1146	1146	1146	1146	1146	1146	1146	1146	1146	1146	1146	1146	1146	1150	1150	1150	1150	1150	1150	1146	1146	1142	1142	1142	1142	1142	1142	1142	1142	1142	1138	1138	1134	1138	1138	1138	1142	1142	1142	1142	1146	1146	1146	1146	1142	1142	1142	1142	1146	1150	1150	1150	1153	1153	1153	0	0	0	0	0	0	0	0	4906	4906	4906	4906	4906	4906	4906	4906	4906	4906	4906	4906	4906	4906	4906	4906	4906	4906	4838	4906	4838	4838	4838	4838	4838	4906	4838	4906	4906	4838	4838	4838	4906	4838	4838	4838	4838	4838	4838	4906	4906	4838	4838	4838	4838	4838	4838	4906	4906	4977	4977	4977	4977	4977	4977	4906	4906	4906	4906	4906	4906	4838	4906	4838	4838	4838	4838	4906	4906	4906	4906	4906	4906	4906	4838	4838	4838	4838	4771	4838	4838	4838	4838	4838	4838	4838	4838	4838	4838	4838	4838	4771	4771	4771	4838	4838	4838	4838	4906	4906	4906	4838	4838	4771	4771	4771	4838	4838	4838	4906	4906	4906	4906	4838	4838	4838	4838	4838	4771	4906	4906	4838	4838	4838	4838	4906	4838	4838	4838	4838	4838	4838	4838	4838	4838	4838	4838	4838	4838	4838	4838	4838	4838	4838	4838	4771	4838	4838	4838	4838	4771	4771	4771	4838	4838	4838	4838	4906	4906	4838	4906	4838	4906	4838	4838	4838	4838	4838	4838	4838	4838	4838	4906	4906	4906	4838	4838	4838	4906	4906	4838	4838	4906	4838	4838	4838	4838	4838	4838	4838	4838	4838	4838	4838	4838	4838	4838	4838	4838	4838	4838	4838	4838	4838	4838	4838	4838	4838	4838	4838	4838	4838	4838	4838	4838	4838	4838	4838	4838	4838	4771	4771	4771	4771	4771	4771	4771	4838	4838	4838	4838	4838	4838	4838	4838	4838	4838	4838	4838	4838	4838	4838	4906	4906	4906	4906	4906	4906	4906	4838	4838	4838	4838	4838	4838	4838	4838	4838	4838	4906	4906	4906	4906	4906	4977	5050	5050	4977	5050	4977	5050	4977	4977	4977	4977	4906	4906	4906	4906	4906	4977	4906	4906	4906	4906	4906	4906	4906	4906	4906	4906	4906	4906	4906	4906	4906	4906	4977	4977	4977	4977	4977	4977	4906	4906	4906	4906	4977	4977	4977	4977	4977	4977	4906	4906	4906	4977	4906	4906	4906	4906	4906	4906	4906	4906	4906	4906	4906	4838	4838	4838	4838	4838	4906	4906	4906	4906	4906	4906	4906	4906	4838	4838	4838	4771	4771	4771	4771	4771	4838	4838	4838	4838	4838	4838	4838	4838	4771	4771	4771	4771	4771	4771	4771	4838	4838	4838	4838	4906	4906	4906	4906	4977	4906	4838	4977	4906	4838	4838	4771	4838	4838	4838	4771	4838	4838	4838	4771	4771	4771	4706	4706	4838	4838	4838	4838	4838	4706	4706	4706	4706	4838	4838	4838	4838	4838	4771	4771	4706	4706	4706	4771	4771	4771	4771	4838	4838	4771	4771	4706	4706	4643	4771	4838	4838	4838	4838	4838	4838	4838	4838	4771	4771	4771	4771	4771	4906	4906	4906	4838	4771	4706	4706	4771	4706	4706	4706	0	0	0	0	0	0	0	0	0	0	0	0	0	0	0	0	0	0	0	0	0	0	0	0	0	0	0	0	0	0	0	0	0	0
0	0	0	0	0	0	634	635	635	636	636	638	639	640	641	644	644	660	660	660	661	663	665	666	669	670	671	671	686	687	687	690	691	691	694	697	698	700	710	708	710	716	716	714	713	713	760	758	760	760	758	760	760	760	758	758	758	758	758	758	758	758	758	758	760	760	761	767	767	775	784	784	786	788	788	791	793	795	795	795	802	808	808	0	0	0	0	1142	1142	1142	1146	1142	1142	1142	1142	1142	1142	1142	1146	1142	1146	1146	1146	1146	1146	1146	1146	1146	1146	1146	1146	1150	1150	1146	1146	1146	1142	1142	1142	1142	1146	1142	1146	1142	1142	1142	1138	1138	1134	1138	1138	1138	1142	1142	1142	1146	1146	1146	1146	1146	1142	1146	1142	1142	1146	1146	1146	1150	1153	1153	1153	0	0	0	0	0	0	0	0	4838	4906	4906	4906	4906	4906	4906	4906	4906	4906	4906	4906	4906	4906	4906	4906	4906	4906	4838	4906	4838	4838	4838	4838	4906	4906	4906	4906	4906	4906	4906	4906	4906	4838	4838	4838	4838	4906	4906	4838	4906	4906	4838	4838	4838	4838	4906	4906	4977	4977	5050	5050	4977	4977	4977	4977	4906	4906	4977	4906	4906	4906	4906	4906	4906	4838	4906	4906	4977	4906	4906	4977	4977	4906	4906	4906	4838	4838	4838	4838	4838	4838	4838	4838	4838	4838	4906	4838	4838	4906	4906	4838	4838	4838	4838	4906	4906	4906	4906	4906	4906	4906	4838	4838	4838	4771	4838	4906	4906	4906	4906	4906	4906	4906	4906	4838	4838	4838	4838	4838	4906	4906	4906	4906	4977	4977	4906	4906	4906	4906	4906	4906	4838	4906	4906	4838	4906	4906	4906	4838	4838	4838	4906	4838	4838	4838	4838	4906	4906	4838	4838	4838	4838	4838	4906	4838	4906	4906	4906	4906	4906	4906	4906	4906	4906	4838	4906	4838	4838	4838	4838	4906	4906	4906	4906	4906	4906	4906	4906	4906	4906	4838	4906	4906	4838	4838	4838	4906	4906	4906	4906	4838	4906	4838	4838	4838	4838	4906	4906	4906	4906	4906	4906	4838	4838	4838	4838	4838	4838	4838	4838	4906	4906	4838	4838	4838	4838	4838	4838	4838	4838	4838	4838	4838	4838	4838	4838	4838	4838	4838	4838	4838	4838	4838	4838	4838	4838	4838	4838	4838	4838	4838	4906	4906	4906	4906	4906	4906	4906	4906	4906	4838	4838	4838	4838	4838	4838	4838	4838	4906	4838	4906	4977	4977	4977	5050	5050	5050	5050	5050	5050	5050	5050	4977	4977	4906	4906	4906	4906	4906	4977	4906	4906	4906	4977	4906	4977	4906	4906	4977	4977	4906	4906	4977	4906	4906	4977	4977	4977	5050	4977	4906	4906	4906	4906	4906	4906	4906	4906	4906	4977	4977	4977	4977	4906	4906	4977	4906	4977	4906	4977	4906	4906	4906	4906	4906	4906	4906	4906	4906	4906	4906	4906	4906	4906	4977	4977	4977	4906	4906	4906	4838	4838	4838	4838	4838	4771	4838	4838	4838	4838	4838	4838	4838	4838	4838	4838	4771	4771	4771	4771	4838	4771	4838	4838	4838	4838	4838	4906	4906	4977	4906	4977	4906	4906	4977	4906	4838	4771	4771	4838	4838	4771	4771	4771	4838	4771	4771	4771	4771	4706	4838	4838	4838	4838	4838	4838	4838	4771	4706	4706	4838	4838	4838	4838	4906	4838	4838	4706	4771	4771	4771	4838	4838	4838	4838	4838	4838	4838	4838	4706	4643	4838	4838	4838	4906	4906	4838	4838	4906	4838	4771	4771	4771	4771	4771	4706	4838	4838	4838	4771	4771	4771	4771	4706	4706	4706	0	0	0	0	0	0	0	0	0	0	0	0	0	0	0	0	0	0	0	0	0	0	0	0	0	0	0	0	0	0	0	0	0	0
0	0	0	0	0	0	640	640	638	638	636	636	639	640	641	641	665	660	660	660	661	663	665	665	667	669	669	669	686	686	689	690	691	691	694	697	698	701	705	708	710	711	716	713	713	716	716	716	760	765	761	765	765	763	763	761	761	760	760	758	760	758	760	760	760	760	760	772	775	775	777	779	780	786	786	793	795	795	795	802	802	808	808	808	0	0	0	1142	1146	1146	1146	1146	1146	1142	1146	1142	1142	1146	1146	1146	1146	1146	1146	1146	1146	1142	1146	1146	1146	1146	1146	1146	1146	1146	1146	1142	1142	1138	1142	1142	1146	1142	1146	1142	1142	1142	1138	1138	1138	1138	1138	1138	1142	1142	1142	1142	1142	1146	1146	1146	1146	1146	1146	1146	1146	1146	1146	1150	1150	1153	1153	0	0	0	0	0	0	0	0	4838	4906	4906	4906	4906	4906	4906	4906	4906	4906	4906	4906	4906	4906	4906	4906	4906	4906	4906	4906	4906	4906	4906	4906	4906	4906	4906	4906	4906	4906	4906	4906	4906	4906	4906	4906	4906	4906	4906	4906	4906	4906	4838	4838	4838	4838	4906	4906	4977	4977	4977	4977	4977	4977	4977	4977	4977	4906	4977	4977	4906	4906	4906	4977	4906	4838	4906	4906	4977	4977	4906	4977	4977	4977	4906	4906	4838	4977	4838	4838	4838	4906	4906	4906	4906	4906	4906	4906	4906	4906	4906	4906	4906	4906	4906	4906	4906	4906	4906	4906	4906	4906	4906	4838	4838	4838	4838	4838	4906	4906	4906	4977	4977	4906	4906	4906	4838	4906	4838	4906	4906	4906	4906	4906	4977	4977	4906	4977	4977	4977	4977	4906	4906	4906	4906	4906	4906	4906	4906	4906	4906	4906	4906	4906	4838	4838	4906	4906	4906	4906	4906	4906	4906	4906	4906	4906	4906	4977	4977	4977	4977	4977	4977	4977	4977	4906	4906	4906	4906	4906	4906	4906	4906	4906	4906	4906	4906	4977	4977	4906	4906	4906	4977	4906	4906	4906	4838	4906	4906	4906	4906	4838	4838	4838	4838	4838	4838	4906	4906	4906	4906	4906	4906	4906	4906	4906	4906	4906	4906	4906	4906	4906	4906	4906	4906	4838	4838	4838	4838	4838	4838	4838	4838	4838	4838	4838	4838	4838	4838	4906	4906	4906	4906	4906	4906	4906	4838	4838	4838	4906	4838	4838	4906	4906	4906	4977	4906	4906	4906	4906	4906	4838	4838	4906	4838	4906	4906	4838	4906	4906	4906	4977	4977	4977	4977	5050	5050	5050	5050	5050	5050	5050	4977	4977	4977	4906	4906	4906	4906	4977	4977	4977	4906	4977	4977	4977	4977	4977	4977	4977	4977	4977	4977	4977	4977	4977	4977	5050	5050	5050	5050	4977	4977	4906	4906	4906	4906	4906	4977	4977	4977	4977	4977	4977	4906	4977	4977	4977	4977	4977	4977	4977	4906	4906	4906	4906	4906	4906	4906	4906	4906	4906	4906	4906	4906	4906	4906	4977	4906	4906	4906	4906	4838	4838	4838	4838	4838	4838	4838	4906	4906	4906	4906	4838	4838	4838	4838	4771	4771	4838	4771	4838	4838	4838	4838	4838	4838	4838	4906	4906	4977	4977	4977	4977	4977	4977	4906	4838	4838	4838	4838	4838	4771	4771	4771	4771	4771	4771	4771	4771	4706	4706	4838	4906	4906	4906	4906	4906	4838	4771	4771	4838	4838	4838	4838	4838	4838	4906	4771	4771	4838	4771	4838	4838	4838	4838	4838	4838	4838	4838	4838	4838	4838	4838	4838	4906	4906	4838	4838	4906	4906	4771	4771	4771	4771	4838	4838	4838	4838	4838	4838	4771	4771	4771	4706	4706	4706	0	0	0	0	0	0	0	0	0	0	0	0	0	0	0	0	0	0	0	0	0	0	0	0	0	0	0	0	0	0	0	0	0	0
0	0	0	0	0	0	640	640	635	636	636	635	638	638	640	642	642	660	660	661	662	665	666	666	667	669	669	669	684	686	687	689	690	691	694	697	698	701	705	708	710	711	713	714	713	717	723	723	765	765	765	767	765	765	765	765	765	763	763	761	761	760	761	761	761	763	763	772	773	773	773	779	779	784	784	789	798	800	800	804	808	808	808	808	0	0	0	0	1146	1142	1142	1142	1142	1142	1142	1142	1142	1142	1146	1146	1146	1146	1146	1146	1146	1142	1146	1146	1146	1146	1146	1146	1146	1146	1146	1142	1142	1134	1142	1142	1142	1142	1142	1142	1142	1142	1142	1138	1138	1138	1138	1138	1142	1142	1142	1142	1142	1146	1146	1146	1142	1142	1146	1142	1142	1146	1146	1146	1150	1150	1146	1146	0	0	0	0	0	0	0	4838	4906	4906	4906	4906	4906	4906	4906	4906	4906	4906	4906	4906	4977	4906	4906	4906	4906	4906	4906	4906	4906	4906	4906	4906	4906	4906	4906	4906	4906	4906	4906	4906	4838	4838	4906	4906	4906	4906	4906	4906	4906	4906	4838	4838	4906	4906	4906	4977	4977	5050	4977	4977	4977	4977	4977	4977	4977	4977	4977	4977	4906	4977	4977	4977	4906	4977	4977	4977	4977	4977	5050	4977	4977	4977	4977	4977	4906	4906	4906	4906	4906	4906	4977	4977	4977	4977	4977	4977	4977	4977	4906	4906	4906	4906	4906	4906	4906	4977	4906	4906	4906	4906	4906	4838	4838	4906	4906	4906	4977	4977	4977	4977	4977	4906	4977	4977	4977	4906	4977	4977	4977	4906	4906	4977	4977	4906	4906	4977	4906	4906	4906	4838	4838	4906	4906	4906	4906	4906	4838	4906	4906	4906	4906	4838	4838	4906	4906	4977	4977	4977	4977	4977	4906	4977	4977	4977	4977	4977	4977	4977	4977	4977	4977	4977	4977	4977	4906	4906	4906	4906	4906	4977	4977	4977	4906	4977	4977	4977	4977	4977	4977	4977	4977	4906	4906	4906	4906	4906	4906	4906	4906	4906	4906	4906	4906	4906	4906	4906	4906	4906	4906	4906	4906	4906	4906	4906	4906	4906	4906	4906	4906	4977	4906	4906	4906	4906	4906	4906	4906	4906	4906	4906	4838	4838	4838	4906	4838	4906	4977	4977	4977	4977	4977	4906	4906	4906	4838	4906	4906	4906	4906	4906	4906	4977	4977	4906	4977	4977	4906	4906	4906	4906	4906	4906	4906	4906	4906	4906	4977	4906	4977	4977	4977	5050	5050	5050	5050	5125	5050	5050	5050	5050	5050	4977	4977	4977	4977	4977	4977	5050	5050	4977	5050	5050	5050	5050	5050	4977	5050	4977	4977	4977	4977	4977	4977	5050	5050	5050	5050	5050	4977	4977	4977	4977	4977	4977	4977	4977	4977	5050	5050	5050	4977	4977	4977	5050	4977	4977	4977	4977	4977	4977	4906	4906	4977	4977	4906	4906	4906	4977	4977	4977	4977	4977	4977	4977	4977	4977	4906	4906	4906	4838	4838	4838	4838	4838	4838	4906	4906	4906	4906	4906	4906	4906	4906	4838	4838	4838	4906	4838	4838	4838	4838	4838	4838	4906	4906	4977	4977	4977	4977	4977	4977	4977	4977	4906	4838	4838	4838	4838	4838	4771	4771	4771	4771	4771	4771	4706	4771	4771	4771	4906	4906	4906	4906	4906	4838	4906	4838	4906	4906	4906	4906	4906	4906	4906	4906	4771	4771	4838	4838	4838	4838	4838	4838	4838	4838	4906	4906	4838	4838	4838	4838	4838	4838	4838	4838	4838	4906	4838	4838	4838	4838	4906	4906	4906	4906	4906	4838	4838	4838	4838	4771	4838	4838	4706	0	0	0	0	0	0	0	0	0	0	0	0	0	0	0	0	0	0	0	0	0	0	0	0	0	0	0	0	0	0	0	0	0	0
0	0	0	0	0	0	640	640	636	636	636	638	639	639	641	642	642	647	660	661	663	665	666	666	670	670	670	671	684	686	687	689	690	690	693	697	698	700	704	707	708	711	713	714	716	720	725	726	726	726	765	767	765	765	765	765	765	763	765	763	763	763	763	765	765	765	765	772	773	773	777	779	779	786	786	786	800	800	802	804	808	808	812	812	815	815	0	0	0	1142	1142	1146	1146	1142	1142	1142	1142	1142	1142	1142	1142	1142	1146	1146	1142	1142	1142	1146	1146	1146	1146	1146	1146	1142	1146	1142	1138	1134	1138	1134	1138	1134	1142	1142	1142	1142	1142	1138	1138	1138	1138	1138	1138	1138	1142	1142	1142	1142	1142	1146	1142	1142	1142	1142	1142	1142	1142	1146	1146	1146	1146	1146	0	0	0	0	0	0	0	0	4977	4906	4906	4906	4906	4906	4906	4906	4906	4906	4906	4906	4977	4977	4977	4906	4906	4906	4906	4906	4906	4906	4906	4906	4906	4906	4906	4906	4906	4906	4906	4906	4906	4906	4906	4906	4906	4906	4906	4906	4906	4906	4838	4838	4906	4906	4906	4977	4977	5050	5050	4977	4977	4977	4977	4977	4977	4977	4977	4977	4977	4977	4977	4977	4977	4977	4977	5050	5050	5050	5050	4977	4977	4977	4977	4977	4906	4906	4977	4977	4977	4977	4977	4977	4977	4977	4977	4977	4977	4977	4977	4977	4906	4906	4906	4906	4977	4977	4977	4906	4977	4977	4906	4906	4906	4906	4906	4977	4977	4977	4977	4977	4977	4977	4977	4977	4977	4977	4977	4977	4977	4977	4977	4977	4977	4977	4906	4906	4906	4906	4838	4838	4838	4906	4906	4906	4906	4906	4906	4906	4906	4906	4906	4906	4906	4906	4977	4977	4977	4977	4977	4977	4977	4977	4977	4977	4977	4977	4977	5050	4977	5050	5050	5050	4977	4977	4977	4977	4977	4977	4977	4977	4977	4977	4977	4977	4977	4977	4977	4977	4977	4977	4977	4977	4977	4906	4906	4906	4906	4906	4906	4906	4906	4906	4906	4906	4906	4977	4906	4977	4977	4977	4977	4977	4906	4906	4906	4906	4906	4906	4906	4977	4977	4977	4977	4977	4977	4906	4906	4906	4906	4906	4838	4838	4838	4906	4906	4906	4977	4977	4977	4977	4977	4906	4906	4906	4906	4906	4906	4977	4977	4977	4977	4977	4977	4977	4977	4977	4977	4977	4906	4906	4977	4906	4906	4977	4977	4977	4977	4906	4977	4977	4977	5050	5125	5125	5125	5125	5125	5125	5125	5050	5050	5050	4977	4977	4977	4977	5050	5050	5050	5050	5050	5050	5050	5050	5050	5050	5050	4977	4977	4977	4977	4977	5050	5050	5125	5125	5125	5050	5050	5050	4977	4977	4977	4977	4977	4977	4977	5050	4977	5050	5050	4977	5050	5050	5050	5050	5050	4977	4977	4977	4977	4906	4977	4977	4977	4906	4906	4977	4977	5050	5050	5050	5050	5050	5050	4977	4977	4906	4906	4838	4906	4838	4838	4906	4906	4906	4906	4906	4906	4906	4906	4906	4906	4906	4906	4906	4906	4838	4838	4838	4838	4838	4906	4906	4906	4977	4977	5050	4977	4977	4977	4977	4977	4906	4906	4838	4838	4906	4838	4838	4838	4838	4838	4771	4771	4771	4771	4771	4771	4906	4906	4906	4906	4906	4906	4906	4906	4906	4906	4906	4906	4906	4906	4906	4906	4838	4838	4771	4771	4838	4838	4838	4906	4906	4906	4906	4906	4906	4838	4838	4838	4838	4906	4838	4838	4838	4906	4906	4906	4906	4906	4906	4906	4906	4906	4906	4838	4838	4838	4838	4838	4838	4838	0	0	0	0	0	0	0	0	0	0	0	0	0	0	0	0	0	0	0	0	0	0	0	0	0	0	0	0	0	0	0	0	0	0	0
0	0	0	0	0	0	640	634	634	636	636	636	636	639	641	641	641	660	660	660	662	665	666	667	671	671	671	674	682	686	687	689	690	691	693	697	697	700	701	704	707	708	711	717	720	725	726	726	726	726	726	768	767	767	767	767	767	765	765	765	765	765	767	767	767	768	770	773	773	773	777	782	782	786	786	789	789	802	802	806	806	810	812	815	815	815	0	0	0	0	0	1146	1146	1142	1142	1142	1142	1142	1142	1142	1142	1142	1142	1142	1142	1142	1142	1146	1146	1146	1146	1142	1142	1142	1142	1138	1134	1131	1134	1134	1134	1134	1134	1138	1142	1142	1142	1138	1138	1138	1138	1138	1138	1138	1142	1142	1142	1142	1142	1146	1142	1142	1142	1142	1146	1142	1142	1142	1142	1146	1142	1142	0	0	0	0	0	0	0	0	4977	4977	4977	4906	4906	4906	4977	4977	4906	4906	4977	4977	4977	4977	4977	4977	4977	4906	4906	4906	4906	4906	4906	4906	4977	4977	4906	4977	4906	4906	4906	4906	4906	4906	4906	4906	4906	4906	4906	4906	4906	4906	4838	4838	4906	4906	4977	4977	5050	5050	5050	5050	4977	4977	4977	4977	4977	5050	4977	5050	5050	5050	5050	5050	5050	5050	5050	5050	5050	5050	5050	5050	4977	4977	4977	4977	4977	4977	4977	4977	4977	4977	4977	4977	4977	4977	4977	4977	4977	4977	4977	4977	4977	4977	4977	4977	4977	4977	4977	4977	4977	4977	4906	4906	4906	4977	4977	4977	4977	4977	4977	4977	4977	4977	4977	4977	4977	4977	4977	4977	4977	4977	4977	5050	4977	4977	4977	4977	4977	4906	4906	4838	4838	4906	4906	4906	4977	4977	4977	4977	4977	4977	4977	4977	4977	4977	4977	4977	4977	4977	4977	4977	4977	5050	4977	4977	4977	5050	5050	5050	5050	5050	5050	5050	5050	5050	5050	5050	5050	5050	4977	4977	4977	4977	4977	4977	5050	5050	4977	4977	4977	5050	4977	4977	4977	4977	4906	4906	4906	4906	4977	4977	4906	4977	4977	4977	4977	4977	4906	4977	4977	4977	4977	4977	4977	4906	4906	4906	4906	4906	4977	4977	5050	5050	4977	4977	4977	4977	4906	4906	4906	4906	4906	4906	4906	4977	4977	4977	4977	4977	4977	4977	4977	4906	4906	4906	4906	4906	4977	4977	4977	4977	4977	4977	4977	4977	4977	4977	4977	4977	4977	4977	5050	4977	5050	5050	4977	4977	4977	4977	5050	5050	5050	5050	5125	5125	5125	5125	5125	5125	5125	5050	5050	5050	5125	5050	5050	5050	5050	5050	5050	5050	5125	5050	5050	5125	5050	5050	5050	5050	5050	5050	5050	5050	5050	5125	5125	5125	5125	5125	5050	5050	5050	4977	5050	5050	5050	5050	5050	5050	5050	5050	5050	5050	5050	5050	4977	4977	4977	4977	4977	4906	4906	4906	4906	4977	4977	4977	4977	4977	5050	5050	5050	4977	5050	5050	5050	4977	4977	4906	4906	4906	4906	4906	4906	4906	4906	4906	4906	4906	4977	4977	4906	4977	4977	4906	4906	4906	4906	4906	4838	4838	4838	4906	4906	4906	4906	4977	5050	5050	5050	5050	5050	4977	4977	4906	4906	4906	4838	4906	4838	4838	4838	4838	4838	4771	4771	4771	4771	4838	4838	4906	4906	4977	4906	4906	4906	4906	4906	4906	4906	4906	4906	4906	4906	4906	4906	4838	4838	4838	4838	4838	4906	4906	4977	4977	4906	4906	4906	4906	4906	4838	4838	4838	4906	4838	4838	4838	4906	4906	4906	4906	4906	4906	4906	4838	4838	4838	4838	4838	4838	4838	4838	4906	4906	0	0	0	0	0	0	0	0	0	0	0	0	0	0	0	0	0	0	0	0	0	0	0	0	0	0	0	0	0	0	0	0	0	0	0
0	0	0	0	0	0	631	632	633	635	636	636	639	640	641	641	641	641	660	660	661	663	666	671	672	672	672	675	678	687	687	689	690	691	693	697	698	700	703	705	707	708	711	711	719	725	726	726	728	728	728	768	767	767	767	767	768	767	767	767	767	768	770	770	770	772	772	773	775	777	779	782	782	784	786	788	793	800	802	806	806	810	812	814	814	0	0	0	0	0	0	1146	1142	1142	1142	1138	1138	1138	1142	1142	1142	1142	1142	1142	1142	1142	1142	1142	1146	1142	1142	1142	1142	1142	1142	1138	1138	1134	1134	1134	1134	1134	1134	1138	1138	1142	1138	1138	1138	1138	1138	1138	1138	1138	1138	1142	1142	1142	1142	1142	1142	1142	1146	1142	1142	1142	1142	1146	1142	1146	1146	1142	0	0	0	0	0	0	0	4977	4977	4977	4906	4906	4906	4906	4977	4977	4977	4977	4977	4977	4977	4977	4977	4977	4977	4906	4977	4977	4977	4977	4977	4977	4977	4977	4977	4977	4977	4977	4977	4906	4977	4977	4977	4977	4977	4977	4906	4906	4906	4906	4906	4906	4906	4906	4977	5050	5050	5050	5050	5050	5050	4977	4977	4977	5050	5050	5050	5050	5050	5050	5050	5050	5050	5050	4977	5050	5050	5050	5050	5050	4977	4977	4977	4977	4977	4977	4977	4977	4977	4977	4977	4977	4977	4977	4977	4977	4977	4977	4977	4977	4977	4977	4977	4977	4977	4977	4977	4977	4977	4977	4977	4906	4977	4977	4977	4977	4977	4977	4977	4977	4977	4977	4977	4977	4977	4977	4977	4977	4977	4977	4977	4977	4977	5050	4977	4977	5050	4977	4906	4906	4906	4906	4977	4977	4977	4977	4977	4977	4977	4977	4977	4977	4977	4977	4977	4977	4977	4977	5050	5050	5050	5050	5050	5050	5050	5050	5050	5050	5050	5050	5050	5050	5050	5050	5050	5050	5050	5050	4977	4977	4977	4977	4977	4977	4977	5050	4977	4977	4977	4977	4977	4977	4977	4977	4977	4906	4906	4977	4977	4977	4977	4977	4977	4977	4977	4977	4977	4977	4977	4977	5050	4977	4977	4977	4977	4906	4906	4906	4977	4977	5050	5050	5050	5050	4977	4977	4977	4977	4977	4977	4977	4977	4977	4977	4977	4977	4977	4977	4977	4977	4977	4977	4977	4977	4906	4977	4977	4977	4977	5050	4977	5050	5050	4977	5050	5050	4977	5050	4977	5050	5050	5050	5050	5050	5050	4977	5050	4977	5050	5125	5050	5125	5125	5125	5125	5125	5125	5125	5125	5125	5125	5125	5125	5050	5050	5050	5050	5050	5050	5050	5050	5050	5050	5125	5125	5125	5050	5125	5125	5125	5125	5125	5050	5125	5125	5125	5125	5125	5050	5050	5050	4977	5050	5050	5050	4977	5050	5050	4977	5050	5050	4977	4977	4977	4977	4977	4977	4977	4977	4977	4906	4977	4977	5050	5050	5050	5050	5050	5050	5050	5050	4977	4977	5050	5050	4977	4977	4977	4906	4906	4906	4906	4906	4906	4906	4906	4906	4906	4977	4977	4977	4977	4977	4977	4977	4906	4906	4906	4906	4906	4906	4906	4977	4977	4977	5050	5050	5125	5050	5050	4977	4977	4977	4906	4906	4906	4838	4906	4838	4838	4838	4838	4838	4838	4838	4771	4838	4906	4906	4906	4977	4977	4977	4977	4906	4906	4906	4906	4906	4906	4906	4906	4906	4906	4906	4838	4838	4838	4838	4838	4906	4906	4977	4977	4906	4906	4906	4906	4906	4906	4838	4906	4906	4906	4706	4706	4906	4906	4906	4906	4838	4838	4838	4838	4771	4838	4771	4838	4838	4906	4906	4906	4906	0	0	0	0	0	0	0	0	0	0	0	0	0	0	0	0	0	0	0	0	0	0	0	0	0	0	0	0	0	0	0	0	0	0	0
0	0	0	0	0	628	629	631	631	634	635	636	639	640	641	642	642	651	656	656	656	656	674	674	674	674	675	676	678	684	686	687	689	691	693	697	698	700	703	705	707	708	711	717	716	720	725	726	726	726	726	770	767	767	768	768	768	768	768	768	768	770	772	770	772	772	773	773	773	777	777	779	779	786	788	789	795	795	798	798	808	810	810	810	817	817	0	0	0	0	0	0	1142	1142	1142	1142	1138	1142	1142	1142	1142	1142	1146	1142	1142	1142	1142	1142	1146	1142	1142	1142	1142	1142	1142	1138	1138	1134	1138	1134	1134	1134	1134	1134	1138	1138	1138	1138	1138	1138	1138	1138	1142	1138	1142	1142	1142	1142	1146	1142	1146	1146	1146	1142	1142	1142	1142	1142	1142	1146	1146	0	0	0	0	0	0	0	0	4977	5050	4977	4977	4906	4906	4906	4977	4977	4977	4977	4977	4977	4977	4977	4977	4977	4977	4977	4977	4977	4977	4977	4977	4977	4977	4977	4977	4977	4977	4977	4977	4977	4977	4977	4977	4977	4977	4977	4977	4977	4977	4977	4906	4906	4977	4906	4977	5050	5050	5050	5050	5050	5050	5050	5050	5050	5050	5050	5050	5050	5050	5050	5050	5050	5050	5050	5050	5050	5050	5050	5050	5050	5050	5050	5050	5050	5050	5050	4977	4977	4977	5050	5050	4977	4977	4977	4977	4977	4977	4977	4977	4977	4977	4977	4977	4977	4977	4977	4977	4977	4977	4977	4977	4977	4977	4977	4977	4977	5050	5050	5050	5050	5050	5050	5050	4977	4977	4977	4977	4977	4977	4977	4977	4977	4977	4977	4977	4977	5050	5050	4977	4977	4977	4977	4977	4977	4977	4977	4977	5050	4977	4977	4977	4977	4977	4977	4977	4977	5050	5050	5050	5050	5050	5125	5125	5050	5050	5050	5050	5050	5050	5125	5050	5050	5050	5050	5050	5050	5050	5050	5050	5050	5050	4977	4977	4977	5050	5050	4977	4977	4977	4977	4977	4977	4977	4977	4977	4977	4977	4977	4977	4977	4977	4977	4977	4977	4977	4977	4977	4977	5050	5050	5050	5050	4977	4977	4977	4977	4977	4977	4977	5050	5050	5050	5050	5050	5050	5050	4977	5050	4977	4977	4977	4977	4977	4977	4977	4977	4977	4977	5050	4977	4977	4977	4977	4977	4906	4977	4977	4977	4977	4977	4977	5050	5050	4977	5050	5050	5050	5050	5050	5050	5050	5050	5050	5050	5050	5050	5050	4977	5050	5125	5125	5125	5125	5125	5125	5125	5125	5125	5125	5125	5125	5125	5125	5125	5125	5050	5050	5050	5050	5050	5050	5050	5125	5125	5125	5125	5125	5125	5125	5125	5050	5125	5125	5125	5125	5125	5125	5050	5050	5050	5050	4977	5050	5050	5050	4977	5050	5050	5050	5050	5050	5050	5050	4977	4977	4977	4977	4977	4977	4977	4977	5050	5050	5050	5125	5050	5050	5050	5050	5125	5050	5050	5050	5050	5050	5050	5050	4977	4977	4977	4977	4977	4977	4977	4977	4977	4977	4906	4906	4977	4977	4977	4977	4977	4977	4977	4977	4906	4906	4906	4906	4977	5050	4977	4977	5125	5125	5125	5050	5050	4977	4977	4906	4906	4838	4906	4906	4906	4838	4838	4838	4906	4906	4838	4838	4838	4838	4906	4838	4906	4977	4977	4977	4977	4906	4906	4906	4906	4906	4906	4906	4906	4906	4906	4906	4838	4838	4838	4838	4906	4906	4906	4977	4977	4906	4977	4977	4906	4906	4906	4906	4906	4906	4906	4706	4706	4906	4906	4906	4906	4838	4838	4838	4838	4838	4838	4771	4838	4838	4906	4906	4977	4977	0	0	0	0	0	0	0	0	0	0	0	0	0	0	0	0	0	0	0	0	0	0	0	0	0	0	0	0	0	0	0	0	0	0	0
0	0	0	0	0	628	631	631	632	635	635	636	640	641	642	644	645	651	655	655	655	656	655	655	672	674	676	679	680	684	686	687	690	691	693	697	698	700	703	705	707	708	710	714	714	720	725	726	726	726	726	726	767	772	768	768	768	768	768	772	772	773	773	773	773	773	773	773	775	773	777	779	779	780	780	791	793	797	798	802	802	812	815	815	815	815	0	0	0	0	0	0	1142	1142	1138	1138	1142	1142	1142	1142	1142	1142	1142	1142	1142	1142	1142	1142	1142	1142	1142	1142	1138	1142	1138	1138	1134	1134	1134	1134	1134	1134	1134	1134	1138	1142	1142	1138	1138	1138	1142	1138	1142	1142	1142	1142	1146	1146	1146	1146	1146	1142	1142	1142	1142	1142	1142	1142	1142	1142	1142	1142	0	0	0	0	0	0	0	4977	5050	4977	4977	4977	4977	4977	4977	4977	4977	4977	4977	4977	4977	4977	4977	4977	4977	4977	4977	4977	5050	5050	5050	5050	5050	4977	4977	4977	4977	4977	4977	4977	4977	4977	4977	4977	4977	4977	4977	4977	4977	4977	4977	4977	4977	4977	4977	5050	5050	5050	5050	5050	5050	5050	5050	5050	5050	5050	5050	5125	5050	5050	5050	5050	5050	5050	5050	5050	5050	5050	5050	5050	5050	5050	5050	5050	5050	5050	4977	4977	5050	5050	5050	5050	5050	4977	4977	4977	4977	4977	4977	4977	4977	4977	4977	4977	4977	5050	5050	5050	5050	4977	4977	4977	4977	4977	4977	4977	5050	5050	5050	5050	5050	5050	5050	5050	5050	4977	5050	4977	4977	4977	4977	5050	4977	5050	4977	4977	5050	4977	4977	4977	4977	4977	4977	4977	4977	4977	4977	5050	4977	4977	4977	4977	4977	5050	4977	4977	5050	5050	5050	5050	5050	5125	5050	5050	5050	5050	5050	5050	5050	5125	5050	5050	5050	5050	5125	5050	5050	5050	5050	5050	5050	4977	4977	5050	5050	5050	5050	4977	5050	5050	5050	5050	4977	5050	5050	4977	4977	4977	4977	4977	4977	5050	4977	5050	5050	5050	5050	5050	5050	5050	5050	5050	5050	5050	5050	5050	5050	5050	5050	5050	5050	5050	5050	5050	5050	5050	5050	5050	5050	5050	5050	5050	4977	4977	4977	4977	4977	4977	4977	4977	4977	4977	4977	4977	4906	4977	4977	4977	4977	4977	4977	5050	5050	5050	5050	5050	5050	5050	5050	5050	5050	5050	5050	5050	5050	5050	5050	5050	5125	5125	5125	5125	5125	5125	5125	5125	5125	5125	5125	5125	5125	5125	5125	5125	5125	5125	5125	5050	5125	5125	5125	5050	5125	5125	5125	5125	5125	5125	5125	5125	5125	5125	5125	5125	5125	5125	5125	5125	5125	5050	4977	4977	5050	5050	5050	5050	5125	5125	5050	5125	5050	5050	5050	4977	4977	4977	4977	5050	4977	4977	4977	5050	5050	5050	5050	5050	5050	5050	5050	5125	5050	5050	5050	5050	5050	5125	5050	5050	5050	5050	5050	5050	4977	4977	4977	4977	4977	4906	4906	4906	4977	4977	4977	4977	4977	4977	4977	4977	4977	4977	4977	5050	5050	5050	5050	5050	5125	5050	5050	5050	4977	4977	4977	4906	4977	4977	4977	4906	4906	4906	4977	4977	4906	4906	4906	4906	4906	4906	4906	4906	4977	5050	4977	5050	4977	4906	4838	4906	4906	4838	4906	4838	4906	4838	4906	4838	4906	4906	4906	4906	4906	4906	4977	4977	4906	4977	4977	4977	4977	4906	4906	4906	4977	4977	4706	4706	4977	4906	4706	4906	4838	4838	4838	4838	4838	4838	4838	4838	4838	4906	4906	4977	4977	4977	0	0	0	0	0	0	0	0	0	0	0	0	0	0	0	0	0	0	0	0	0	0	0	0	0	0	0	0	0	0	0	0	0	0
0	0	0	0	0	628	627	627	631	635	635	641	641	642	642	644	645	651	651	655	655	655	653	653	674	676	676	679	679	683	684	687	690	693	694	697	698	700	701	705	707	708	717	719	719	720	720	725	726	726	726	726	726	726	773	768	772	770	770	775	775	775	775	775	773	775	775	775	775	777	777	779	780	782	782	791	795	797	798	800	800	810	815	815	817	817	819	819	0	0	0	0	0	0	1138	1138	1142	1142	1142	1142	1142	1142	1142	1142	1142	1142	1142	1142	1138	1138	1138	1138	1138	1138	1138	1138	1138	1134	1134	1134	1134	1134	1134	1134	1138	1142	1142	1142	1142	1142	1142	1142	1142	1142	1142	1142	1146	1146	1146	1142	1146	1146	1146	1142	1142	1142	1142	1142	1138	1142	1142	1142	0	0	0	0	0	0	0	0	5202	5125	5050	4977	4977	4977	4977	4977	4977	4977	4977	4977	4977	4977	4977	4977	4977	4977	4977	4977	4977	5050	4977	5050	4977	4977	4977	4977	4977	4977	4977	4977	4977	4977	4977	4977	5050	5050	5050	5050	5050	5050	5050	4977	5050	4977	4977	5050	5050	5050	5050	5050	5050	5050	5050	5050	5050	5050	5125	5125	5125	5125	5050	5050	5050	5050	5050	5050	5125	5125	5125	5125	5050	5050	5050	5050	5050	5050	4977	4977	5050	5050	5050	5050	5050	5050	5050	5050	5050	4977	4977	4977	4977	5050	5050	5050	5050	5050	5050	5050	5050	5050	4977	4977	5050	4977	4977	5050	5050	5050	5050	5050	5050	5050	5050	5050	5050	5050	5050	5050	5050	5050	5050	5050	4977	5050	4977	4977	4977	4977	4977	4977	4977	4977	4977	4977	4977	4977	4977	5050	5050	4977	4977	4977	4977	5050	4977	5050	5050	5050	5050	5050	5050	5050	5125	5125	5050	5125	5125	5050	5125	5125	5050	5050	5050	5125	5125	5050	5050	5050	5050	5050	5050	5050	5050	5050	5050	5050	5050	5050	5050	5050	4977	5050	4977	5050	5050	4977	4977	4977	4977	4977	4977	5050	5050	5050	5050	5050	5050	5050	5050	5050	5050	5050	5050	5050	5050	5050	5050	5050	5050	5050	5050	5050	5050	5050	5050	5050	4977	5050	5050	5050	5050	5050	4977	4977	4977	4977	4977	5050	5050	4977	4977	5050	5050	5050	4977	5050	5050	5050	5050	5050	5050	5050	5050	5050	5050	5050	5050	5050	5050	5050	5125	5050	5050	5125	5050	5050	5050	5050	5125	5125	5125	5125	5202	5125	5125	5125	5125	5125	5125	5125	5125	5125	5125	5125	5125	5125	5125	5050	5125	5125	5125	5125	5125	5125	5125	5125	5125	5125	5125	5125	5125	5125	5125	5125	5125	5125	5125	5125	5125	5050	5050	5050	5050	5050	5050	5050	5125	5125	5125	5125	5125	5125	5125	5050	5050	4977	5050	5050	5050	5050	5050	5125	5050	5125	5125	5125	5050	5050	5050	5125	5050	5050	5050	5125	5125	5125	5125	5050	5050	5050	5050	5050	4977	4906	4906	4906	4906	4906	4906	4977	4977	4977	4977	5050	4977	5050	5050	4977	4977	4977	5050	5050	5125	5050	5050	5125	5125	5125	5050	5050	4977	4977	4977	4906	4977	4977	4977	4977	4977	4977	4977	4977	4977	4977	4977	4977	4977	4977	4977	4977	4977	5050	4977	4977	4977	4977	4906	4977	4906	4838	4906	4838	4906	4906	4906	4906	4906	4906	4906	4906	4977	4977	4977	4977	4977	4977	4977	4977	4977	4906	4906	4906	4906	4977	4977	4977	4977	4977	4906	4906	4906	4906	4838	4838	4838	4838	4838	4838	4838	4906	4906	4977	4977	4977	0	0	0	0	0	0	0	0	0	0	0	0	0	0	0	0	0	0	0	0	0	0	0	0	0	0	0	0	0	0	0	0	0	0
0	0	0	0	0	0	629	631	632	635	635	640	641	641	642	644	645	651	651	655	653	653	653	676	676	676	676	678	679	682	683	684	689	691	693	695	697	701	703	703	704	705	705	719	719	719	722	725	725	726	728	726	726	726	770	770	777	775	779	780	779	779	777	777	775	779	777	777	779	779	779	779	780	780	791	791	795	798	800	802	808	810	810	815	817	817	819	819	0	0	0	0	0	0	0	1138	1138	1138	1142	1142	1142	1142	1142	1142	1142	1142	1142	1142	1138	1138	1138	1138	1138	1138	1138	1138	1142	1138	1138	1134	1134	1134	1134	1134	1138	1138	1142	1142	1142	1142	1142	1142	1142	1142	1142	1142	1142	1142	1142	1142	1142	1142	1146	1142	1142	1146	1146	1146	1142	1146	1146	0	0	0	0	0	0	0	0	0	5535	5202	5125	5050	4977	5050	5050	5050	5050	5050	4977	5050	5050	4977	4977	4977	4977	4977	4977	5050	5050	5050	4977	5050	4977	4977	4977	4977	4977	5050	5050	5050	5050	5050	5050	5050	5050	5050	5050	5050	5050	5050	5050	5050	5050	4977	5050	5125	5125	5125	5125	5125	5125	5125	5125	5125	5050	5050	5125	5125	5125	5050	5050	5050	5050	5050	5050	5050	5125	5125	5125	5125	5125	5050	5050	5050	5050	5050	4977	5050	5050	5050	5050	5050	5050	5050	5050	5050	5050	4977	5050	5050	5050	5050	5050	5050	5050	5050	5050	5050	5050	5050	4977	4977	5050	4977	5050	5050	5050	5050	5050	5050	5050	5050	5050	5050	5050	5050	5050	5050	5050	5050	5050	5050	4977	5050	4977	4977	4977	4977	4977	4977	4977	4977	4977	5050	5050	5050	5050	5050	5050	5050	4977	4977	4977	5050	5050	5050	5050	5050	5050	5050	5050	5125	5125	5125	5125	5125	5125	5125	5125	5125	5125	5125	5050	5050	5125	5050	5050	5050	5050	5050	5050	5050	5050	5050	5050	5050	5050	5050	5050	5050	4977	5050	5050	5050	5050	5050	5050	5050	5050	5050	5050	5050	5050	5050	5050	5050	5050	5050	5050	5050	5050	5050	5050	5050	5050	5050	5050	5050	5050	5050	5050	5050	5050	4977	4977	5050	4977	5050	5050	5050	5050	5050	5050	5050	4977	5050	5050	5050	5050	5050	5050	5050	5050	5050	4977	5050	5050	5050	5050	5050	5050	5050	5050	5050	5050	5050	5050	5050	5050	5125	5125	5125	5125	5125	5125	5125	5125	5050	5202	5202	5125	5125	5202	5125	5202	5125	5202	5125	5125	5125	5125	5125	5125	5125	5125	5125	5125	5050	5050	5125	5125	5125	5125	5125	5125	5202	5202	5125	5125	5125	5125	5125	5125	5125	5125	5125	5125	5125	5125	5050	5050	5050	5125	5125	5125	5125	5125	5125	5125	5125	5125	5125	5125	5125	5050	5125	5125	5125	5050	5050	5050	5125	5125	5125	5125	5125	5125	5125	5125	5125	5125	5125	5125	5125	5125	5202	5125	5125	5050	5050	5050	5050	4977	4906	4906	4906	4906	4906	4906	4977	4977	4977	4977	5050	5050	4977	5050	4977	4977	5050	5050	5050	5125	5125	5050	5125	5125	5125	5050	5050	5050	4977	4977	4977	5050	4977	4977	5050	5050	4977	5050	4977	4977	4977	4977	4977	4977	4977	4977	4977	4977	5050	4977	4977	4977	4906	4906	4977	4977	4838	4906	4906	4906	4906	4906	4906	4906	4977	4977	4906	4977	4977	4977	4977	4977	4977	4977	4977	4977	4977	4906	4906	4906	4977	4977	4977	4977	4977	4977	4977	4906	4906	4906	4838	4838	4838	4906	4838	4906	4906	4977	4977	5050	5050	0	0	0	0	0	0	0	0	0	0	0	0	0	0	0	0	0	0	0	0	0	0	0	0	0	0	0	0	0	0	0	0	0	0
0	0	0	0	0	0	629	631	632	639	639	641	642	642	642	645	646	651	652	656	653	653	655	655	676	676	678	678	678	682	684	684	690	691	693	694	697	701	703	704	705	705	705	720	720	720	722	723	725	728	728	728	728	728	728	770	784	782	784	784	782	782	780	779	779	780	780	780	780	780	780	780	780	782	786	791	793	798	800	808	810	810	817	817	817	819	821	823	823	0	0	0	0	0	0	0	1142	1138	1142	1142	1142	1142	1142	1142	1142	1142	1138	1142	1138	1138	1138	1138	1138	1138	1138	1138	1142	1138	1138	1138	1134	1138	1134	1134	1138	1138	1138	1138	1138	1138	1138	1138	1142	1142	1142	1142	1142	1142	1142	1142	1142	1146	1146	1142	1142	1146	1150	1150	1146	1146	1150	1150	0	0	0	0	0	0	0	0	5535	5364	5202	5125	5050	5050	5050	5050	5050	5050	5050	5050	5050	5050	4977	4977	5050	5050	5050	5050	5050	5050	5050	5050	5050	5050	5050	4977	5050	5125	5050	5125	5125	5050	5050	5050	5125	5050	5050	5050	5050	5125	5125	5050	5050	5050	5050	5125	5125	5125	5125	5125	5125	5125	5125	5125	5125	5125	5125	5125	5125	5125	5050	5050	5050	5050	5050	5050	5125	5125	5125	5125	5125	5050	5125	5125	5050	5050	5050	5050	5050	5050	5050	5050	5050	5050	5050	5050	5050	5050	5050	5050	5050	5050	5125	5125	5125	5050	5050	5050	5050	5050	4977	4977	5050	5050	5050	5050	5050	5050	5050	5050	5050	5050	5050	5050	5050	5050	5050	5050	5050	5050	4977	4977	4977	5050	5050	5050	5050	5050	5050	5050	4977	4977	4977	5050	5050	5050	5050	5050	5050	5050	5050	4977	5050	5050	5050	5050	5050	5125	5050	5050	5050	5125	5125	5125	5125	5125	5125	5050	5125	5050	5050	5050	5050	5050	5125	5125	5050	5050	5050	5050	5125	5050	5050	5050	5050	5050	5050	5050	5050	5050	5050	5050	5050	5050	5050	5050	5050	5050	5050	5050	5050	5050	5050	5050	5050	5050	5050	5050	5050	5050	5050	5050	5050	5050	5050	5050	5050	5050	5050	5050	5050	5050	4977	4977	4977	5050	4977	5050	5050	5050	5050	5050	5050	5050	5050	5050	5050	5050	5050	5050	5050	5050	5050	5050	5050	5050	5050	5050	5050	5050	5050	5050	5050	5050	5050	5050	5050	5125	5125	5125	5125	5125	5125	5125	5125	5125	5125	5125	5202	5202	5202	5202	5202	5202	5202	5125	5202	5125	5125	5125	5202	5202	5125	5202	5125	5125	5125	5125	5125	5125	5125	5125	5125	5125	5125	5202	5202	5125	5125	5125	5125	5125	5125	5125	5125	5125	5125	5125	5125	5050	5125	5125	5125	5125	5125	5125	5125	5125	5125	5125	5125	5202	5125	5125	5125	5125	5125	5125	5125	5050	5125	5125	5125	5125	5125	5125	5125	5125	5125	5125	5125	5125	5125	5125	5125	5202	5125	5125	5125	5050	5050	5050	4977	4906	4906	4977	4977	4977	4977	5050	5050	5050	5050	5050	5050	5050	5050	5050	5050	5050	5125	5125	5125	5125	5125	5125	5125	5125	5050	5050	5050	5050	5125	5050	5125	5125	5125	5125	5050	5050	5050	5050	5050	5050	5050	5050	5050	5050	5050	5050	4977	5050	5050	5050	4977	4906	4977	4906	4906	4838	4906	4906	4906	4906	4906	4906	4977	4977	4977	4906	4977	4977	4977	4977	4977	4977	4977	4906	4977	4977	4977	4906	4906	4977	4977	4977	4977	4977	4977	4977	4906	4906	4906	4906	4906	4906	4906	4906	4906	4977	4977	4977	4977	4977	0	0	0	0	0	0	0	0	0	0	0	0	0	0	0	0	0	0	0	0	0	0	0	0	0	0	0	0	0	0	0	0	0	0
0	0	0	0	0	0	0	0	0	639	639	642	642	644	644	651	652	653	653	656	655	655	655	655	675	675	678	679	679	682	684	684	689	691	691	694	697	701	703	705	705	705	705	720	720	720	722	723	725	725	728	728	728	728	728	0	788	788	786	786	784	784	784	780	780	784	784	782	784	784	782	782	782	784	788	791	793	797	798	806	808	814	815	817	817	819	821	823	825	825	0	0	0	0	0	0	1142	1142	1142	1146	1142	1142	1146	1146	1146	1142	1142	1142	1138	1138	1138	1138	1134	1138	1138	1138	1142	1138	1138	1138	1134	1138	1138	1134	1138	1142	1142	1142	1142	1142	1138	1138	1138	1142	1142	1142	1142	1142	1142	1142	1142	1146	1142	1142	1146	1146	1150	1153	1150	1153	1153	1153	1153	0	0	0	0	0	0	0	0	5364	5202	5125	5050	5050	5050	5050	5050	5050	4977	5050	4977	4977	4977	4977	5050	5050	5050	5125	5125	5125	5050	5125	5050	5050	5050	5050	5050	5125	5125	5125	5125	5125	5050	5050	5125	5125	5125	5125	5125	5125	5125	5050	5050	5050	5050	5125	5125	5202	5202	5202	5202	5202	5125	5125	5125	5125	5125	5125	5125	5050	5050	5050	5050	5050	5050	5125	5125	5125	5125	5125	5125	5125	5125	5125	5125	5125	5125	5050	5050	5050	5050	5050	5050	5050	5050	5050	5050	5050	5125	5125	5125	5125	5125	5125	5125	5050	5050	5125	5050	5050	5050	5050	5050	5050	5050	5050	5050	5050	5050	5050	5050	5050	5050	5050	5050	5050	5050	5050	5050	5050	5050	4977	4977	5050	5050	5050	5050	5050	5050	5050	5050	5050	5050	5050	5050	5050	5050	5050	5050	5050	5050	5050	5050	5050	5050	5125	5125	5125	5125	5125	5050	5125	5125	5125	5125	5125	5125	5050	5125	5050	5050	5050	5050	5125	5125	5125	5125	5125	5050	5125	5125	5050	5050	5050	5125	5050	5050	5050	5050	5050	5050	5050	5050	5050	5050	5125	5050	5050	5050	5050	5050	5050	5050	5050	5125	5125	5125	5050	5050	5050	5050	5050	5050	5050	5050	5050	5050	5050	5050	5050	4977	4977	4977	4977	4977	5050	5050	5050	5050	5050	5050	5050	5050	5050	5050	5050	5050	5050	5050	5050	5050	5050	5050	5050	5050	5050	5050	5050	5050	5050	5050	5050	5050	5050	5050	5050	5050	5125	5125	5125	5125	5125	5125	5125	5125	5125	5125	5125	5202	5202	5202	5202	5202	5202	5202	5202	5202	5202	5202	5202	5202	5202	5202	5202	5202	5125	5125	5125	5125	5125	5125	5125	5125	5202	5202	5202	5202	5202	5125	5125	5125	5125	5125	5125	5125	5125	5125	5125	5125	5050	5125	5125	5125	5125	5125	5125	5125	5125	5125	5125	5125	5125	5125	5125	5125	5125	5125	5125	5125	5125	5125	5202	5125	5202	5202	5125	5125	5125	5125	5125	5125	5125	5125	5125	5125	5202	5125	5125	5125	5050	5050	5050	4977	4906	4977	4977	4977	4977	4977	5050	5050	5050	5050	5125	5050	5125	5125	5125	5125	5125	5125	5125	5125	5125	5050	5125	5125	5125	5050	5050	5050	5125	5125	5125	5125	5125	5125	5125	5125	5125	5125	5125	5125	5125	5125	5125	5050	5125	5050	5125	5050	5050	5050	5125	5050	4977	5050	5050	4977	4906	4906	4906	4977	4977	4977	4977	4977	4977	4977	4906	4906	4906	4977	4906	4906	4977	4977	4977	4977	4977	4977	4906	4906	5050	5050	5050	4977	4977	4977	4977	4977	4977	4977	4906	4977	4977	4977	4977	4977	4977	4977	4977	4977	4977	0	0	0	0	0	0	0	0	0	0	0	0	0	0	0	0	0	0	0	0	0	0	0	0	0	0	0	0	0	0	0	0	0	0
0	0	0	0	0	0	0	0	0	0	0	641	642	642	642	652	652	653	653	657	657	658	658	666	676	676	676	678	678	680	682	682	684	690	693	693	693	693	705	705	708	708	708	720	720	720	722	723	723	725	728	728	728	728	747	747	788	788	788	786	786	788	786	788	788	788	788	788	788	786	786	784	784	786	789	791	793	795	797	798	798	814	817	817	819	821	823	825	825	825	825	0	0	0	0	0	1142	1138	1142	1142	1142	1142	1142	1146	1146	1142	1142	1142	1138	1134	1134	1134	1134	1134	1134	1134	1142	1138	1138	1138	1138	1138	1134	1138	1138	1142	1142	1142	1142	1142	1138	1138	1138	1138	1142	1142	1142	1142	1142	1142	1142	1142	1142	1142	1146	1146	1150	1150	1150	1150	1153	1153	1153	0	0	0	0	0	0	5535	5535	5364	5202	5125	5125	5125	5050	5050	5050	5050	5050	5050	5050	5050	5050	5050	5050	5050	5050	5125	5125	5125	5125	5125	5050	5125	5125	5050	5050	5125	5125	5125	5125	5125	5125	5125	5125	5125	5202	5125	5125	5125	5125	5050	5050	5050	5050	5125	5202	5202	5202	5202	5202	5202	5202	5125	5125	5125	5125	5125	5125	5125	5125	5125	5125	5125	5125	5125	5125	5125	5125	5125	5125	5125	5125	5202	5125	5125	5125	5050	5125	5125	5125	5125	5125	5050	5050	5125	5050	5050	5125	5050	5125	5125	5125	5125	5125	5125	5125	5125	5125	5050	5050	5050	5050	5050	5050	5050	5050	5050	5050	5050	5050	5125	5125	5125	5125	5125	5125	5050	5050	5050	5050	4977	4977	5050	5050	5050	5050	5050	5050	5125	5050	5050	5050	5050	5050	5050	5050	5050	5050	5050	5050	5050	5050	5050	5125	5125	5125	5125	5125	5125	5050	5125	5125	5125	5125	5125	5125	5125	5125	5050	5050	5050	5050	5125	5125	5125	5125	5125	5125	5125	5125	5125	5050	5125	5125	5050	5050	5050	5050	5050	5050	5050	5050	5050	5125	5125	5050	5050	5050	5050	5050	5125	5050	5050	5125	5125	5125	5125	5050	5050	5050	5050	5050	5050	5050	5125	5125	5125	5125	5125	4977	5050	4977	4977	4977	5050	5050	5050	5050	5050	5050	5050	5050	5050	5050	5050	5050	5050	5050	5050	5050	5050	5050	5050	5050	5050	5050	5050	5050	5050	5050	5050	5050	5050	5125	5050	5125	5125	5125	5125	5125	5125	5125	5125	5125	5125	5125	5125	5202	5202	5202	5202	5202	5202	5202	5202	5202	5202	5202	5202	5202	5202	5125	5125	5202	5125	5125	5125	5125	5125	5125	5125	5202	5202	5202	5202	5202	5202	5125	5125	5125	5125	5125	5125	5125	5125	5125	5125	5125	5125	5125	5125	5125	5202	5125	5125	5202	5202	5125	5125	5125	5125	5125	5125	5125	5125	5125	5125	5125	5202	5202	5202	5202	5202	5202	5202	5125	5125	5125	5125	5125	5125	5125	5125	5125	5125	5125	5125	5125	5050	5050	5050	5050	4977	5050	5050	5050	5050	5050	5125	5125	5125	5125	5125	5125	5125	5125	5125	5125	5125	5125	5125	5125	5125	5050	5125	5125	5125	5050	5050	5050	5050	5050	5202	5202	5202	5125	5125	5125	5125	5202	5125	5202	5125	5202	5125	5125	5125	5125	5125	5050	5050	5050	5125	5050	4977	4977	5050	5050	4977	4906	4977	4977	4977	4977	4977	4977	4977	4977	4977	4977	4977	4977	4977	4977	4977	4977	4977	4977	5050	5050	5050	4906	5050	5050	5050	4977	4977	4977	4977	4977	4977	4977	4977	4977	5050	5050	5050	5050	4977	4977	4977	4977	4977	0	0	0	0	0	0	0	0	0	0	0	0	0	0	0	0	0	0	0	0	0	0	0	0	0	0	0	0	0	0	0	0	0	0
0	0	0	0	0	0	0	0	0	0	0	641	641	642	642	651	651	652	653	656	657	657	660	666	667	676	676	676	676	679	682	682	683	686	693	693	693	693	705	705	708	708	711	719	719	720	722	723	723	725	725	728	728	747	747	748	748	748	793	789	788	789	789	791	791	791	789	789	789	788	788	788	786	788	791	793	795	798	800	802	802	814	815	817	819	821	823	825	825	827	827	0	0	0	0	0	0	1138	1138	1138	1138	1142	1142	1142	1142	1142	1142	1142	1138	1134	1134	1134	1131	1134	1134	1138	1138	1138	1138	1138	1138	1138	1138	1138	1138	1138	1138	1138	1138	1138	1138	1138	1138	1138	1142	1142	1138	1142	1138	1142	1138	1142	1142	1142	1142	1146	1146	1150	1150	1150	1150	0	0	0	0	0	0	0	0	5535	5448	5364	5202	5202	5125	5125	5125	5125	5125	5050	5050	5050	5050	5050	5050	5050	5125	5125	5125	5202	5125	5125	5125	5125	5125	5125	5125	5125	5125	5202	5125	5125	5125	5125	5125	5125	5125	5125	5202	5202	5202	5202	5125	5125	5125	5050	5125	5202	5202	5202	5202	5202	5202	5202	5202	5202	5125	5125	5125	5202	5125	5125	5125	5125	5125	5125	5125	5125	5202	5125	5125	5202	5202	5202	5202	5202	5125	5125	5125	5050	5125	5125	5125	5125	5125	5050	5125	5125	5125	5050	5125	5125	5125	5125	5125	5125	5202	5125	5125	5125	5125	5125	5125	5050	5050	5125	5050	5125	5125	5125	5125	5125	5125	5125	5125	5125	5125	5125	5125	5125	5125	5050	5050	5050	4977	5050	5050	5050	5050	5050	5125	5125	5050	5050	5050	5050	5050	5050	5050	5050	5050	5050	5125	5125	5125	5125	5125	5125	5125	5125	5125	5125	5050	5125	5125	5125	5125	5125	5125	5125	5125	5050	5125	5125	5050	5125	5125	5125	5125	5125	5125	5125	5125	5125	5125	5125	5125	5125	5125	5050	5050	5125	5125	5125	5050	5125	5125	5125	5125	5050	5125	5125	5125	5125	5125	5125	5125	5125	5125	5125	5125	5050	5050	5050	5050	5050	5050	5125	5125	5125	5125	5125	5050	5050	5050	5050	5050	5050	5050	5125	5125	5125	5050	5050	5050	5050	5050	5050	5050	5050	5050	5050	5050	5050	5050	5125	5125	5125	5050	5125	5125	5050	5125	5125	5050	5050	5125	5125	5125	5125	5125	5125	5125	5125	5125	5125	5125	5202	5125	5125	5202	5202	5202	5202	5202	5202	5202	5202	5202	5202	5202	5202	5202	5202	5202	5202	5202	5125	5125	5125	5125	5125	5125	5202	5202	5202	5202	5202	5202	5202	5125	5125	5125	5125	5202	5125	5125	5125	5125	5125	5125	5125	5125	5125	5202	5202	5202	5202	5202	5202	5202	5202	5202	5125	5125	5202	5125	5125	5125	5202	5202	5202	5202	5202	5202	5202	5202	5202	5125	5125	5125	5125	5202	5202	5202	5202	5202	5202	5125	5125	5125	5125	5050	5050	4977	4977	5050	5050	5050	5125	5125	5125	5125	5125	5125	5125	5125	5125	5125	5125	5125	5125	5125	5125	5125	5125	5050	5125	5125	5125	5125	5125	5125	5125	5125	5125	5125	5125	5125	5125	5125	5202	5202	5202	5202	5202	5202	5202	5125	5202	5125	5125	5125	5050	5050	5125	5050	4977	4977	4977	5050	4906	4977	4977	4977	4977	4977	4977	4977	5050	4977	4977	4977	4977	5050	4977	4977	5050	5050	5050	5050	5050	5050	5125	4977	5050	5050	5050	4977	4906	4977	4977	5050	5050	5050	4977	5050	5050	5050	5050	5050	5050	5050	4977	4977	4977	0	0	0	0	0	0	0	0	0	0	0	0	0	0	0	0	0	0	0	0	0	0	0	0	0	0	0	0	0	0	0	0	0	0
0	0	0	0	0	0	0	0	0	0	0	641	641	642	645	650	650	652	653	655	656	660	661	665	666	675	675	676	676	679	680	680	684	687	687	687	687	0	705	705	707	707	710	710	719	720	722	723	723	725	726	728	728	747	748	748	748	789	793	791	791	791	793	793	793	793	793	791	791	789	791	789	786	788	791	793	795	797	798	804	804	814	815	815	819	821	823	823	825	825	825	0	0	0	0	0	0	1138	1138	1138	1142	1142	1142	1142	1142	1142	1142	1142	1138	1138	1134	1134	1134	1138	1138	1138	1138	1138	1138	1138	1138	1138	1134	1138	1138	1134	1138	1138	1138	1138	1138	1138	1138	1138	1138	1142	1138	1142	1138	1138	1138	1142	1142	1142	1142	1142	1146	1146	1150	1150	1153	1153	0	0	0	0	0	0	0	5535	5448	5364	5282	5202	5202	5202	5202	5125	5125	5125	5125	5125	5125	5050	5050	5125	5125	5125	5125	5125	5125	5125	5125	5125	5125	5125	5202	5202	5202	5202	5202	5202	5202	5125	5125	5202	5202	5202	5202	5202	5202	5202	5202	5125	5125	5125	5125	5202	5202	5202	5202	5202	5202	5202	5202	5202	5202	5202	5202	5282	5202	5202	5202	5202	5202	5202	5202	5125	5125	5202	5202	5202	5202	5202	5202	5202	5202	5202	5202	5202	5050	5125	5125	5125	5125	5050	5125	5125	5125	5125	5125	5125	5125	5125	5125	5202	5202	5202	5202	5202	5202	5125	5125	5125	5050	5125	5050	5125	5125	5125	5125	5125	5125	5125	5125	5125	5125	5125	5125	5125	5125	5125	5050	5050	5050	5050	5050	5125	5050	5125	5125	5125	5125	5125	5050	5050	5202	5202	5202	5125	5125	5125	5125	5125	5125	5125	5125	5125	5125	5125	5050	5125	5050	5125	5125	5125	5125	5125	5125	5125	5125	5125	5125	5125	5125	5125	5125	5125	5125	5125	5125	5125	5125	5125	5125	5125	5125	5125	5125	5125	5125	5125	5125	5125	5125	5125	5125	5125	5125	5125	5125	5125	5125	5125	5125	5125	5125	5125	5125	5125	5125	5125	5125	5125	5125	5125	5125	5125	5125	5125	5125	5125	5050	5050	5050	5050	5050	5050	5050	5125	5125	5125	5125	5125	5125	5125	5125	5125	5125	5125	5050	5050	5125	5125	5125	5125	5125	5125	5125	5125	5125	5125	5125	5125	5125	5125	5125	5125	5125	5125	5125	5125	5125	5125	5125	5125	5125	5202	5125	5125	5202	5202	5202	5202	5202	5202	5202	5202	5202	5202	5202	5202	5202	5202	5202	5202	5202	5202	5202	5125	5202	5202	5202	5202	5202	5202	5202	5202	5202	5202	5202	5202	5202	5202	5202	5202	5202	5202	5202	5202	5202	5202	5202	5202	5202	5202	5202	5202	5202	5202	5202	5202	5202	5202	5125	5202	5125	5202	5202	5202	5202	5202	5202	5202	5202	5202	5202	5202	5202	5202	5202	5202	5202	5202	5202	5202	5202	5202	5202	5125	5125	5125	5125	5050	5050	4977	5050	5050	5125	5125	5125	5125	5125	5125	5125	5125	5125	5125	5125	5125	5125	5125	5125	5125	5125	5125	5125	5125	5202	5125	5125	5125	5202	5202	5125	5125	5125	5125	5125	5125	5125	5202	5202	5202	5202	5202	5202	5202	5202	5202	5202	5202	5202	5202	5202	5202	5125	5050	5050	4977	5050	5125	5125	4977	5050	5125	5125	4977	4977	5050	4977	4977	4977	4977	4977	4977	4977	4977	5050	5050	5050	5050	5050	5050	5050	5050	5050	5050	4977	4977	5050	5050	5125	5125	5125	5050	5050	5050	5050	5050	5050	5050	5050	4977	4977	4977	0	0	0	0	0	0	0	0	0	0	0	0	0	0	0	0	0	0	0	0	0	0	0	0	0	0	0	0	0	0	0	0	0	0
0	0	0	0	0	0	0	0	631	631	635	638	639	639	648	650	651	651	652	655	657	660	661	665	666	669	669	675	676	676	678	680	684	684	689	689	695	695	701	705	707	707	708	710	711	711	722	722	723	723	728	731	739	740	742	743	745	747	748	748	748	793	793	795	795	793	793	793	793	791	793	795	795	797	795	797	797	798	798	800	802	812	814	815	819	821	823	825	825	825	825	850	850	848	848	848	0	0	0	0	1142	1142	1146	1142	1142	1142	1142	1142	1138	1138	1138	1134	1134	1138	1138	1142	1142	1142	1138	1138	1138	1138	1134	1134	1134	1134	1138	1138	1138	1138	1134	1138	1138	1138	1134	1138	1134	1138	1134	1138	1134	1142	1138	1142	1142	1142	1146	1146	1150	1150	1153	1153	0	0	0	0	0	0	0	0	0	5448	5364	5282	5202	5202	5202	5125	5125	5125	5125	5125	5125	5125	5125	5202	5125	5125	5125	5125	5125	5125	5125	5125	5125	5202	5202	5202	5202	5202	5202	5202	5125	5125	5125	5125	5202	5202	5202	5202	5202	5202	5202	5202	5202	5125	5202	5282	5282	5202	5282	5282	5282	5282	5282	5202	5282	5282	5282	5282	5282	5282	5282	5202	5202	5202	5202	5125	5202	5202	5202	5202	5202	5202	5202	5202	5202	5202	5202	5202	5202	5125	5125	5202	5125	5125	5125	5125	5125	5125	5125	5125	5125	5125	5125	5202	5202	5202	5202	5202	5202	5125	5125	5125	5050	5125	5125	5202	5202	5202	5202	5202	5202	5202	5202	5125	5202	5125	5125	5125	5125	5125	5125	5050	5050	5125	5125	5125	5125	5125	5125	5202	5202	5282	5202	5282	5282	5282	5282	5202	5202	5202	5202	5202	5125	5125	5125	5125	5125	5125	5125	5125	5125	5050	5125	5125	5202	5125	5125	5125	5125	5125	5125	5125	5125	5125	5125	5125	5125	5125	5125	5125	5202	5125	5125	5125	5125	5125	5125	5125	5125	5125	5125	5125	5125	5125	5125	5125	5125	5125	5125	5125	5125	5125	5125	5125	5125	5125	5125	5125	5125	5125	5125	5125	5125	5125	5125	5125	5125	5125	5125	5125	5125	5125	5125	5125	5125	5125	5125	5125	5125	5125	5125	5125	5125	5125	5125	5125	5125	5125	5125	5125	5125	5125	5125	5125	5125	5125	5202	5125	5125	5125	5125	5125	5125	5125	5125	5125	5125	5125	5125	5125	5125	5125	5125	5125	5125	5202	5125	5125	5202	5202	5202	5202	5202	5202	5202	5202	5202	5202	5202	5202	5202	5202	5202	5202	5202	5202	5202	5125	5202	5202	5202	5202	5202	5202	5202	5202	5202	5202	5202	5202	5202	5202	5202	5202	5202	5202	5282	5282	5282	5282	5202	5202	5282	5202	5202	5202	5202	5282	5202	5202	5202	5202	5202	5202	5202	5202	5202	5202	5202	5202	5202	5202	5202	5202	5202	5202	5202	5202	5202	5202	5202	5202	5202	5202	5202	5202	5202	5202	5202	5125	5125	5050	5050	5125	5202	5125	5202	5202	5202	5202	5125	5125	5125	5125	5125	5125	5125	5125	5125	5125	5125	5125	5125	5125	5125	5202	5202	5125	5202	5202	5202	5202	5202	5125	5125	5125	5125	5202	5202	5202	5202	5202	5202	5202	5202	5202	5202	5202	5202	5202	5125	5202	5202	5202	5202	5202	5125	5202	5202	5202	5202	5202	5125	5125	5125	5050	5050	5050	5050	4977	4977	4977	4977	4977	5050	5050	5050	5050	5050	5050	5050	5050	5050	5050	5050	5050	5125	5125	5125	5125	5202	5202	5125	5125	5125	5125	5125	5125	5125	5050	5125	5125	5050	5050	0	0	0	0	0	0	0	0	0	0	0	0	0	0	0	0	0	0	0	0	0	0	0	0	0	0	0	0	0	0	0	0	0	0
0	0	0	0	0	0	0	0	632	633	635	636	639	650	651	651	651	652	652	655	657	660	660	665	666	674	675	675	676	678	679	682	683	683	689	689	695	698	698	707	708	708	708	710	710	713	720	722	723	731	731	732	737	740	740	742	745	747	747	748	748	797	797	797	795	795	797	795	795	795	797	800	800	798	797	797	798	798	798	800	802	804	810	815	819	821	823	827	827	827	850	850	850	850	850	848	848	0	0	0	1142	1142	1142	1142	1142	1142	1142	1142	1138	1138	1138	1134	1134	1134	1138	1138	1138	1138	1138	1138	1138	1138	1134	1134	1134	1134	1138	1138	1134	1138	1134	1138	1138	1138	1134	1134	1134	1138	1134	1138	1134	1138	1138	1142	1142	1142	1146	1146	1150	1153	1157	1157	1157	0	0	0	0	0	0	0	0	5364	5364	5282	5282	5282	5202	5202	5202	5202	5125	5125	5125	5125	5125	5202	5202	5125	5125	5202	5202	5202	5202	5202	5202	5202	5202	5202	5202	5202	5202	5202	5125	5125	5125	5125	5125	5202	5202	5202	5202	5202	5202	5202	5202	5202	5202	5282	5282	5282	5282	5282	5282	5282	5282	5282	5282	5282	5282	5282	5282	5282	5282	5282	5282	5202	5202	5202	5202	5202	5202	5202	5282	5282	5282	5282	5202	5282	5202	5282	5282	5282	5282	5282	5202	5125	5125	5202	5202	5202	5202	5125	5125	5125	5202	5202	5202	5202	5202	5202	5202	5202	5202	5125	5125	5125	5202	5202	5202	5202	5282	5202	5202	5282	5202	5202	5202	5125	5202	5202	5125	5125	5125	5125	5125	5125	5125	5125	5125	5125	5202	5282	5202	5282	5202	5282	5202	5282	5282	5202	5202	5202	5202	5202	5125	5125	5125	5125	5125	5125	5125	5125	5125	5125	5125	5125	5202	5202	5202	5125	5125	5125	5125	5125	5125	5125	5125	5125	5125	5125	5125	5125	5202	5125	5125	5125	5125	5202	5125	5125	5125	5125	5125	5125	5125	5125	5125	5125	5125	5125	5125	5125	5125	5125	5125	5125	5125	5202	5202	5202	5125	5125	5125	5202	5202	5202	5202	5202	5202	5202	5202	5202	5125	5125	5125	5125	5125	5125	5125	5125	5125	5125	5125	5125	5125	5125	5125	5202	5125	5125	5125	5125	5125	5125	5125	5125	5202	5202	5202	5202	5125	5125	5125	5125	5125	5125	5125	5125	5125	5125	5125	5125	5125	5125	5125	5202	5125	5202	5202	5125	5202	5282	5282	5282	5202	5202	5202	5282	5202	5202	5202	5202	5282	5282	5202	5202	5202	5202	5202	5202	5202	5202	5202	5202	5202	5202	5202	5202	5202	5202	5202	5202	5202	5202	5202	5202	5202	5202	5282	5282	5282	5282	5202	5202	5282	5282	5282	5282	5282	5282	5202	5202	5202	5202	5202	5202	5202	5202	5202	5202	5202	5202	5202	5202	5202	5202	5202	5202	5202	5202	5202	5202	5202	5202	5202	5202	5202	5202	5202	5202	5202	5202	5125	5125	5125	5202	5282	5202	5202	5202	5202	5202	5202	5125	5125	5125	5125	5125	5125	5125	5125	5125	5125	5125	5125	5125	5125	5202	5202	5202	5202	5202	5202	5202	5202	5202	5125	5202	5202	5202	5202	5202	5202	5202	5202	5202	5202	5202	5202	5202	5202	5202	5202	5202	5282	5282	5202	5282	5202	5282	5202	5202	5202	5125	5125	5125	5125	5125	5050	5125	5050	5050	5050	4977	5050	4977	4977	5050	5050	5125	5050	5125	5125	5125	5125	5125	5050	5125	5202	5125	5202	5125	5202	5202	5125	5125	5125	5125	5125	5125	5050	5050	5125	5125	5050	5050	0	0	0	0	0	0	0	0	0	0	0	0	0	0	0	0	0	0	0	0	0	0	0	0	0	0	0	0	0	0	0	0	0	0
0	0	0	0	0	0	0	0	632	632	634	636	638	651	651	652	651	651	652	655	657	661	663	666	667	670	674	675	676	678	679	680	683	683	690	691	691	697	701	707	708	708	708	710	714	714	719	722	723	731	732	732	739	740	740	740	743	747	748	748	748	748	802	798	797	797	798	797	798	798	802	800	802	800	798	798	798	798	798	800	802	806	804	804	819	823	825	829	829	829	850	850	850	850	848	848	848	0	0	0	1142	1146	1146	1142	1142	1142	1142	1142	1138	1138	1138	1134	1134	1134	1134	1134	1134	1134	1134	1138	1138	1134	1134	1134	1134	1134	1138	1138	1134	1138	1138	1138	1138	1138	1138	1138	1134	1138	1134	1138	1134	1138	1138	1142	1142	1142	1146	1146	1150	1153	1157	1165	1165	0	0	0	0	0	0	0	0	5282	5364	5282	5282	5282	5202	5202	5202	5202	5202	5202	5125	5125	5202	5282	5202	5202	5202	5282	5202	5202	5202	5202	5202	5202	5202	5202	5282	5202	5202	5202	5202	5202	5125	5202	5202	5202	5202	5202	5202	5202	5202	5202	5202	5202	5202	5282	5282	5282	5282	5282	5282	5282	5282	5282	5282	5282	5282	5364	5282	5364	5282	5282	5282	5282	5202	5202	5202	5202	5282	5282	5282	5282	5282	5282	5282	5282	5282	5282	5282	5202	5282	5282	5282	5202	5202	5282	5202	5282	5282	5202	5202	5202	5202	5282	5282	5202	5202	5202	5202	5202	5282	5202	5202	5202	5202	5282	5282	5282	5282	5282	5202	5282	5202	5202	5202	5202	5202	5202	5202	5202	5202	5125	5125	5202	5202	5202	5202	5202	5202	5282	5202	5282	5202	5202	5202	5282	5282	5202	5202	5202	5202	5202	5125	5202	5125	5125	5125	5125	5125	5125	5125	5125	5202	5202	5282	5282	5282	5202	5202	5125	5202	5125	5125	5125	5125	5202	5202	5125	5202	5202	5202	5202	5202	5202	5202	5202	5202	5125	5202	5202	5202	5202	5202	5202	5125	5202	5125	5125	5125	5125	5202	5202	5125	5202	5202	5202	5202	5202	5202	5202	5202	5202	5202	5202	5202	5202	5202	5282	5282	5282	5202	5282	5282	5282	5202	5202	5202	5202	5202	5202	5202	5202	5125	5202	5202	5202	5202	5125	5125	5125	5125	5202	5202	5202	5202	5202	5202	5202	5125	5125	5125	5125	5125	5125	5202	5125	5202	5202	5202	5202	5202	5202	5202	5202	5202	5202	5202	5202	5282	5282	5282	5282	5202	5202	5282	5282	5282	5282	5282	5282	5282	5282	5282	5282	5282	5282	5282	5202	5202	5202	5202	5202	5202	5202	5202	5202	5202	5202	5202	5202	5202	5202	5282	5202	5202	5202	5282	5282	5282	5282	5202	5282	5282	5282	5282	5282	5282	5282	5202	5202	5202	5202	5202	5202	5202	5202	5202	5202	5282	5202	5202	5282	5282	5282	5282	5282	5202	5202	5282	5202	5202	5202	5202	5202	5202	5202	5202	5202	5202	5202	5202	5202	5202	5282	5282	5202	5202	5202	5202	5202	5202	5202	5125	5125	5125	5202	5125	5125	5125	5125	5125	5125	5125	5202	5202	5282	5282	5202	5202	5202	5202	5202	5202	5202	5125	5202	5282	5282	5282	5282	5202	5202	5202	5202	5202	5202	5202	5202	5202	5202	5202	5282	5282	5282	5282	5282	5282	5282	5202	5202	5202	5202	5202	5125	5125	5125	5125	5125	5050	5050	5050	5050	5050	5050	5050	5050	5050	5125	5125	5125	5125	5125	5050	5050	5125	5125	5125	5125	5202	5202	5202	5202	5202	5125	5125	5125	5125	5125	5125	5050	5125	5125	5050	5050	0	0	0	0	0	0	0	0	0	0	0	0	0	0	0	0	0	0	0	0	0	0	0	0	0	0	0	0	0	0	0	0	0	0
0	0	0	0	0	0	0	0	632	633	634	635	636	650	650	650	650	651	651	651	665	665	666	666	667	667	672	674	675	676	678	682	683	683	689	689	693	695	700	707	708	708	708	710	714	714	716	722	726	732	732	734	736	739	739	739	740	742	742	742	804	804	802	802	802	800	802	804	802	802	804	804	804	802	802	802	802	800	800	802	804	804	804	823	823	823	825	829	833	833	850	850	850	850	848	848	848	0	0	0	0	1146	1146	1142	1142	1138	1142	1142	1138	1138	1134	1134	1134	1134	1134	1134	1134	1131	1131	1134	1134	1134	1131	1134	1134	1134	1138	1138	1134	1138	1138	1138	1138	1138	1138	1138	1138	1138	1134	1138	1134	1134	1138	1142	1138	1142	1142	1146	1157	1157	1161	1161	1161	0	0	0	0	0	0	0	0	5282	5282	5282	5282	5282	5202	5202	5202	5202	5202	5202	5202	5125	5202	5202	5202	5202	5202	5282	5282	5202	5282	5202	5202	5202	5282	5202	5282	5282	5202	5202	5202	5202	5202	5202	5202	5202	5202	5202	5282	5282	5202	5202	5202	5202	5202	5202	5282	5282	5282	5282	5282	5282	5282	5282	5282	5282	5364	5364	5364	5364	5364	5282	5282	5282	5282	5202	5202	5202	5282	5282	5282	5282	5282	5282	5282	5282	5282	5282	5202	5282	5282	5282	5282	5282	5282	5282	5282	5282	5282	5282	5282	5282	5202	5282	5282	5202	5202	5202	5282	5282	5282	5282	5282	5282	5282	5282	5282	5282	5282	5282	5282	5282	5282	5202	5202	5202	5202	5202	5202	5202	5202	5202	5202	5282	5282	5282	5282	5282	5282	5282	5282	5282	5282	5282	5282	5282	5282	5282	5202	5202	5202	5202	5202	5202	5202	5125	5125	5125	5125	5125	5202	5125	5282	5282	5282	5282	5282	5282	5202	5202	5202	5202	5125	5125	5202	5202	5202	5202	5202	5202	5282	5282	5282	5202	5202	5282	5282	5202	5202	5202	5202	5202	5202	5202	5202	5202	5202	5125	5125	5125	5202	5202	5202	5202	5202	5202	5282	5202	5202	5202	5202	5202	5282	5202	5202	5202	5282	5282	5282	5282	5282	5282	5282	5282	5282	5282	5282	5202	5202	5202	5202	5202	5202	5202	5202	5125	5202	5125	5202	5202	5202	5202	5282	5282	5282	5282	5282	5282	5202	5125	5125	5202	5202	5202	5202	5125	5202	5202	5202	5125	5202	5202	5202	5202	5202	5202	5202	5202	5282	5282	5282	5282	5282	5202	5282	5282	5282	5282	5202	5282	5282	5282	5282	5282	5282	5282	5282	5202	5282	5282	5282	5282	5202	5202	5202	5202	5202	5202	5202	5202	5282	5282	5282	5282	5282	5282	5282	5282	5282	5282	5282	5282	5282	5364	5282	5364	5282	5364	5282	5202	5202	5202	5282	5282	5282	5282	5282	5282	5202	5202	5202	5282	5282	5282	5282	5282	5282	5282	5282	5282	5202	5202	5282	5282	5202	5202	5202	5202	5202	5202	5202	5202	5282	5282	5282	5282	5202	5202	5202	5202	5202	5202	5202	5125	5202	5202	5125	5125	5125	5125	5125	5202	5202	5202	5282	5364	5282	5282	5282	5282	5282	5282	5202	5202	5202	5282	5282	5282	5282	5282	5282	5282	5282	5282	5282	5282	5202	5202	5202	5202	5282	5282	5282	5202	5282	5364	5282	5282	5282	5282	5282	5282	5202	5202	5202	5125	5125	5125	5050	5125	5125	5050	5125	5050	5050	5050	5050	5050	5125	5125	5050	5125	5125	5202	5202	5202	5202	5202	5202	5202	5202	5202	5202	5202	5202	5125	5125	5125	5125	5125	5125	5125	5125	5125	0	0	0	0	0	0	0	0	0	0	0	0	0	0	0	0	0	0	0	0	0	0	0	0	0	0	0	0	0	0	0	0	0	0
0	0	0	0	0	0	0	0	633	633	634	634	635	650	650	651	651	650	651	652	652	666	666	667	667	667	672	674	675	675	676	679	680	680	680	691	693	698	705	708	708	708	708	710	711	713	716	722	726	731	732	732	736	737	737	739	740	742	743	743	743	806	804	802	802	802	765	765	804	804	806	806	808	806	804	808	804	806	804	808	808	808	808	823	823	821	821	829	831	831	852	852	852	850	848	848	848	0	0	0	0	1142	1142	1142	1138	1138	1142	1142	1138	1138	1138	1134	1134	1134	1134	1134	1134	1131	1131	1131	1134	1134	1131	1131	1131	1134	1138	1138	1134	1134	1138	1138	1138	1138	1131	1131	1131	1138	1134	1138	1138	1134	1138	1142	1138	1142	1142	1142	1142	1157	1161	1161	1161	0	0	0	0	0	0	0	5282	5282	5282	5282	5282	5282	5282	5202	5282	5282	5282	5202	5202	5202	5202	5202	5202	5202	5202	5282	5282	5282	5282	5282	5282	5282	5282	5282	5282	5202	5202	5202	5202	5202	5202	5202	5202	5202	5202	5202	5282	5282	5282	5282	5202	5202	5202	5282	5282	5282	5282	5282	5282	5282	5282	5282	5282	5282	5364	5364	5364	5364	5364	5364	5282	5282	5282	5282	5282	5202	5282	5282	5282	5282	5282	5282	5282	5282	5282	5282	5202	5282	5282	5282	5282	5282	5282	5282	5282	5282	5282	5282	5282	5282	5282	5282	5202	5202	5202	5202	5202	5282	5282	5202	5282	5282	5282	5282	5282	5282	5282	5282	5282	5282	5282	5202	5202	5202	5202	5282	5202	5202	5282	5282	5282	5282	5282	5282	5282	5282	5282	5282	5282	5282	5282	5282	5282	5282	5282	5202	5282	5282	5202	5202	5202	5202	5202	5125	5125	5125	5125	5125	5202	5125	5282	5282	5282	5282	5282	5282	5282	5282	5202	5202	5202	5202	5202	5282	5282	5202	5282	5282	5282	5282	5364	5282	5282	5364	5282	5202	5202	5202	5202	5202	5202	5202	5202	5202	5202	5202	5202	5202	5202	5202	5202	5202	5202	5202	5202	5202	5202	5202	5202	5282	5282	5282	5282	5202	5282	5282	5282	5282	5282	5282	5282	5282	5282	5282	5282	5282	5282	5282	5282	5282	5202	5202	5202	5202	5202	5202	5202	5202	5202	5282	5282	5282	5282	5282	5282	5282	5202	5202	5202	5202	5202	5202	5202	5202	5202	5282	5202	5202	5202	5202	5202	5125	5202	5202	5282	5202	5202	5282	5282	5364	5282	5202	5282	5282	5282	5282	5202	5282	5282	5282	5282	5282	5282	5282	5282	5282	5282	5364	5364	5282	5282	5202	5202	5282	5202	5202	5202	5202	5282	5282	5282	5282	5282	5282	5364	5364	5282	5282	5282	5282	5282	5282	5282	5282	5282	5364	5282	5202	5202	5282	5364	5282	5282	5282	5282	5282	5282	5202	5202	5202	5282	5282	5282	5282	5282	5364	5364	5282	5282	5282	5282	5282	5282	5282	5282	5282	5202	5202	5202	5202	5202	5282	5282	5282	5202	5282	5202	5202	5202	5202	5202	5125	5202	5202	5125	5125	5125	5202	5202	5202	5202	5202	5282	5364	5364	5282	5282	5282	5282	5282	5202	5202	5202	5282	5282	5282	5364	5364	5364	5364	5282	5282	5282	5282	5282	5202	5202	5202	5282	5282	5282	5202	5282	5282	5282	5282	5282	5282	5282	5282	5202	5202	5202	5202	5202	5125	5125	5125	5125	5125	5125	5125	5050	5050	5050	5125	5125	5125	5050	5202	5125	5202	5202	5202	5202	5202	5202	5202	5202	5202	5202	5202	5202	5202	5125	5125	5125	5125	5202	5202	5202	5202	0	0	0	0	0	0	0	0	0	0	0	0	0	0	0	0	0	0	0	0	0	0	0	0	0	0	0	0	0	0	0	0	0	0
0	0	0	0	0	0	0	0	633	634	634	635	636	641	650	651	651	650	650	650	650	666	666	666	667	667	672	674	675	675	676	676	680	680	680	680	694	698	705	708	708	708	710	710	710	711	714	722	731	732	732	734	734	736	737	739	739	742	742	742	806	767	765	765	765	765	765	756	756	804	810	808	810	808	808	810	812	814	814	814	814	808	808	0	0	821	821	831	848	848	848	850	852	850	850	850	854	854	0	0	0	1142	1142	1142	1138	1138	1138	1142	1138	1138	1138	1134	1134	1134	1131	1134	1134	1131	1131	1131	1131	1131	1131	1131	1131	1134	1134	1134	1134	1134	1138	1138	1138	1131	1131	1131	1131	1131	1131	1138	1138	0	0	0	0	0	1142	1142	1142	0	0	0	0	0	0	0	0	0	0	0	5282	5282	5282	5282	5282	5282	5282	5282	5282	5282	5282	5282	5282	5202	5282	5282	5282	5282	5282	5282	5282	5282	5282	5282	5282	5282	5282	5282	5282	5282	5202	5202	5202	5202	5202	5202	5202	5202	5282	5282	5282	5282	5282	5282	5282	5282	5282	5282	5282	5282	5282	5282	5282	5282	5282	5282	5282	5282	5282	5364	5364	5364	5364	5364	5282	5282	5282	5282	5282	5282	5282	5282	5282	5282	5282	5282	5282	5282	5282	5282	5202	5282	5282	5282	5282	5282	5282	5282	5282	5282	5282	5282	5282	5282	5282	5282	5282	5282	5282	5202	5282	5282	5282	5282	5282	5282	5282	5364	5364	5364	5364	5364	5282	5282	5282	5282	5282	5282	5202	5282	5282	5282	5282	5282	5282	5282	5282	5282	5282	5282	5282	5282	5282	5282	5282	5282	5282	5282	5282	5282	5282	5282	5202	5202	5202	5202	5202	5202	5202	5125	5125	5202	5202	5202	5282	5282	5364	5364	5364	5282	5282	5282	5202	5202	5202	5202	5202	5282	5282	5282	5282	5364	5364	5364	5364	5364	5282	5282	5282	5202	5202	5202	5202	5202	5282	5282	5202	5202	5202	5202	5202	5202	5202	5202	5202	5202	5202	5202	5202	5202	5202	5202	5202	5202	5282	5282	5282	5282	5282	5282	5282	5282	5282	5282	5282	5282	5282	5282	5282	5282	5282	5282	5282	5282	5282	5282	5282	5202	5282	5282	5282	5282	5202	5202	5282	5282	5282	5282	5282	5282	5202	5202	5202	5202	5282	5282	5282	5282	5282	5282	5282	5202	5202	5202	5202	5125	5125	5202	5282	5282	5364	5364	5282	5364	5364	5364	5282	5282	5282	5282	5282	5282	5282	5282	5282	5282	5282	5282	5364	5282	5282	5364	5364	5282	5282	5282	5202	5282	5202	5202	5202	5202	5282	5282	5282	5282	5364	5364	5364	5364	5282	5282	5282	5282	5282	5282	5282	5282	5364	5364	5282	5282	5282	5282	5364	5364	5364	5282	5364	5364	5282	5282	5282	5282	5282	5282	5364	5282	5282	5202	5282	5364	5364	5364	5364	5364	5282	5282	5282	5282	5282	5202	5202	5202	5202	5202	5202	5202	5202	5282	5282	5202	5202	5202	5202	5202	5202	5202	5125	5125	5125	5202	5202	5202	5202	5282	5282	5364	5364	5282	5282	5282	5282	5282	5282	5282	5282	5282	5364	5282	5364	5364	5364	5364	5282	5282	5282	5282	5282	5282	5282	5282	5282	5282	5282	5202	5202	5202	5282	5282	5282	5282	5282	5282	5282	5202	5202	5202	5202	5125	5125	5202	5202	5125	5125	5125	5125	5050	5125	5125	5125	5125	5125	5202	5202	5202	5202	5202	5202	5202	5202	5202	5202	5202	5202	5202	5202	5125	5125	5202	5202	5202	5202	5202	5202	5202	0	0	0	0	0	0	0	0	0	0	0	0	0	0	0	0	0	0	0	0	0	0	0	0	0	0	0	0	0	0	0	0	0	0
0	0	0	0	0	0	0	0	0	634	635	636	636	638	638	651	652	651	651	651	650	666	666	666	667	669	671	674	675	675	676	678	680	680	682	682	694	698	707	708	708	710	710	710	711	714	717	725	729	732	732	732	734	736	737	737	739	742	742	755	755	765	765	765	765	765	765	756	756	756	810	812	815	815	814	815	817	815	814	814	814	814	0	0	0	0	0	831	833	848	848	850	850	854	850	854	854	854	854	0	0	0	1146	1146	1142	1138	1138	1138	1138	1138	1138	1138	1138	1138	1134	1134	1134	1131	1131	1127	1131	1131	1131	1131	1134	1134	1138	1134	1134	1134	1138	1138	1131	1131	1131	1131	1131	1131	1131	0	0	0	0	0	0	0	0	0	0	0	0	0	0	0	0	0	0	0	0	0	5282	5282	5364	5282	5282	5282	5282	5282	5282	5282	5282	5282	5282	5282	5282	5282	5282	5282	5282	5282	5282	5282	5282	5282	5282	5282	5282	5282	5282	5282	5282	5202	5202	5282	5282	5282	5282	5282	5282	5282	5282	5282	5282	5282	5282	5282	5282	5364	5282	5364	5364	5364	5282	5282	5282	5282	5282	5282	5282	5282	5364	5364	5364	5282	5282	5282	5282	5282	5282	5282	5282	5282	5282	5282	5282	5282	5282	5282	5282	5282	5282	5282	5364	5364	5364	5364	5282	5364	5364	5364	5364	5364	5364	5282	5282	5282	5282	5282	5282	5282	5282	5282	5282	5282	5282	5364	5364	5364	5364	5364	5364	5364	5282	5282	5282	5282	5282	5282	5282	5282	5282	5282	5282	5282	5282	5282	5282	5282	5282	5282	5282	5282	5282	5282	5282	5282	5282	5282	5282	5282	5282	5282	5282	5202	5202	5202	5202	5202	5202	5125	5202	5202	5202	5202	5282	5282	5364	5364	5282	5282	5282	5282	5282	5202	5202	5202	5282	5282	5364	5364	5364	5364	5364	5364	5364	5364	5364	5364	5364	5282	5282	5282	5282	5282	5282	5282	5282	5282	5282	5282	5282	5202	5202	5282	5202	5202	5202	5202	5282	5202	5202	5282	5282	5202	5282	5282	5282	5282	5282	5282	5282	5282	5282	5364	5282	5282	5282	5282	5282	5282	5282	5282	5282	5282	5282	5282	5282	5282	5282	5282	5282	5282	5282	5282	5282	5282	5282	5282	5282	5282	5282	5282	5282	5364	5364	5364	5364	5364	5364	5364	5282	5282	5202	5202	5202	5202	5202	5282	5364	5364	5364	5364	5364	5364	5364	5364	5282	5282	5282	5282	5282	5282	5282	5282	5282	5282	5282	5282	5282	5282	5282	5364	5364	5364	5282	5282	5202	5282	5202	5282	5202	5282	5282	5364	5364	5364	5364	5364	5364	5364	5364	5282	5282	5282	5282	5282	5282	5364	5364	5364	5364	5282	5282	5364	5364	5364	5364	5364	5364	5364	5364	5364	5364	5364	5364	5364	5364	5364	5364	5364	5364	5364	5364	5364	5364	5364	5364	5282	5282	5282	5282	5202	5202	5202	5202	5282	5282	5282	5282	5282	5282	5282	5202	5202	5202	5202	5202	5202	5202	5202	5202	5202	5202	5202	5202	5282	5282	5364	5364	5364	5282	5364	5364	5282	5282	5282	5282	5282	5448	5448	5448	5448	5448	5448	5364	5364	5364	5364	5282	5364	5282	5282	5282	5282	5282	5202	5202	5202	5202	5282	0	0	0	0	5364	5282	5282	5282	5202	5202	5202	5202	5202	5202	5125	5125	5125	5050	5125	5050	5125	5202	5202	5202	5202	5202	5202	5202	5202	5202	5202	5202	5282	5202	5202	5202	5202	5202	5125	5202	5202	5202	5202	5202	5202	5202	0	0	0	0	0	0	0	0	0	0	0	0	0	0	0	0	0	0	0	0	0	0	0	0	0	0	0	0	0	0	0	0	0	0
0	0	0	0	0	0	0	0	638	635	635	636	636	640	640	640	646	646	646	646	0	666	666	666	670	671	672	674	675	675	676	678	680	682	683	683	693	693	705	707	708	708	710	711	711	713	720	726	731	732	734	734	734	736	737	739	739	743	756	758	760	765	765	765	765	760	758	758	758	758	758	817	819	817	817	817	819	817	815	814	814	814	0	0	0	823	825	831	833	833	852	852	854	854	854	854	854	854	854	854	0	0	1146	1134	1134	1142	1142	1142	1138	1138	1138	1138	1138	1138	1134	1134	1134	1131	1127	1127	1131	1131	1127	1131	1131	1134	1134	1134	1134	1134	1138	1127	1127	1127	1131	1131	1131	1131	1131	0	0	0	0	0	0	0	0	0	0	0	0	0	0	0	0	0	0	0	0	0	5282	5282	5364	5282	5282	5282	5282	5282	5282	5282	5282	5282	5282	5282	5282	5282	5282	5282	5282	5364	5364	5364	5364	5364	5364	5364	5282	5282	5282	5282	5282	5282	5282	5282	5282	5282	5282	5282	5282	5282	5282	5364	5282	5282	5282	5282	5282	5364	5364	5364	5364	5364	5364	5282	5282	5282	5364	5282	5364	5364	5364	5364	5364	5282	5282	5282	5282	5282	5282	5282	5282	5364	5364	5364	5282	5282	5282	5364	5364	5364	5364	5364	5364	5364	5364	5364	5364	5364	5364	5364	5364	5364	5364	5364	5364	5282	5282	5282	5282	5282	5282	5282	5282	5282	5282	5364	5364	5364	5364	5364	5364	5364	5282	5282	5282	5282	5282	5282	5282	5282	5282	5282	5282	5282	5282	5282	5282	5282	5282	5282	5282	5282	5282	5282	5282	5282	5282	5282	5282	5282	5282	5282	5282	5202	5202	5202	5202	5202	5202	5202	5202	5282	5282	5282	5364	5282	5282	5282	5282	5282	5282	5282	5282	5202	5282	5282	5364	5364	5364	5364	5364	5364	5364	5364	5364	5364	5364	5364	5364	5364	5282	5282	5282	5282	5282	5282	5282	5282	5282	5282	5282	5202	5282	5282	5282	5282	5282	5282	5282	5282	5282	5282	5282	5282	5282	5364	5364	5364	5364	5364	5364	5364	5364	5364	5364	5364	5282	5364	5364	5282	5282	5282	5282	5282	5282	5282	5282	5282	5282	5282	5364	5364	5282	5282	5282	5282	5282	5282	5282	5282	5364	5364	5364	5364	5364	5364	5364	5364	5364	5364	5364	5282	5282	5282	5282	5282	5282	5282	5364	5364	5364	5364	5364	5364	5364	5364	5282	5364	5282	5282	5282	5282	5282	5282	5282	5282	5282	5364	5364	5282	5364	5364	5364	5364	5364	5364	5282	5364	5282	5282	5282	5282	5282	5364	5364	5448	5448	5448	5448	5364	5364	5364	5364	5364	5364	5364	5282	5364	5364	5364	5364	5364	5364	5364	5448	5364	5364	5364	5364	5364	5364	5364	5364	5364	5364	5364	5364	5448	5448	5448	5448	5364	5448	5448	5448	5364	5364	5364	5364	5282	5282	5282	5202	5202	5202	5282	5282	5282	5282	5282	5282	5282	5202	5202	5202	5202	5202	5202	5202	5202	5202	5202	5202	5202	5202	5202	5282	5364	5364	5364	5282	5364	5364	5282	5282	5282	5282	0	5448	5448	5448	5535	5535	5535	5448	5448	5448	5364	5364	5364	5364	5364	5364	5282	5282	5202	5202	5202	5202	0	0	0	0	0	5282	5282	5282	5202	5202	5202	5202	5202	5202	5202	5202	5125	5125	5125	5125	5125	5125	5202	5202	5202	5202	5282	5282	5282	5202	5202	5202	5202	5282	5202	5202	5202	5202	5202	5202	5202	5202	5202	5202	5202	5202	5202	0	0	0	0	0	0	0	0	0	0	0	0	0	0	0	0	0	0	0	0	0	0	0	0	0	0	0	0	0	0	0	0	0	0
0	0	0	0	0	0	0	0	635	635	635	636	639	639	640	642	646	646	646	656	656	658	658	658	671	671	672	674	675	675	676	676	680	682	682	682	682	707	707	707	708	708	710	711	711	713	714	725	732	732	734	734	734	736	737	739	740	745	756	758	761	765	765	765	765	760	761	761	761	819	821	823	821	819	819	819	819	817	815	814	814	823	823	821	825	825	831	831	835	835	852	852	854	854	856	858	856	856	860	878	878	0	0	1134	1142	1142	1142	1146	1138	1138	1138	1138	1138	1134	1131	1134	1134	1131	1131	1127	1127	1127	1127	1127	1131	1131	1131	1131	1131	1131	1134	1131	1131	1131	1131	1131	1131	1131	1131	0	0	0	0	0	0	0	0	0	0	0	0	0	0	0	0	0	0	0	0	0	5282	5282	5364	5282	5282	5282	5282	5282	5282	5282	5282	5364	5364	5364	5364	5282	5364	5282	5282	5364	5364	5364	5364	5364	5364	5364	5364	5282	5364	5364	5364	5282	5282	5282	5282	5282	5282	5282	5364	5282	5282	5282	5282	5282	5282	5282	5282	5282	5364	5364	5364	5364	5364	5282	5282	5364	5364	5282	5364	5364	5364	5364	5364	5282	5282	5282	5282	5282	5282	5282	5282	5364	5364	5364	5282	5282	5282	5364	5364	5364	5282	5282	5364	5364	5364	5364	5364	5364	5364	5364	5364	5364	5364	5364	5364	5282	5282	5282	5282	5282	5282	5282	5282	5282	5364	5364	5364	5364	5364	5364	5364	5364	5364	5364	5364	5282	5282	5282	5282	5282	5282	5282	5282	5282	5282	5282	5282	5282	5282	5282	5282	5282	5282	5282	5364	5364	5364	5364	5282	5282	5282	5282	5282	5282	5202	5202	5202	5202	5202	5202	5202	5282	5282	5282	5364	5282	5364	5364	5364	5364	5364	5364	5364	5282	5364	5364	5364	5364	5364	5364	5364	5364	5364	5364	5364	5364	5364	5364	5364	5364	5282	5282	5282	5282	5282	5282	5282	5364	5364	5364	5282	5282	5282	5282	5282	5282	5282	5282	5282	5282	5282	5282	5282	5282	5282	5364	5364	5282	5282	5282	5282	5282	5282	5364	5364	5364	5364	5364	5364	5364	5364	5364	5282	5282	5282	5282	5282	5282	5282	5282	5364	5282	5282	5282	5282	5282	5282	5282	5282	5282	5364	5364	5364	5364	5364	5364	5364	5364	5364	5364	5364	5364	5282	5282	5282	5282	5282	5282	5364	5364	5364	5364	5364	5364	5364	5364	5282	5364	5364	5364	5282	5282	5282	5282	5282	5282	5364	5364	5364	5364	5364	5364	5448	5364	5364	5364	5282	5364	5282	5282	5282	5282	5364	5364	5364	5448	5448	5448	5448	5448	5364	5364	5364	5364	5364	5364	5364	5364	5364	5364	5364	5282	5364	5364	5364	5364	5364	5364	5364	5364	5364	5364	5364	5448	5364	5364	5448	5448	5448	5448	5448	5448	5448	5448	5448	5448	5364	5364	5364	5282	5282	5282	5202	5202	5202	5282	5282	5282	5282	5282	5282	5282	5202	5202	5202	5202	5202	5202	5202	5202	5202	5202	5202	5202	5202	5202	0	0	0	0	0	0	0	0	0	0	0	0	5448	5448	0	5535	5535	5535	5535	5535	5448	5364	5364	5364	5364	5364	5282	5282	5282	5282	5202	0	0	0	0	0	0	0	5282	5282	5364	5202	5202	5202	5202	5282	5282	5202	5202	5282	5202	5202	5202	5125	5202	5202	5202	5202	5202	5282	5282	5282	5202	5202	5202	5282	5282	5282	5282	5282	5202	5202	5202	5202	5202	5202	5202	5202	5202	5202	0	0	0	0	0	0	0	0	0	0	0	0	0	0	0	0	0	0	0	0	0	0	0	0	0	0	0	0	0	0	0	0	0	0
0	0	0	0	0	0	0	0	635	636	636	638	639	640	640	642	645	646	647	656	656	658	658	658	671	671	672	672	674	675	675	676	679	682	682	682	682	707	708	708	708	708	710	711	711	713	714	723	732	731	732	732	734	736	737	739	742	748	753	755	758	763	765	765	767	763	763	773	773	823	825	825	823	821	821	819	821	817	817	815	815	823	825	823	825	825	831	831	835	835	845	850	852	854	858	860	860	860	860	878	878	878	0	0	1142	1142	1142	1146	1134	1138	1138	1138	1138	1138	1134	1134	1134	1131	1131	1127	1127	1127	1127	1127	1127	1127	1127	1127	1131	1131	1127	1127	1131	1131	1131	1134	1134	1134	0	0	0	0	0	0	0	0	0	0	0	0	0	0	0	0	0	0	0	0	0	0	5282	5364	5364	5282	5282	5282	5282	5282	5282	5282	5282	5364	5364	5448	5364	5282	5282	5282	5282	5282	5448	5364	5448	5535	5535	5535	5535	5448	5535	5535	5448	5364	5282	5282	5282	5282	5282	5282	5364	5364	5282	5282	5282	5282	5282	5282	5282	5364	5364	5364	5364	5364	5364	5364	5364	5364	5364	5364	5364	5448	5448	5364	5364	5364	5364	5282	5282	5282	5364	5364	5364	5364	5364	5364	5364	5364	5364	5364	5364	5364	5364	5364	5364	5364	5364	5364	5364	5364	5364	5364	5364	5364	5364	5364	5364	5364	5282	5282	5282	5282	5282	5282	5282	5364	5364	5364	5364	5364	5364	5364	5364	5364	5364	5364	5364	5364	5364	5364	5282	5364	5364	5282	5282	5282	5364	5282	5282	5282	5282	5282	5282	5282	5282	5282	5282	5364	5364	5364	5364	5282	5364	5282	5282	5282	5282	5282	5282	5282	5282	5282	5282	5282	5282	5282	5364	5364	5364	5364	5364	5364	5364	5364	5364	5364	5364	5364	5364	5364	5364	5364	5364	5364	5364	5364	5364	5364	5364	5364	5364	5364	5364	5364	5364	5364	5364	5282	5282	5282	5282	5282	5282	5202	5282	5282	5282	5282	5282	5282	5282	5282	5364	5364	5282	5282	5282	5364	5364	5202	5202	5282	5282	5282	5282	5282	5282	5364	5202	5364	5282	5282	5282	5282	5282	5282	5282	5282	5282	5282	5282	5364	5364	5364	5282	5282	5282	5282	5202	5282	5282	5282	5364	5364	5364	5448	5448	5448	5448	5448	5448	5364	5364	5364	5282	5282	5282	5282	5282	5282	5364	5364	5364	5364	5364	5364	5364	5448	5364	5364	5364	5364	5364	5364	5282	5282	5282	5282	5364	5364	5364	5364	5364	5448	5448	5364	5364	5364	5282	5364	5282	5282	5282	5282	5364	5364	5364	5364	5364	5448	5448	5448	5364	5364	5364	5364	5448	5448	5364	5364	5448	5364	5364	5364	5364	5364	5448	5364	5448	5448	5448	5448	5448	5364	5448	5448	5364	5364	5448	5448	5448	5448	5448	5448	5448	5535	5535	5448	5448	5448	5448	5364	5282	5282	5282	5282	5282	5282	5282	5282	5364	5282	5202	5282	5202	5202	5202	5202	5202	5202	5202	0	5202	5202	5202	5202	5202	0	0	0	0	0	0	0	0	0	0	0	0	0	0	0	0	0	5535	5535	5535	5535	5448	5364	5364	5719	5719	5364	5282	5282	5282	5282	0	0	0	0	0	0	0	0	0	0	5364	5202	5202	5202	5202	5202	5282	5282	5202	5202	5282	5202	5202	5202	5202	5202	5202	5282	5282	5282	5282	5282	5282	5202	5282	5282	5282	5282	5282	5282	5282	5282	5202	5202	5202	5202	5282	5202	5282	5282	0	0	0	0	0	0	0	0	0	0	0	0	0	0	0	0	0	0	0	0	0	0	0	0	0	0	0	0	0	0	0	0	0	0
0	0	0	0	0	0	0	0	0	636	636	639	640	640	640	642	645	647	648	656	656	658	658	658	671	671	672	672	675	675	675	675	676	676	676	676	0	0	708	708	708	708	710	711	711	713	713	713	726	731	732	732	734	737	739	740	745	748	752	755	756	758	760	765	763	765	773	775	779	779	779	825	825	823	823	823	823	819	817	819	825	823	825	825	825	825	831	829	829	845	845	852	856	856	860	860	862	867	871	878	878	887	889	889	0	1142	1142	1146	1138	1138	1138	1138	1138	1138	1134	1138	1138	1134	1134	1131	1131	1127	1127	1127	1127	1123	1127	1123	1127	1127	1131	1127	1131	1131	1131	1134	1134	1134	0	0	0	0	0	0	0	0	0	0	0	0	0	0	0	0	0	0	0	0	0	0	0	5364	5364	5364	5282	5282	5282	5282	5282	5364	5364	5364	5364	5448	5364	5282	5282	5282	5282	5282	5448	5364	5448	5448	5535	5535	5535	5448	5448	5535	5448	5364	5364	5364	5282	5282	0	0	0	5364	5282	5282	5364	5282	5282	5282	5282	5364	5364	5364	5364	5364	5364	5364	5364	5364	5364	5364	5448	5448	5448	5448	5364	5364	5364	5282	5282	5282	5364	5364	5364	5448	5364	5448	5364	5364	5364	5364	5364	5364	5364	5364	5364	5364	5364	5364	5364	5364	5364	5364	5364	5364	5364	5364	5364	5364	5364	5364	5364	5364	5282	5282	5364	5364	5364	5364	5364	5364	5364	5364	5364	5364	5364	5364	5364	5364	5364	5364	5364	5364	5364	5364	5364	5364	5364	5282	5282	5282	5282	5282	5282	5364	5282	5364	5364	5364	5364	5364	5364	5364	5364	5364	5364	5282	5282	5282	5282	5282	5282	5282	5282	5282	5282	5282	5282	5364	5364	5364	5364	5364	5364	5364	5448	5364	5364	5364	5364	5364	5364	5364	5364	5282	5364	5364	5364	5364	5364	5364	5364	5364	5364	5364	5364	5364	5364	5282	5282	5364	5364	5364	5282	5202	5282	5282	5282	5364	5282	5364	5364	5364	5448	5364	5364	5282	5282	5364	5364	5282	5282	5282	5282	5282	5202	5202	5282	5282	5282	5282	5282	5282	5282	5282	5282	5282	5282	5282	5282	5364	5364	5364	5364	5364	5364	5282	5282	5282	5282	5282	5282	5364	5364	5364	5364	5448	5448	5448	5448	5448	5448	5448	5364	5364	5364	5364	5282	5282	5282	5282	5364	5364	5448	5364	5364	5364	5364	5448	5364	5364	5364	5364	5364	5364	5282	5282	5282	5282	5364	5364	5364	5364	5364	5448	5448	5448	5364	5364	5364	5364	5364	5364	5282	5282	5364	5364	5364	5448	5448	5448	5448	5448	5448	5364	5364	5364	5448	5448	5448	5364	5448	5364	5448	5364	5364	5364	5448	5448	5448	5448	5448	5448	5448	5448	5448	5448	5448	5448	5448	5448	5448	5448	5448	5448	5535	5535	5535	5448	5448	5448	5448	5364	5364	5364	5364	5364	5282	5282	5282	5364	5364	5364	5202	5282	5202	5202	5202	5202	0	0	0	0	0	0	0	0	0	0	0	0	0	0	0	0	0	0	0	0	0	0	0	0	0	0	5535	5364	5282	5282	5202	5364	5364	5719	5719	0	0	0	0	0	0	0	0	0	0	0	0	0	0	0	0	5202	5202	5202	5202	5282	5282	5202	5202	5202	5202	5202	5202	5202	5202	5282	5282	5282	5282	5282	5282	5282	5282	5282	5282	5282	5282	5282	5282	5282	5202	5202	5202	5202	5202	5202	5202	5282	5364	5364	0	0	0	0	0	0	0	0	0	0	0	0	0	0	0	0	0	0	0	0	0	0	0	0	0	0	0	0	0	0	0	0	0	0
0	0	0	0	0	0	0	0	0	636	638	639	640	640	641	644	646	647	648	655	656	658	658	670	671	671	672	672	675	675	675	675	676	676	676	676	0	0	710	710	710	711	710	711	711	713	714	716	725	728	731	729	734	739	740	742	747	748	750	753	753	760	761	763	770	772	775	775	779	779	779	779	779	825	831	825	825	821	821	823	825	825	827	825	827	829	831	831	833	833	843	858	858	858	860	860	862	867	875	878	878	878	887	891	891	0	0	1146	1142	1138	1138	1142	1142	1142	1138	1138	1138	1134	1134	1131	1131	1127	1127	1127	1127	1123	1123	1123	1127	1127	1127	1127	1131	1131	1131	1131	1134	1134	0	0	0	0	0	0	0	0	0	0	0	0	0	0	0	0	0	0	0	0	0	0	0	5448	5448	5448	5448	5364	5364	5364	5364	5448	5448	0	0	0	0	0	0	0	0	0	0	0	5448	5448	5535	5535	5535	5535	5535	5535	5535	5535	5364	5364	5282	5282	0	0	0	0	0	0	5364	5364	5364	5364	5364	5364	5448	5448	5448	5448	5364	5364	5448	5448	5448	5448	5448	5448	5448	5448	5364	5364	5364	5282	5282	5282	5364	5364	5364	5448	5448	5448	5364	5448	5448	5448	5364	5364	5364	5364	5448	5448	5364	5364	5364	5364	5364	5364	5364	5364	5364	5448	5448	5448	5364	5364	5364	5364	5364	5364	5364	5364	5364	5364	5364	5364	5448	5448	5364	5364	5364	5364	5364	5364	5364	5364	5364	5364	5364	5364	5364	5282	5282	5282	5282	5282	5282	5282	5282	5282	5282	5364	5364	5364	5364	5364	5364	5364	5364	5364	5364	5364	5282	5282	5282	5282	5282	5282	5282	5282	5282	5364	5448	5364	5448	5448	5448	5448	5448	5448	5448	5448	5364	5364	5364	5364	5364	5364	5364	5282	5364	5364	5364	5364	5364	5364	5448	5448	5364	5364	5364	5364	5364	5282	5282	5364	5282	5364	5282	5282	5282	5364	5364	5448	5364	5364	5364	5364	5448	5448	5364	5364	5364	5448	5364	5282	5282	5282	5282	5282	5282	5202	5282	5282	5282	5282	0	5282	5202	5202	0	0	5282	5282	5282	5364	5448	5448	5364	5364	5364	5364	5364	5364	5282	5282	5364	5364	5364	5364	5364	5448	5448	5448	5448	5448	5448	5448	5364	5364	5364	5364	5364	5364	5364	5364	5364	5364	5448	5448	5448	5448	5448	5448	5364	5282	5282	5282	5364	5364	5364	5282	5364	5364	5448	5448	5448	5448	5448	5448	5448	5448	5448	5448	5364	5364	5364	5364	5282	5364	5448	5448	5448	5448	5448	5448	5448	5448	5448	5364	5364	5448	5448	5448	5448	5448	5448	5448	5448	5448	5448	5448	5448	5448	5448	5448	5448	5448	5448	5448	5448	5448	5448	5448	5535	5448	5448	5448	5448	5448	5448	5448	5448	5448	5448	5448	5448	5448	5448	5364	5448	5364	5364	5282	5282	5282	5282	5364	0	0	0	0	0	0	0	0	0	0	0	0	0	0	0	0	0	0	0	0	0	0	0	0	0	0	0	0	0	0	0	0	5448	5448	5282	5282	5282	5364	5364	0	0	0	0	0	0	0	0	0	0	0	0	0	0	0	0	0	5202	5202	5282	5202	5202	5282	5282	5202	5202	5202	5202	5202	5282	5202	5282	5282	5282	5282	5282	5282	5282	5282	5282	5282	5282	5282	5282	5282	5282	5282	5202	5202	5202	5202	5202	5282	5282	5282	5364	5364	0	0	0	0	0	0	0	0	0	0	0	0	0	0	0	0	0	0	0	0	0	0	0	0	0	0	0	0	0	0	0	0	0	0
