0	0	0	0	0	0	0	0	0	0	0	0	0	0	0	2426	2426	2426	2426	2426	2409	2409	2409	2409	2409	2409	2409	2409	2426	2426	2426	2426	2426	2443	2443	2443	2426	2409	2426	2409	2409	2409	2409	2409	2426	2426	2443	2426	2426	2409	2409	2426	2409	2409	2409	2426	2426	2426	2426	2426	2443	2443	2443	2460	2460	2460	2460	2460	2460	2443	2443	2460	2460	2443	2443	2443	2426	2426	2460	2460	2460	2460	2460	2443	2478	2443	2426	2443	2443	2443	2460	2460	2460	2460	2460	2460	2443	2443	2443	2443	2443	2460	2460	2460	2460	2460	2967	2917	2917	2917	2942	2942	2967	2967	2993	2993	2993	2993	2967	2967	2967	2967	2942	2942	2967	2967	2993	2993	3019	3019	3019	3019	3019	3440	3440	3475	3510	3510	3475	3510	3510	3510	3510	3510	3510	3510	3475	3475	3475	3510	3510	3510	3510	3510	3510	3546	3546	3546	3546	3546	3583	3583	3583	3583	3621	3583	3583	3583	3583	3583	3583	3583	3583	3583	3546	3546	3546	3546	3546	3546	3546	3546	3546	3546	3583	3583	3583	3583	3583	3546	3546	3583	3546	3546	3546	3546	3546	3621	3546	3621	3583	3583	3583	3583	3583	3583	3583	3583	3546	3583	3583	3583	3583	3583	3583	3583	3583	3583	3583	3583	3583	3583	3583	3583	3546	3546	3546	3583	3583	3583	3583	3583	3583	3621	3621	3621	3621	3621	3583	3583	3621	3621	3621	3621	3621	3621	3621	3621	3621	3583	2942	2942	2942	2942	2967	2942	2942	2942	2942	2942	2967	2967	2967	2993	2993	2967	2993	2967	2967	2967	2967	2967	2967	2942	2967	2967	2942	2942	2942	2942	2942	2942	2942	2942	2942	2942	2942	2917	2917	2917	2942	2942	2917	2917	2917	2893	2893	2893	2893	2917	2917	2942	2942	2942	2942	2967	2967	2967	2967	2967	2967	2967	2967	2967	2993	2993	3019	2993	3019	3046	3073	3073	3073	3073	3073	3046	3046	3046	3019	3019	2993	2993	3019	3019	3779	3738	3698	3698	3659	3659	3659	3621	3621	3621	3621	3621	3621	3621	3621	3659	3659	3659	3659	3659	3659	3698	3698	3698	3698	3698	3698	3659	3659	3659	3621	3659	3621	3659	3659	3659	3659	3659	3659	3698	3698	3659	3698	3659	3659	3659	3621	3621	3659	3659	3659	3659	3659	3659	3659	3659	3698	3698	3659	3659	3659	3698	3659	3659	3738	3698	3698	3698	3698	3698	3698	3698	3698	3698	3698	3659	3659	3698	3659	3659	3698	3698	3698	3698	3698	3698	3659	3698	3698	3698	3698	3698	3698	3698	3698	3698	3698	3698	3698	3698	3698	3698	3698	3698	3698	3659	3659	3659	3659	3659	3659	3659	3659	3659	3659	3659	3659	3659	3659	3659	3659	3659	3659	3621	3621	3621	3621	2114	2114	2101	2101	2101	2101	2088	2076	2063	2051	2039	2027	2015	2015	2015	1992	1980	1980	1980	1980	1980	1969	1958	1958	1947	1936	1915	1915	1904	1894	1894	1894	1883	1883	1873	1863	1843	1833	1824	1814	1814	1804	1804	1795	1795	1786	1768	1759	1750	1741	1741	1741	1723	1723	1715	1706	1698	1698	1681	1681	1673	1649	1649	1649	1634	1626	1626	1618	1618	1611	1603	1596	1589	1589	1589	1581	1567	1560	1553	1553	1539	1532	1532	1525	1525	1525	1519	1519	1512	1512	1512	1519	1525	1532	1532	1539	1539	1539	1539	1546	1546	1546	1546	1553	1553	1553	1560	1553	1553	1553	1553	1553	1553	1553	1546	1553	1546	1546	1546	1546	1546	1553	1553	1553	1553	1553	1553	1560	1553	1553	1546	1546	1546	1546	1539	1539	1539	0	0	0	0	0	0	0	0	0	0	0	0	0	0	0	0	0	0	0	0	0	0	0	0	0	0	0	0	0	0	0	0	0	0	0	0	0	0	0	0	0	0
0	0	0	0	0	0	0	0	0	0	0	0	0	0	0	2426	2426	2426	2426	2426	2409	2409	2409	2409	2409	2409	2409	2409	2409	2426	2426	2426	2460	2460	2460	2443	2426	2409	2426	2409	2409	2409	2409	2409	2409	2426	2426	2426	2409	2409	2409	2426	2409	2409	2409	2426	2426	2443	2426	2443	2443	2443	2460	2460	2460	2478	2460	2460	2460	2443	2443	2460	2460	2443	2443	2443	2443	2443	2460	2460	2460	2460	2443	2443	2443	2443	2426	2426	2443	2443	2460	2460	2460	2460	2460	2460	2443	2443	2443	2443	2443	2460	2460	2478	2478	2460	0	0	2917	2917	2942	2942	2993	2993	2993	2993	3019	3019	3019	3019	3019	2993	3019	2993	2993	2993	3019	3019	3019	3046	3046	3046	3046	3101	3101	3475	3475	3475	3475	3475	3475	3510	3510	3510	3510	3510	3510	3475	3475	3510	3510	3510	3510	3510	3510	3546	3546	3546	3546	3546	3546	3583	3583	3583	3583	3583	3583	3583	3583	3583	3583	3583	3583	3546	3546	3546	3546	3546	3546	3546	3546	3546	3546	3546	3546	3546	3546	3583	3583	3546	3546	3546	3546	3546	3546	3546	3546	3621	3621	3621	3583	3583	3583	3583	3583	3583	3583	3546	3546	3583	3583	3583	3583	3583	3583	3583	3583	3583	3583	3583	3583	3583	3546	3583	3546	3546	3583	3583	3583	3583	3583	3546	3583	3621	3621	3621	3621	3621	3621	3621	3621	3583	3583	3621	3621	3621	3621	3583	3583	3546	3621	2942	2942	2967	2967	2967	2942	2942	2942	2942	2942	2942	2967	2967	2993	2967	2993	2967	2967	2967	2967	2967	2942	2942	2967	2967	2942	2942	2942	2942	2942	2942	2942	2942	2942	2942	2942	2942	2917	2942	2942	2942	2917	2917	2917	2893	2893	2893	2893	2917	2917	2942	2942	2942	2942	2942	2967	2967	2967	2967	2967	2967	2967	2967	2993	2993	3019	2993	2993	3019	3073	3073	3073	3046	3073	3046	3046	3019	3019	2993	2993	2993	2993	2993	3738	3698	3698	3698	3698	3659	3659	3621	3621	3621	3621	3621	3621	3621	3621	3659	3659	3659	3659	3659	3659	3698	3659	3659	3659	3698	3659	3659	3659	3659	3659	3659	3659	3659	3659	3659	3659	3659	3659	3698	3698	3698	3659	3698	3659	3698	3659	3621	3659	3659	3659	3659	3659	3659	3659	3659	3659	3659	3659	3659	3659	3659	3698	3698	3738	3738	3698	3698	3698	3698	3698	3698	3698	3659	3698	3698	3698	3698	3698	3698	3698	3698	3698	3698	3698	3698	3659	3698	3659	3698	3698	3698	3698	3698	3698	3698	3698	3698	3698	3698	3738	3738	3738	3698	3698	3659	3659	3659	3659	3659	3659	3659	3659	3659	3659	3659	3659	3659	3659	3659	3659	3659	3659	3621	3621	3621	2127	2114	2114	2114	2114	2101	2101	2088	2076	2063	2051	2027	2027	2027	2015	2015	1992	1992	1992	1980	1980	1980	1969	1958	1958	1947	1936	1936	1915	1904	1904	1894	1894	1883	1873	1863	1853	1833	1833	1824	1814	1804	1804	1795	1795	1786	1786	1768	1759	1750	1750	1741	1741	1723	1715	1715	1706	1698	1698	1681	1681	1673	1657	1649	1641	1634	1626	1626	1618	1618	1611	1603	1596	1589	1589	1581	1574	1567	1567	1553	1553	1539	1532	1532	1525	1525	1519	1519	1512	1506	1506	1512	1519	1525	1532	1532	1539	1539	1539	1539	1546	1546	1546	1553	1553	1553	1553	1560	1553	1553	1553	1553	1553	1553	1553	1546	1553	1553	1553	1553	1553	1553	1553	1553	1553	1553	1553	1553	1560	1553	1553	1546	1546	1546	1546	1539	1532	1532	1532	0	0	0	0	0	0	0	0	0	0	0	0	0	0	0	0	0	0	0	0	0	0	0	0	0	0	0	0	0	0	0	0	0	0	0	0	0	0	0	0	0
0	0	0	0	0	0	0	0	0	0	0	0	0	0	0	2426	2426	2409	2409	2409	2409	2409	2409	2409	2409	2409	2409	2409	2409	2426	2426	2426	2426	2460	2460	2443	2426	2426	2426	2409	2409	2409	2409	2409	2409	2409	2426	2426	2426	2426	2426	2426	2426	2409	2426	2426	2426	2426	2426	2443	2443	2443	2460	2460	2460	2478	2460	2460	2460	2443	2443	2443	2443	2443	2443	2443	2443	2443	2443	2443	2443	2443	2443	2443	2443	2443	2443	2443	2460	2460	2460	2460	2460	2460	2460	2460	2443	2443	2443	2443	2443	2460	2460	2478	2478	0	0	0	0	0	2993	2993	3019	3019	3019	3019	3019	3019	3019	3019	3019	3019	3019	3019	3019	3046	3046	3073	3073	3073	3073	3073	3046	3101	3101	3129	3475	3475	3440	3475	3475	3475	3510	3510	3510	3510	3510	3475	3475	3510	3510	3510	3510	3510	3510	3546	3546	3546	3546	3546	3546	3583	3583	3583	3583	3583	3583	3583	3583	3583	3583	3583	3583	3583	3546	3546	3546	3546	3546	3546	3546	3546	3546	3546	3546	3546	3546	3583	3546	3546	3546	3546	3546	3546	3546	3546	3546	3546	3546	3621	3583	3583	3583	3583	3583	3583	3583	3546	3546	3583	3583	3583	3583	3583	3621	3621	3621	3583	3583	3583	3583	3583	3546	3583	3583	3546	3583	3583	3583	3583	3583	3546	3583	3621	3621	3621	3621	3621	3621	3621	3621	3583	3583	3621	3621	3621	3583	3583	3583	3583	3621	3583	2942	2967	2967	2967	2942	2942	2942	2942	2942	2942	2967	2967	2967	2967	2993	2967	2967	2967	2967	2967	2942	2942	2942	2942	2942	2942	2942	2942	2942	2942	2942	2942	2942	2942	2942	2942	2942	2942	2942	2942	2942	2917	2917	2893	2893	2893	2893	2893	2917	2917	2942	2942	2942	2967	2967	2967	2967	2967	2967	2967	2967	2967	2993	2993	2993	3019	2993	3019	3046	3073	3046	3046	3046	3046	3019	3019	3019	2993	2993	2993	2993	3738	3698	3698	3698	3698	3698	3659	3659	3659	3621	3659	3621	3621	3621	3621	3621	3659	3659	3659	3659	3659	3659	3698	3659	3698	3698	3698	3698	3621	3659	3659	3621	3659	3659	3659	3659	3659	3659	3659	3659	3698	3698	3698	3659	3659	3659	3659	3659	3659	3659	3659	3659	3659	3659	3659	3659	3659	3659	3659	3621	3659	3621	3659	3659	3698	3698	3698	3698	3698	3698	3698	3698	3698	3698	3698	3698	3698	3738	3738	3738	3698	3698	3698	3698	3698	3698	3698	3698	3698	3659	3698	3698	3698	3659	3698	3659	3698	3698	3698	3698	3698	3698	3738	3698	3698	3698	3659	3659	3659	3659	3659	3659	3659	3659	3659	3659	3659	3659	3659	3659	3659	3659	3659	3621	3621	3621	3621	2127	2127	2127	2114	2114	2114	2101	2088	2076	2063	2063	2039	2027	2015	2015	2015	2015	2003	2003	1992	1980	1980	1969	1958	1958	1947	1936	1936	1925	1915	1904	1894	1894	1883	1873	1863	1853	1853	1833	1824	1814	1814	1804	1804	1795	1786	1786	1768	1759	1750	1750	1741	1741	1732	1723	1706	1706	1698	1690	1681	1681	1673	1657	1649	1649	1641	1626	1618	1618	1611	1611	1596	1596	1589	1581	1581	1574	1567	1560	1553	1553	1539	1532	1532	1525	1525	1519	1519	1512	1506	1506	1512	1519	1525	1525	1532	1539	1539	1539	1539	1546	1546	1546	1546	1553	1553	1553	1553	1553	1553	1553	1553	1553	1546	1546	1553	1553	1553	1553	1553	1553	1553	1546	1553	1553	1546	1553	1553	1553	1553	1546	1546	1546	1546	1539	1539	1539	1539	1539	0	0	0	0	0	0	0	0	0	0	0	0	0	0	0	0	0	0	0	0	0	0	0	0	0	0	0	0	0	0	0	0	0	0	0	0	0	0	0	0	0
0	0	0	0	0	0	0	0	0	0	0	0	0	0	0	2426	2426	2409	2426	2409	2409	2409	2409	2409	2409	2409	2409	2409	2409	2409	2409	2426	2426	2460	2460	2426	2426	2409	2426	2409	2409	2409	2409	2409	2409	2409	2426	2426	2409	2409	2409	2426	2426	2409	2426	2426	2426	2426	2426	2426	2443	2443	2443	2460	2443	2460	2460	2460	2460	2443	2443	2443	2443	2443	2443	2443	2443	2443	2443	2443	2443	2443	2443	2443	2460	2443	2443	2460	2460	2460	2478	2460	2460	2460	2460	2443	2443	2426	2426	2443	2460	2460	2478	2478	2478	0	0	0	0	0	2993	3046	3073	3073	3046	3046	3046	3046	3046	3046	3046	3046	3046	3046	3046	3073	3073	3101	3101	3101	3101	3101	3101	3129	3129	3129	3129	3129	3440	3440	3475	3475	3510	3510	3510	3510	3510	3475	3475	3510	3510	3510	3510	3510	3510	3510	3546	3546	3546	3546	3583	3583	3583	3583	3583	3583	3583	3583	3583	3583	3583	3546	3546	3546	3546	3583	3583	3583	3546	3546	3546	3546	3546	3546	3546	3546	3546	3583	3583	3546	3546	3546	3546	3546	3546	3546	3546	3546	3621	3621	3583	3583	3583	3583	3583	3583	3546	3546	3546	3546	3583	3583	3583	3583	3583	3621	3583	3583	3583	3583	3546	3583	3546	3546	3546	3546	3583	3583	3583	3583	3583	3583	3583	3621	3621	3583	3583	3621	3621	3621	3621	3621	3621	3621	3621	3621	3583	3583	3583	3583	3583	3583	2942	2942	2967	2942	2942	2942	2942	2942	2942	2942	2942	2967	2967	2967	2967	2967	2967	2967	2967	2967	2942	2942	2942	2942	2942	2942	2942	2942	2942	2942	2942	2942	2917	2942	2917	2917	2917	2942	2942	2942	2917	2917	2917	2893	2893	2893	2893	2917	2917	2942	2942	2942	2942	2942	2942	2942	2967	2967	2967	2967	2967	2967	2993	2993	2993	2993	2993	3019	3046	3073	3046	3046	3046	3019	3019	2993	2993	2993	2993	2993	2993	3698	3698	3698	3621	3621	3698	3659	3659	3659	3621	3659	3621	3621	3659	3659	3621	3621	3659	3659	3659	3659	3659	3698	3659	3698	3698	3698	3698	3659	3659	3659	3659	3659	3621	3659	3621	3621	3659	3659	3698	3698	3698	3698	3659	3659	3659	3659	3659	3659	3659	3659	3659	3659	3659	3659	3621	3621	3621	3621	3621	3621	3621	3621	3698	3698	3698	3698	3698	3698	3698	3698	3698	3698	3698	3698	3738	3659	3698	3738	3738	3698	3698	3698	3698	3698	3698	3659	3698	3698	3698	3698	3698	3698	3698	3659	3659	3698	3698	3659	3698	3698	3698	3698	3698	3659	3698	3659	3659	3659	3659	3659	3659	3659	3659	3659	3659	3659	3659	3659	3621	3621	3659	3621	3621	3621	3621	0	2127	2127	2127	2127	2114	2114	2101	2088	2076	2063	2063	2039	2027	2027	2015	2015	2003	2003	2003	1992	1992	1992	1980	1969	1958	1947	1947	1936	1925	1915	1904	1894	1894	1883	1873	1863	1853	1853	1843	1824	1814	1814	1804	1795	1795	1786	1777	1768	1759	1750	1741	1741	1732	1723	1715	1715	1706	1698	1698	1681	1681	1673	1657	1649	1641	1641	1626	1618	1618	1611	1611	1603	1589	1589	1581	1574	1574	1567	1560	1553	1546	1539	1532	1532	1525	1525	1519	1519	1512	1506	1506	1512	1519	1525	1525	1532	1532	1539	1539	1539	1546	1546	1546	1546	1553	1553	1553	1553	1553	1553	1553	1553	1553	1546	1553	1553	1553	1553	1553	1553	1553	1553	1553	1553	1546	1546	1546	1546	1553	1546	1546	1546	1546	1546	1539	1539	1539	1539	1539	0	0	0	0	0	0	0	0	0	0	0	0	0	0	0	0	0	0	0	0	0	0	0	0	0	0	0	0	0	0	0	0	0	0	0	0	0	0	0	0	0
0	0	0	0	0	0	0	0	0	0	0	0	0	0	0	2426	2426	2409	2409	2409	2409	2409	2409	2409	2409	2409	2409	2409	2409	2409	2426	2426	2426	2426	2426	2426	2426	2409	2409	2409	2409	2409	2409	2409	2409	2409	2426	2426	2426	2426	2409	2426	2409	2409	2409	2409	2426	2426	2409	2426	2443	2443	2443	2443	2443	2460	2460	2443	2443	2443	2443	2443	2443	2426	2443	2443	2443	2443	2460	2443	2460	2443	2443	2443	2443	2443	2443	2460	2460	2460	2478	2460	2460	2460	2460	2460	2443	2443	2443	2460	2478	2478	2478	2478	2478	0	0	0	0	0	0	3073	3101	3073	3073	3073	3073	3073	3073	3073	3073	3073	3073	3073	3073	3101	3101	3101	3101	3101	3101	3101	3101	3101	3129	3129	3129	3129	3157	3216	3440	3440	3475	3510	3475	3475	3510	3475	3475	3510	3510	3510	3510	3510	3510	3546	3546	3583	3583	3583	3583	3621	3583	3583	3546	3546	3583	3583	3583	3583	3583	3583	3583	3583	3583	3583	3583	3583	3583	3583	3546	3546	3546	3546	3546	3546	3546	3583	3583	3546	3546	3546	3546	3546	3546	3546	3583	3583	3546	3546	3583	3583	3583	3583	3583	3546	3546	3546	3546	3583	3583	3583	3583	3583	3583	3621	3583	3583	3583	3583	3546	3546	3546	3546	3546	3546	3583	3583	3583	3583	3583	3546	3583	3583	3621	3583	3583	3621	3621	3621	3621	3621	3621	3659	3621	3621	3583	3583	3583	3583	3583	3583	2942	2942	2967	2942	2942	2942	2942	2942	2942	2942	2942	2967	2967	2967	2967	2967	2967	2967	2967	2942	2942	2942	2942	2942	2942	2942	2942	2942	2942	2942	2942	2942	2942	2942	2942	2917	2917	2942	2917	2917	2917	2917	2893	2893	2893	2893	2893	2917	2917	2942	2942	2942	2942	2967	2967	2967	2967	2967	2967	2967	2967	2967	2993	2993	2993	2993	2993	3019	3046	3046	3046	3019	3046	3019	3019	2993	3019	2993	2993	2993	2993	2993	3659	3659	3621	3621	3698	3659	3659	3659	3659	3659	3659	3659	3659	3659	3659	3659	3659	3659	3659	3659	3659	3698	3698	3698	3698	3698	3698	3659	3659	3659	3659	3659	3621	3659	3621	3621	3621	3659	3659	3698	3698	3698	3698	3659	3659	3659	3659	3659	3659	3659	3659	3659	3659	3659	3621	3621	3621	3621	3621	3621	3621	3621	3621	3698	3698	3698	3698	3698	3698	3698	3698	3698	3698	3698	3698	3659	3659	3738	3738	3659	3659	3659	3698	3659	3698	3659	3659	3659	3698	3698	3698	3698	3659	3698	3659	3659	3698	3659	3698	3659	3698	3698	3698	3698	3659	3659	3659	3659	3659	3659	3659	3659	3659	3659	3659	3659	3659	3621	3621	3621	3621	3621	3621	3621	0	0	2153	2140	2140	2127	2127	2114	2114	2101	2088	2076	2063	2051	2039	2027	2027	2015	2015	2015	2015	2003	1992	1992	1980	1969	1958	1947	1947	1936	1925	1915	1904	1894	1894	1883	1873	1863	1853	1853	1833	1833	1824	1824	1804	1795	1795	1786	1777	1777	1759	1750	1741	1741	1732	1723	1715	1706	1706	1698	1690	1681	1673	1673	1657	1649	1649	1649	1626	1618	1618	1611	1611	1603	1596	1589	1581	1574	1567	1560	1560	1553	1546	1539	1532	1532	1525	1525	1525	1512	1512	1506	1506	1506	1512	1519	1525	1532	1532	1532	1539	1539	1546	1546	1546	1546	1553	1553	1553	1553	1553	1553	1553	1553	1546	1546	1546	1546	1553	1553	1553	1553	1553	1546	1546	1546	1546	1539	1539	1546	1553	1553	1546	1546	1546	1546	1539	1539	1539	1539	0	0	0	0	0	0	0	0	0	0	0	0	0	0	0	0	0	0	0	0	0	0	0	0	0	0	0	0	0	0	0	0	0	0	0	0	0	0	0	0	0	0
0	0	0	0	0	0	0	0	0	0	0	0	0	0	0	2443	2426	2409	2409	2409	2409	2409	2409	2409	2409	2409	2409	2409	2409	2409	2426	2426	2426	2426	2426	2426	2409	2409	2409	2409	2409	2409	2409	2409	2409	2409	2426	2426	2426	2409	2409	2409	2409	2409	2409	2409	2409	2426	2409	2409	2426	2443	2443	2443	2443	2460	2460	2460	2443	2443	2426	2443	2443	2426	2443	2443	2460	2443	2460	2460	2460	2443	2443	2426	2426	2426	2443	2443	2460	2460	2460	2460	2460	2460	2460	2460	2443	2460	2460	2460	2478	2478	2478	2478	2478	0	0	0	3046	3046	3101	3073	3101	3101	3073	3101	3073	3073	3073	3073	3073	3073	3073	3101	3101	3101	3101	3129	3101	3129	3129	3129	3129	3129	3129	3129	3129	3157	3157	3216	3216	3510	3510	3510	3475	3510	3510	3475	3510	3510	3510	3510	3510	3510	3510	3546	3546	3583	3583	3583	3583	3583	3583	3546	3546	3546	3546	3583	3546	3546	3546	3546	3546	3583	3583	3583	3583	3583	3583	3546	3546	3546	3546	3546	3546	3546	3546	3546	3583	3546	3546	3546	3546	3583	3546	3583	3583	3583	3583	3583	3546	3583	3546	3546	3583	3546	3546	3546	3546	3546	3583	3546	3546	3546	3583	3621	3583	3583	3583	3583	3546	3546	3546	3546	3583	3583	3583	3583	3546	3583	3583	3546	3546	3621	3659	3659	3583	3621	3621	3621	3621	3621	3621	3621	3621	3621	3583	3583	3621	3583	3583	3583	3621	2942	2967	2967	2942	2942	2942	2917	2942	2917	2942	2942	2967	2967	2967	2967	2967	2967	2967	2967	2942	2942	2942	2942	2942	2942	2942	2942	2942	2942	2942	2942	2917	2942	2917	2942	2942	2917	2917	2917	2917	2893	2893	2893	2869	2893	2893	2917	2917	2942	2942	2942	2942	2942	2942	2942	2967	2967	2967	2967	2967	2967	2993	2993	2993	2993	2993	3019	3046	3046	3019	3019	3019	3019	3019	3019	3019	2993	2993	2993	2967	2967	3659	3659	3621	3659	3659	3659	3659	3659	3621	3659	3659	3659	3659	3659	3659	3659	3698	3659	3698	3659	3659	3698	3698	3698	3698	3698	3621	3659	3659	3659	3659	3659	3621	3621	3659	3659	3659	3659	3659	3659	3698	3698	3698	3698	3659	3659	3659	3659	3659	3659	3659	3698	3698	3698	3659	3659	3621	3621	3621	3621	3621	3659	3659	3659	3698	3698	3698	3698	3698	3698	3698	3698	3738	3698	3698	3698	3738	3738	3738	3738	3738	3738	3659	3659	3659	3659	3659	3659	3698	3698	3698	3698	3698	3698	3698	3659	3698	3659	3698	3659	3659	3698	3698	3698	3659	3659	3659	3659	3659	3659	3659	3659	3659	3659	3659	3659	3659	3621	3621	3621	3621	3621	0	0	2181	2167	2167	2153	2140	2127	2127	2114	2101	2101	2088	2076	2063	2063	2039	2039	2027	2027	2015	2015	2015	2003	1992	1992	1980	1980	1958	1947	1947	1936	1925	1915	1904	1904	1894	1883	1873	1863	1853	1853	1833	1833	1824	1824	1804	1795	1786	1786	1777	1777	1759	1750	1741	1732	1732	1715	1715	1706	1698	1698	1690	1681	1673	1665	1657	1649	1649	1649	1641	1634	1618	1611	1611	1603	1596	1589	1581	1574	1567	1560	1560	1553	1553	1539	1539	1532	1525	1525	1525	1519	1506	1512	1506	1512	1512	1519	1525	1532	1532	1532	1539	1539	1546	1546	1553	1553	1553	1553	1553	1553	1553	1553	1553	1553	1553	1546	1546	1546	1546	1553	1553	1553	1553	1546	1546	1546	1546	1546	1539	1539	1553	1553	1546	1546	1546	1546	1539	1539	1539	1532	1532	0	0	0	0	0	0	0	0	0	0	0	0	0	0	0	0	0	0	0	0	0	0	0	0	0	0	0	0	0	0	0	0	0	0	0	0	0	0	0	0	0
0	0	0	0	0	0	0	0	0	0	0	0	0	0	0	2443	2426	2426	2426	2409	2409	2409	2426	2426	2409	2426	2426	2426	2409	2409	2426	2426	2426	2426	2426	2426	2409	2409	2409	2409	2392	2409	2409	2409	2409	2426	2426	2426	2426	2426	2409	2409	2409	2409	2409	2409	2409	2426	2409	2409	2426	2443	2443	2426	2426	2460	2460	2460	2443	2426	2426	2426	2443	2426	2443	2443	2460	2443	2443	2426	2426	2443	2443	2426	2426	2443	2443	2460	2460	2460	2460	2460	2460	2460	2460	2460	2460	2460	2460	2460	2478	2478	2478	2478	2478	0	0	3073	3073	3101	3101	3101	3101	3101	3101	3101	3101	3101	3101	3101	3101	3101	3101	3101	3101	3129	3129	3129	3129	3129	3129	3129	3129	3129	3129	3129	3129	3129	3157	3186	3216	3216	3475	3475	3475	3510	3510	3510	3510	3546	3546	3510	3510	3510	3510	3546	3546	3583	3583	3621	3583	3621	3546	3546	3546	3546	3546	3546	3546	3546	3583	3583	3583	3583	3621	3621	3621	3583	3583	3583	3546	3546	3546	3546	3546	3546	3546	3546	3583	3546	3583	3583	3583	3583	3583	3583	3583	3583	3583	3583	3546	3583	3583	3583	3583	3583	3546	3546	3546	3546	3583	3546	3546	3546	3546	3583	3583	3583	3583	3583	3546	3546	3546	3546	3546	3546	3583	3583	3546	3583	3583	3546	3546	3583	3583	3659	3583	3621	3621	3621	3621	3621	3621	3621	3621	3621	3621	3583	3621	3621	3583	3583	3583	2942	2942	2942	2942	2942	2942	2942	2917	2917	2942	2942	2967	2967	2967	2967	2967	2967	2967	2942	2942	2942	2942	2942	2942	2942	2942	2942	2942	2942	2942	2942	2917	2942	2942	2917	2917	2917	2917	2917	2917	2893	2893	2869	2869	2893	2893	2917	2917	2942	2942	2942	2942	2942	2942	2942	2967	2967	2967	2967	2967	2967	2993	2993	2993	2993	2993	2993	3019	3019	3019	3019	3019	3019	3019	3019	2993	2993	2993	2967	2967	3659	3659	3659	3659	3659	3659	3659	3659	3659	3621	3659	3621	3621	3659	3659	3621	3659	3698	3659	3698	3659	3659	3698	3659	3659	3621	3621	3621	3621	3621	3621	3621	3621	3621	3621	3659	3659	3659	3659	3659	3659	3659	3698	3698	3698	3698	3698	3659	3659	3659	3659	3659	3698	3698	3659	3659	3621	3621	3621	3621	3621	3621	3621	3621	3621	3698	3698	3698	3698	3698	3698	3698	3698	3698	3698	3698	3698	3698	3738	3738	3738	3738	3698	3698	3698	3698	3659	3659	3659	3659	3659	3659	3659	3659	3659	3659	3659	3698	3659	3698	3659	3659	3659	3659	3698	3698	3659	3659	3698	3659	3659	3659	3659	3659	3659	3659	3621	3621	3621	3621	3621	0	0	2223	2194	2181	2181	2181	2153	2140	2140	2127	2127	2101	2101	2088	2076	2063	2063	2051	2051	2039	2039	2027	2015	2027	2015	1992	1992	1980	1969	1958	1947	1947	1936	1925	1904	1904	1894	1883	1873	1863	1863	1853	1853	1833	1833	1824	1824	1814	1795	1786	1786	1777	1768	1759	1750	1741	1732	1723	1715	1715	1706	1698	1690	1690	1681	1673	1665	1665	1657	1649	1649	1641	1634	1618	1611	1611	1603	1596	1589	1581	1574	1574	1560	1560	1553	1546	1539	1539	1532	1525	1525	1525	1512	1512	1512	1506	1512	1519	1519	1525	1532	1532	1532	1539	1539	1539	1546	1553	1553	1553	1553	1553	1553	1553	1546	1553	1553	1546	1546	1546	1546	1546	1553	1553	1553	1553	1553	1546	1546	1546	1546	1539	1539	1546	1546	1546	1546	1539	1539	1539	1539	1539	1532	1532	0	0	0	0	0	0	0	0	0	0	0	0	0	0	0	0	0	0	0	0	0	0	0	0	0	0	0	0	0	0	0	0	0	0	0	0	0	0	0	0	0
0	0	0	0	0	0	0	0	0	0	0	0	0	0	0	1657	1657	2409	2409	2409	2409	2443	2426	2426	2426	2426	2409	2409	2409	2409	2409	2426	2409	2409	2409	2409	2409	2409	2409	2409	2409	2409	2409	2409	2409	2426	2426	2426	2426	2426	2409	2409	2409	2409	2409	2409	2409	2426	2409	2409	2409	2443	2443	2443	2426	2443	2460	2460	2443	2443	2426	2443	2443	2426	2426	2426	2426	2443	2443	2443	2443	2443	2443	2443	2443	2460	2460	2460	2460	2460	2460	2460	2460	2443	2443	2443	2443	2443	2460	2460	2478	2478	2478	2496	2496	0	3101	3101	3101	3129	3129	3129	3129	3129	3129	3129	3129	3129	3129	3129	3101	3129	3129	3129	3129	3129	3157	3129	3129	3129	3129	3129	3129	3129	3129	3157	3129	3157	3157	3186	3216	3216	3216	3475	3475	3510	3510	3510	3510	3510	3510	3510	3510	3510	3510	3546	3546	3583	3583	3583	3583	3621	3583	3583	3546	3546	3546	3546	3546	3546	3583	3583	3583	3621	3621	3621	3621	3621	3583	3583	3546	3546	3546	3546	3546	3546	3546	3546	3546	3546	3583	3583	3583	3583	3583	3583	3583	3583	3546	3583	3546	3546	3546	3546	3546	3546	3546	3546	3546	3546	3546	3546	3546	3546	3546	3546	3546	3546	3583	3583	3546	3546	3546	3546	3583	3546	3583	3583	3583	3583	3546	3546	3546	3583	3583	3659	3621	3621	3621	3621	3659	3621	3621	3659	3621	3621	3621	3621	3583	3621	3621	3621	3621	3621	2942	2942	2942	2942	2942	2917	2917	2917	2942	2942	2942	2942	2967	2967	2967	2967	2942	2942	2942	2942	2942	2942	2942	2942	2942	2942	2942	2942	2942	2942	2917	2917	2917	2917	2917	2917	2893	2917	2893	2893	2893	2869	2869	2869	2893	2893	2917	2917	2917	2942	2942	2942	2942	2942	2942	2967	2967	2967	2967	2967	2993	2993	2993	2993	2993	2993	2993	3019	3019	3019	3019	2993	3019	2993	2993	2967	2967	2967	2967	3659	3659	3659	3621	3659	3659	3659	3659	3659	3621	3659	3659	3659	3659	3659	3621	3659	3659	3659	3698	3698	3698	3698	3698	3659	3621	3659	3621	3621	3621	3659	3621	3659	3621	3659	3659	3659	3659	3659	3659	3621	3659	3659	3659	3659	3659	3659	3659	3659	3659	3698	3659	3698	3698	3659	3659	3659	3621	3621	3621	3621	3621	3621	3659	3659	3698	3698	3698	3698	3698	3698	3698	3698	3698	3698	3698	3698	3698	3738	3738	3698	3698	3698	3698	3698	3698	3659	3659	3659	3659	3659	3659	3659	3659	3659	3659	3659	3659	3659	3698	3698	3659	3659	3698	3698	3698	3698	3659	3698	3659	3659	3659	3659	3659	3659	3659	3621	3621	3621	3621	0	0	2223	2208	2194	2181	2181	2167	2153	2153	2140	2127	2127	2114	2101	2088	2076	2063	2063	2063	2051	2051	2051	2039	2027	2027	2015	2003	1992	1992	1969	1958	1947	1947	1936	1936	1904	1904	1894	1883	1873	1863	1863	1853	1853	1833	1833	1824	1824	1814	1795	1795	1786	1777	1759	1750	1750	1741	1732	1732	1715	1715	1706	1698	1690	1690	1681	1673	1665	1665	1657	1649	1649	1641	1634	1626	1626	1618	1596	1596	1589	1581	1581	1574	1560	1560	1553	1546	1539	1539	1532	1525	1525	1525	1512	1512	1512	1506	1512	1512	1519	1525	1532	1532	1532	1532	1539	1546	1553	1553	1553	1553	1553	1553	1553	1553	1546	1546	1546	1546	1546	1546	1546	1546	1553	1553	1553	1553	1553	1546	1539	1539	1539	1539	1539	1546	1546	1546	1539	1539	1539	1539	1539	1532	1525	1512	1512	0	0	0	0	0	0	0	0	0	0	0	0	0	0	0	0	0	0	0	0	0	0	0	0	0	0	0	0	0	0	0	0	0	0	0	0	0	0	0	0
0	0	0	0	0	0	0	0	0	0	0	0	1641	1649	1649	1657	1649	1649	2409	2409	2478	2460	2443	2443	2426	2443	2443	2443	2426	2426	2426	2426	2409	2409	2409	2409	2409	2409	2409	2409	2409	2409	2409	2409	2426	2426	2426	2426	2426	2426	2409	2409	2409	2409	2409	2409	2409	2426	2409	2409	2409	2426	2443	2426	2426	2426	2443	2443	2443	2443	2443	2443	2443	2443	2426	2426	2426	2443	2443	2443	2460	2460	2460	2443	2460	2460	2460	2460	2460	2460	2460	2460	2460	2443	2443	2443	2443	2460	2460	2478	2478	2478	2478	2478	2478	2478	3101	3101	3101	3129	3129	3157	3157	3157	3129	3157	3129	3129	3129	3129	3101	3129	3129	3129	3157	3157	3157	3157	3157	3157	3157	3157	3157	3129	3157	3157	3157	3157	3157	3186	3186	3216	3246	3246	3246	3475	3475	3510	3510	3510	3546	3510	3510	3510	3546	3546	3583	3583	3583	3621	3583	3621	3583	3583	3583	3583	3546	3546	3546	3546	3583	3583	3583	3621	3621	3621	3659	3621	3583	3583	3546	3583	3546	3546	3583	3546	3546	3546	3546	3546	3583	3583	3583	3583	3583	3583	3583	3583	3546	3546	3546	3546	3546	3546	3546	3583	3546	3546	3546	3546	3546	3546	3546	3546	3546	3546	3546	3546	3583	3583	3583	3583	3546	3546	3546	3546	3583	3583	3546	3583	3583	3546	3546	3583	3583	3621	3621	3621	3621	3621	3659	3621	3621	3659	3621	3621	3583	3583	3583	3621	3583	3621	3583	3621	2942	2942	2942	2942	2917	2917	2893	2917	2942	2942	2942	2942	2967	2967	2967	2967	2967	2942	2967	2942	2942	2942	2942	2942	2942	2942	2942	2917	2942	2917	2917	2917	2917	2917	2917	2893	2893	2893	2893	2893	2869	2869	2869	2869	2893	2893	2917	2917	2917	2942	2942	2942	2942	2942	2942	2942	2942	2942	2942	2967	2993	2993	2993	2993	2993	2993	2993	2993	2993	2993	2993	2993	2993	2993	2993	2967	2967	2967	3659	3659	3659	3659	3621	3659	3659	3659	3659	3659	3659	3659	3659	3659	3659	3659	3621	3621	3659	3659	3698	3659	3659	3698	3659	3659	3659	3659	3659	3621	3621	3659	3659	3659	3659	3659	3659	3659	3659	3659	3659	3621	3621	3621	3621	3659	3659	3698	3698	3659	3659	3659	3659	3698	3698	3698	3659	3659	3659	3659	3659	3621	3621	3621	3659	3659	3698	3698	3698	3698	3698	3698	3698	3698	3698	3698	3698	3698	3698	3698	3698	3698	3659	3698	3698	3698	3698	3659	3659	3659	3659	3659	3659	3659	3659	3698	3698	3698	3698	3659	3659	3698	3659	3659	3698	3698	3659	3698	3659	3698	3698	3698	3698	3698	3659	3659	3659	3621	3621	3621	0	0	0	2223	2208	2194	2194	2181	2181	2167	2153	2140	2127	2127	2114	2101	2088	2088	2063	2076	2063	2063	2063	2051	2039	2027	2027	2015	1992	1992	1980	1969	1958	1947	1947	1936	1936	1915	1904	1894	1883	1873	1863	1863	1853	1853	1833	1833	1824	1824	1814	1804	1786	1786	1777	1759	1759	1750	1741	1732	1732	1715	1715	1706	1706	1690	1690	1681	1673	1673	1665	1657	1649	1649	1641	1634	1626	1618	1611	1603	1589	1589	1581	1581	1574	1560	1560	1553	1546	1539	1539	1532	1525	1525	1519	1512	1512	1512	1506	1512	1512	1519	1519	1532	1532	1532	1532	1539	1546	1546	1553	1553	1553	1553	1553	1553	1553	1546	1546	1546	1546	1546	1546	1546	1546	1553	1546	1546	1546	1546	1539	1539	1539	1539	1539	1532	1539	1546	1539	1546	1539	1539	1539	1539	1532	1525	1525	1512	0	0	0	0	0	0	0	0	0	0	0	0	0	0	0	0	0	0	0	0	0	0	0	0	0	0	0	0	0	0	0	0	0	0	0	0	0	0	0	0
0	0	0	0	0	0	0	0	0	0	0	0	1641	1641	1649	1657	1657	1657	0	0	2514	2478	2478	2460	2443	2460	2443	2443	2426	2426	2426	2426	2426	2409	2409	2409	2409	2409	2409	2409	2409	2409	2409	2409	2426	2426	2426	2426	2426	2426	2409	2426	2409	2409	2409	2426	2426	2426	2409	2409	2409	2409	2409	2426	2426	2443	2443	2443	2443	2443	2443	2443	2443	2443	2426	2426	2426	2443	2426	2426	2426	2460	2460	2460	2460	2460	2460	2460	2460	2460	2460	2460	2460	2443	2443	2443	2443	2460	2460	2478	2478	2478	2478	2478	2478	2478	0	3157	3157	3186	3186	3157	3186	3186	3157	3157	3129	3129	3129	3129	3129	3129	3129	3157	3186	3186	3186	3186	3186	3186	3186	3186	3186	3186	3186	3186	3186	3186	3186	3186	3186	3216	3216	3216	3440	3440	3475	3475	3510	3510	3546	3546	3546	3510	3546	3546	3546	3583	3583	3583	3583	3583	3583	3583	3583	3583	3546	3546	3546	3546	3583	3583	3583	3583	3621	3621	3621	3621	3583	3583	3546	3546	3583	3546	3583	3583	3583	3583	3583	3583	3583	3583	3583	3583	3546	3546	3583	3583	3546	3546	3546	3583	3546	3546	3546	3546	3546	3546	3546	3546	3546	3546	3546	3546	3546	3546	3546	3583	3583	3583	3583	3583	3583	3546	3546	3546	3583	3546	3546	3546	3546	3546	3546	3583	3583	3621	3583	3583	3621	3621	3621	3621	3621	3621	3621	3583	3583	3583	3583	3621	3583	3621	3583	2942	2942	2942	2942	2917	2917	2893	2893	2917	2917	2942	2942	2942	2942	2967	2967	2942	2942	2942	2942	2942	2942	2942	2942	2942	2942	2942	2942	2942	2942	2917	2917	2917	2917	2893	2917	2893	2893	2893	2869	2869	2869	2869	2869	2869	2869	2893	2893	2917	2917	2917	2942	2942	2942	2942	2942	2967	2967	2942	2942	2967	2993	2993	2993	2993	2993	2993	2993	2993	3019	3019	2993	2993	2993	2993	2993	2967	2967	3698	3659	3659	3659	3659	3621	3621	3621	3621	3659	3659	3621	3659	3621	3621	3621	3621	3621	3621	3659	3659	3659	3659	3659	3698	3659	3659	3659	3659	3659	3621	3621	3659	3659	3659	3659	3659	3659	3659	3659	3659	3621	3621	3621	3621	3659	3659	3659	3659	3659	3659	3659	3659	3621	3621	3698	3698	3659	3659	3659	3659	3659	3659	3621	3621	3621	3621	3659	3698	3698	3698	3698	3698	3698	3698	3659	3698	3659	3659	3659	3659	3659	3698	3698	3659	3698	3698	3698	3659	3659	3659	3659	3659	3659	3659	3698	3698	3698	3698	3698	3698	3698	3698	3659	3659	3659	3659	3659	3659	3659	3698	3698	3698	3698	3698	3659	3659	3621	3621	3621	0	0	0	0	2223	2208	2194	2181	2181	2181	2167	2153	2140	2127	2114	2114	2101	2101	2101	2088	2076	2076	2063	2063	2051	2039	2027	2027	2015	1992	1992	1980	1969	1947	1947	1947	1936	1936	1915	1904	1894	1883	1873	1863	1863	1853	1853	1833	1833	1824	1824	1814	1814	1786	1786	1777	1768	1759	1750	1741	1732	1732	1715	1715	1706	1706	1690	1690	1681	1673	1673	1665	1657	1649	1649	1641	1634	1626	1618	1611	1596	1589	1589	1581	1581	1574	1560	1560	1553	1553	1539	1532	1532	1525	1525	1519	1519	1512	1512	1512	1512	1512	1519	1519	1525	1525	1532	1532	1539	1546	1546	1546	1546	1553	1553	1553	1553	1553	1546	1546	1546	1546	1539	1546	1546	1553	1553	1553	1546	1546	1546	1539	1532	1532	1539	1539	1539	1539	1546	1546	1546	1539	1539	1539	1539	1532	1525	1519	1519	0	0	0	0	0	0	0	0	0	0	0	0	0	0	0	0	0	0	0	0	0	0	0	0	0	0	0	0	0	0	0	0	0	0	0	0	0	0	0	0
0	0	0	0	0	0	0	0	0	0	0	0	1641	1649	1649	1657	1657	1657	0	0	2532	2514	2496	2478	2460	2460	2460	2460	2443	2443	2443	2443	2426	2426	2409	2409	2409	2409	2409	2409	2409	2409	2409	2409	2409	2426	2426	2426	2426	2426	2426	2426	2426	2426	2426	2426	2426	2426	2426	2409	2409	2409	2426	2426	2426	2443	2443	2460	2443	2443	2443	2443	2443	2443	2426	2426	2426	2443	2426	2426	2460	2443	2460	2443	2443	2460	2460	2460	2460	2460	2460	2443	2443	2443	2443	2443	2443	2443	2460	2460	2478	2478	2478	2478	2478	2478	3216	3186	3186	3186	3186	3186	3186	3186	3186	3216	3157	3216	3186	3186	3129	3186	3186	3157	3216	3216	3216	3186	3186	3186	3186	3186	3186	3186	3216	3216	3216	3216	3216	3186	3216	3216	3216	3216	3440	3440	3475	3475	3475	3510	3546	3546	3546	3546	3546	3546	3546	3583	3583	3583	3583	3583	3583	3546	3546	3546	3546	3546	3546	3510	3583	3583	3583	3583	3621	3621	3621	3583	3583	3583	3583	3583	3546	3546	3583	3583	3583	3583	3583	3583	3583	3583	3583	3621	3546	3546	3583	3583	3546	3546	3546	3546	3546	3583	3546	3583	3583	3546	3583	3546	3546	3546	3546	3546	3546	3546	3546	3583	3621	3621	3583	3583	3583	3583	3546	3546	3546	3546	3546	3546	3546	3546	3546	3583	3583	3621	3621	3583	3583	3583	3621	3621	3583	3621	3621	3621	3583	3583	3583	3583	3583	3583	2967	2967	2942	2942	2942	2917	2893	2893	2893	2917	2917	2942	2942	2942	2967	2967	2967	2942	2942	2942	2942	2942	2942	2942	2942	2942	2942	2942	2942	2942	2942	2942	2917	2917	2917	2893	2893	2893	2869	2869	2869	2869	2869	2869	2869	2869	2869	2893	2893	2893	2917	2917	2942	2942	2942	2942	2942	2942	2967	2942	2942	2942	2967	2967	2967	2993	2993	2993	2993	2993	2993	2993	2993	2993	2993	2993	2993	2993	2967	3698	3659	3659	3659	3621	3621	3621	3621	3621	3621	3659	3659	3659	3659	3659	3659	3659	3621	3621	3659	3659	3659	3659	3659	3659	3659	3621	3659	3659	3621	3621	3621	3659	3659	3659	3659	3659	3659	3659	3659	3659	3621	3621	3621	3621	3659	3659	3659	3659	3659	3659	3659	3659	3621	3621	3698	3698	3659	3659	3659	3659	3659	3659	3659	3621	3621	3621	3659	3659	3659	3698	3659	3698	3698	3698	3698	3698	3698	3698	3659	3698	3659	3659	3659	3659	3659	3698	3659	3659	3698	3698	3659	3659	3659	3659	3698	3659	3698	3659	3659	3659	3659	3698	3659	3659	3698	3698	3659	3659	3698	3698	3698	3698	3698	3698	3698	3659	3659	3621	0	0	0	2237	2237	2223	2208	2194	2181	2181	2167	2153	2153	2140	2127	2127	2114	2114	2101	2101	2088	2076	2076	2063	2063	2051	2039	2027	2027	2015	1992	1980	1980	1958	1947	1947	1947	1936	1936	1915	1904	1894	1883	1873	1863	1863	1853	1853	1843	1824	1824	1814	1814	1804	1795	1786	1777	1768	1759	1750	1741	1732	1732	1715	1715	1706	1706	1698	1681	1681	1673	1673	1665	1657	1649	1649	1641	1634	1626	1618	1611	1596	1589	1589	1581	1581	1574	1560	1560	1553	1553	1539	1532	1532	1525	1525	1519	1519	1512	1512	1512	1512	1512	1512	1519	1525	1525	1532	1532	1539	1546	1546	1546	1546	1553	1553	1553	1553	1553	1546	1546	1539	1546	1546	1546	1546	1546	1553	1553	1553	1553	1546	1546	1539	1539	1539	1539	1539	1539	1546	1546	1546	1546	1546	1539	1539	1532	1532	1532	1519	0	0	0	0	0	0	0	0	0	0	0	0	0	0	0	0	0	0	0	0	0	0	0	0	0	0	0	0	0	0	0	0	0	0	0	0	0	0	0	0
0	0	0	0	0	0	0	0	0	0	0	0	0	1649	1649	1657	1665	1673	1690	1690	1690	1690	2496	2478	2496	2460	2460	2460	2460	2460	2460	2443	2443	2426	2426	2409	2409	2409	2409	2409	2409	2409	2409	2426	2426	2426	2426	2426	2426	2426	2426	2426	2426	2426	2426	2426	2426	2426	2409	2409	2409	2409	2409	2409	2426	2443	2426	2443	2443	2443	2443	2426	2443	2460	2426	2426	2426	2443	2443	2443	2443	2443	2443	2443	2443	2460	2443	2460	2460	2460	2460	2460	2460	2443	2443	2443	2443	2443	2460	2460	2478	2478	2460	2478	2478	2478	3216	3216	3186	3216	3216	3216	3216	3216	3216	3216	3216	3216	3216	3216	3216	3186	3186	3216	3216	3186	3186	3216	3216	3216	3246	3216	3246	3246	3216	3216	3216	3216	3216	3216	3216	3216	3246	3246	3246	3406	3475	3475	3475	3510	3546	3546	3546	3546	3546	3546	3546	3546	3583	3583	3583	3583	3546	3546	3546	3546	3546	3546	3546	3546	3583	3583	3583	3621	3621	3621	3621	3583	3583	3583	3583	3583	3546	3546	3583	3583	3583	3546	3546	3546	3546	3546	3583	3583	3546	3546	3583	3583	3546	3546	3546	3546	3546	3546	3546	3546	3546	3546	3546	3546	3546	3546	3546	3546	3546	3546	3546	3583	3583	3621	3583	3583	3583	3583	3583	3583	3583	3546	3546	3546	3546	3546	3546	3583	3583	3621	3621	3583	3583	3583	3583	3583	3583	3621	3621	3583	3583	3583	3583	3583	3583	3583	3583	2967	2942	2917	2942	2917	2942	2942	2893	2917	2917	2942	2942	2942	2942	2967	2967	2942	2942	2942	2942	2942	2942	2942	2942	2942	2942	2942	2942	2942	2942	2942	2917	2917	2917	2893	2893	2893	2869	2869	2869	2869	2869	2869	2869	2869	2869	2893	2893	2893	2917	2917	2942	2942	2942	2942	2942	2942	2942	2942	2942	2942	2967	2967	2967	2993	2993	2993	2993	2993	2993	2993	2993	2993	2993	2993	2967	2967	2967	3698	3659	3659	3659	3621	3621	3621	3621	3621	3621	3621	3621	3659	3659	3659	3659	3659	3621	3621	3659	3659	3659	3659	3659	3659	3659	3621	3621	3659	3621	3621	3621	3621	3659	3698	3659	3659	3659	3659	3659	3659	3621	3621	3621	3621	3659	3659	3659	3659	3659	3659	3659	3621	3621	3659	3659	3659	3659	3659	3659	3659	3659	3659	3621	3621	3621	3621	3659	3659	3659	3659	3659	3659	3659	3659	3659	3698	3659	3659	3659	3698	3659	3659	3659	3698	3698	3698	3659	3659	3698	3659	3659	3659	3659	3659	3659	3659	3659	3659	3659	3659	3659	3698	3659	3698	3698	3698	3698	3698	3698	3698	3698	3698	3698	3698	3698	3698	3659	0	0	0	0	2237	2223	2223	2208	2194	2181	2181	2167	2167	2153	2140	2127	2127	2114	2114	2101	2101	2101	2076	2076	2063	2063	2051	2027	2027	2027	2015	2003	1980	1980	1969	1947	1947	1947	1936	1936	1925	1904	1894	1883	1873	1873	1863	1853	1853	1843	1824	1824	1814	1814	1804	1795	1786	1777	1777	1759	1750	1750	1732	1732	1715	1715	1706	1706	1698	1681	1681	1673	1673	1665	1657	1649	1649	1641	1634	1626	1618	1611	1589	1589	1589	1581	1581	1567	1560	1560	1553	1553	1546	1532	1532	1525	1519	1519	1512	1512	1512	1512	1512	1512	1512	1512	1525	1525	1532	1532	1539	1546	1546	1546	1546	1546	1553	1553	1553	1546	1546	1546	1546	1546	1539	1539	1546	1546	1553	1546	1546	1546	1546	1539	1539	1539	1539	1539	1539	1539	1539	1546	1546	1546	1539	1539	1539	1539	1539	1539	0	0	0	0	0	0	0	0	0	0	0	0	0	0	0	0	0	0	0	0	0	0	0	0	0	0	0	0	0	0	0	0	0	0	0	0	0	0	0	0	0
0	0	0	0	0	0	0	0	0	0	0	0	0	1649	1649	1657	1665	1673	1673	1690	1690	1698	1690	1690	2496	2460	2478	2478	2478	2478	2460	2443	2443	2426	2426	2426	2409	2409	2409	2409	2409	2409	2409	2409	2409	2426	2426	2426	2426	2426	2426	2426	2426	2426	2426	2426	2426	2426	2409	2409	2409	2409	2409	2409	2426	2443	2426	2443	2443	2443	2426	2426	2426	2426	2426	2426	2426	2426	2443	2443	2443	2443	2443	2443	2443	2443	2443	2460	2460	2460	2460	2460	2460	2443	2443	2443	2443	2443	2460	2460	2478	2478	2478	2478	2496	2496	2496	3216	3216	3216	3216	3216	3246	3246	3246	3246	3246	3246	3216	3216	3341	3373	3373	3246	3246	3246	3246	3246	3246	3246	3246	3246	3246	3246	3246	3246	3246	3246	3216	3216	3216	3216	3216	3246	3246	3341	3475	3475	3475	3475	3510	3510	3510	3510	3546	3546	3546	3546	3546	3583	3583	3546	3546	3546	3546	3546	3546	3546	3546	3546	3546	3583	3583	3621	3583	3621	3621	3583	3583	3583	3583	3583	3546	3546	3583	3546	3546	3546	3546	3546	3583	3583	3583	3583	3583	3583	3583	3583	3546	3546	3546	3546	3546	3546	3546	3546	3546	3546	3546	3546	3546	3546	3546	3546	3546	3546	3546	3583	3583	3621	3583	3621	3583	3583	3583	3583	3583	3546	3546	3546	3546	3546	3546	3583	3583	3583	3583	3583	3583	3583	3621	3583	3583	3621	3621	3583	3583	3583	3583	3583	3583	3583	3583	3583	3546	2942	2942	2917	2942	2942	2917	2917	2942	2942	2942	2942	2967	2967	2967	2967	2942	2942	2942	2942	2942	2942	2942	2942	2942	2942	2942	2942	2942	2942	2917	2917	2917	2893	2893	2893	2869	2869	2869	2869	2869	2869	2869	2869	2869	2869	2893	2917	2917	2942	2942	2942	2942	2942	2942	2942	2942	2942	2942	2942	2967	2967	2967	2993	2993	2993	2993	2993	2993	2993	2993	2993	2993	2967	2967	2967	2967	3659	3659	3659	3659	3621	3621	3621	3621	3621	3621	3621	3621	3659	3659	3659	3659	3659	3659	3659	3659	3659	3659	3659	3659	3621	3621	3621	3621	3621	3621	3621	3621	3659	3659	3659	3659	3659	3659	3659	3621	3621	3621	3621	3621	3621	3621	3621	3621	3659	3659	3659	3621	3621	3621	3659	3659	3659	3659	3659	3659	3659	3659	3621	3621	3621	3621	3621	3659	3659	3659	3659	3659	3659	3659	3659	3659	3659	3659	3659	3659	3659	3698	3698	3698	3698	3698	3659	3659	3659	3659	3659	3659	3659	3659	3659	3659	3659	3659	3659	3659	3659	3659	3659	3698	3698	3698	3698	3698	3698	3698	3698	3698	3698	3698	3698	3698	3698	0	0	0	0	0	2237	2223	2223	2223	2194	2194	2181	2181	2167	2153	2153	2140	2127	2114	2114	2114	2101	2101	2076	2076	2063	2063	2051	2039	2027	2027	2027	2003	1980	1980	1958	1947	1947	1947	1936	1925	1925	1904	1894	1883	1873	1873	1863	1853	1853	1843	1824	1814	1814	1804	1804	1795	1786	1777	1768	1759	1750	1750	1741	1732	1715	1715	1706	1706	1698	1690	1681	1681	1673	1665	1657	1649	1649	1641	1641	1626	1618	1611	1589	1589	1589	1581	1581	1567	1560	1560	1553	1553	1546	1539	1532	1525	1519	1519	1512	1512	1512	1512	1512	1506	1512	1512	1519	1525	1525	1532	1532	1546	1539	1539	1539	1539	1539	1539	1539	1546	1539	1546	1546	1546	1546	1546	1546	1546	1546	1546	1546	1546	1546	1546	1546	1539	1539	1539	1539	1539	1539	1546	1546	1539	1539	1539	1539	1532	1539	1539	0	0	0	0	0	0	0	0	0	0	0	0	0	0	0	0	0	0	0	0	0	0	0	0	0	0	0	0	0	0	0	0	0	0	0	0	0	0	0	0	0
0	0	0	0	0	0	0	0	0	0	0	0	0	1649	1649	1657	1665	1681	1690	1690	1690	1698	1698	1698	1698	1698	2478	2478	2478	2478	2460	2443	2443	2443	2443	2426	2426	2426	2426	2426	2409	2409	2409	2409	2409	2409	2409	2409	2426	2426	2443	2426	2426	2426	2426	2426	2426	2426	2409	2409	2409	2409	2409	2426	2426	2426	2426	2443	2443	2443	2426	2426	2426	2460	2426	2426	2426	2426	2443	2443	2443	2443	2460	2443	2443	2460	2460	2443	2460	2460	2460	2460	2460	2443	2443	2443	2443	2443	2443	2443	2460	2460	2460	2478	2478	2478	3246	3246	3246	3246	3246	3246	3246	3246	3246	3277	3246	3277	3341	3341	3341	3373	3373	3373	3309	3277	3277	3277	3246	3246	3246	3246	3246	3246	3246	3246	3246	3246	3246	3216	3246	3246	3246	3246	3309	3341	3341	3440	3440	3440	3510	3510	3510	3510	3546	3546	3546	3546	3546	3583	3583	3546	3546	3546	3546	3546	3546	3546	3546	3546	3546	3583	3621	3621	3583	3583	3621	3583	3583	3583	3583	3583	3546	3546	3546	3546	3546	3546	3546	3546	3546	3583	3583	3583	3583	3583	3583	3583	3546	3546	3546	3546	3546	3546	3546	3546	3546	3546	3546	3546	3546	3546	3546	3546	3546	3546	3546	3546	3546	3583	3621	3621	3621	3583	3583	3583	3583	3546	3546	3546	3546	3546	3546	3583	3583	3583	3583	3583	3583	3583	3621	3583	3583	3583	3583	3583	3583	3583	3583	3583	3583	3583	3583	3583	3583	2942	2942	2917	2942	2942	2917	2917	2942	2942	2942	2942	2942	2967	2967	2967	2942	2942	2942	2942	2942	2942	2942	2942	2942	2942	2942	2942	2942	2942	2917	2917	2893	2893	2893	2869	2869	2869	2869	2869	2869	2869	2869	2869	2869	2869	2869	2869	2869	2942	2942	2942	2942	2942	2942	2942	2942	2942	2942	2942	2967	2967	2967	2993	2993	2993	2993	2993	2993	2993	2993	2993	2967	2967	2967	2967	3659	3659	3659	3659	3621	3621	3621	3621	3621	3621	3621	3621	3621	3659	3659	3659	3659	3659	3659	3659	3659	3659	3621	3621	3621	3621	3621	3621	3621	3621	3621	3621	3621	3621	3621	3659	3621	3659	3659	3659	3621	3659	3621	3621	3621	3621	3621	3621	3621	3659	3659	3659	3621	3621	3659	3659	3659	3659	3659	3659	3659	3659	3659	3621	3621	3621	3621	3621	3659	3659	3659	3659	3659	3659	3659	3659	3659	3659	3659	3659	3698	3659	3698	3659	3659	3659	3659	3659	3659	3659	3659	3659	3659	3659	3659	3659	3659	3659	3659	3659	3659	3659	3659	3698	3698	3659	3698	3698	3698	3698	3698	3698	3698	3698	3659	3659	3659	3698	0	0	2281	2266	2266	2237	2237	2223	2208	2194	2194	2181	2181	2167	2153	2153	2140	2127	2127	2114	2101	2101	2101	2076	2076	2063	2063	2051	2039	2027	2039	2027	2003	1980	1969	1958	1947	1947	1947	1936	1925	1925	1904	1894	1883	1873	1873	1863	1853	1853	1843	1824	1824	1824	1804	1795	1786	1786	1777	1777	1777	1759	1750	1741	1732	1715	1715	1715	1706	1706	1690	1681	1673	1665	1665	1657	1649	1649	1641	1641	1626	1618	1611	1589	1589	1589	1581	1581	1574	1560	1560	1560	1553	1546	1539	1532	1525	1525	1519	1512	1512	1512	1512	1512	1506	1506	1512	1519	1525	1525	1525	1532	1539	1532	1539	1539	1539	1539	1539	1532	1546	1539	1539	1546	1546	1546	1546	1546	1546	1546	1546	1546	1546	1546	1546	1539	1546	1539	1539	1539	1546	1539	1539	1539	1539	1539	1539	1539	1532	1539	1539	0	0	0	0	0	0	0	0	0	0	0	0	0	0	0	0	0	0	0	0	0	0	0	0	0	0	0	0	0	0	0	0	0	0	0	0	0	0	0	0	0
0	0	0	0	0	0	0	0	0	0	0	0	0	1649	1657	1657	1665	1681	1690	1690	1690	1698	1698	1698	1698	1715	1723	1723	2478	2478	2478	2460	2460	2460	2443	2443	2443	2443	2426	2426	2409	2409	2409	2409	2409	2409	2409	2409	2426	2426	2443	2443	2426	2426	2426	2426	2426	2426	2409	2409	2409	2409	2409	2409	2426	2426	2426	2443	2443	2443	2426	2443	2426	2460	2426	2426	2426	2426	2443	2443	2443	2443	2443	2443	2443	2443	2443	2443	2443	2443	2460	2460	2460	2443	2443	2443	2443	2443	2443	2443	2460	2443	2460	2460	2460	2460	2478	3277	3277	3309	3277	3309	3309	3309	3309	3309	3309	3341	3341	3341	3341	3341	3341	3341	3309	3309	3277	3309	3277	3277	3246	3246	3246	3246	3246	3246	3246	3246	3246	3246	3246	3246	3277	3277	3309	3341	3341	3406	3406	3406	3475	3510	3510	3510	3546	3546	3546	3546	3583	3583	3583	3546	3546	3546	3546	3510	3546	3546	3546	3510	3546	3583	3621	3583	3583	3583	3583	3583	3583	3583	3583	3583	3546	3546	3546	3546	3546	3546	3546	3510	3546	3583	3583	3583	3583	3583	3583	3583	3546	3546	3546	3546	3546	3546	3546	3546	3546	3546	3546	3583	3546	3546	3546	3546	3546	3546	3546	3583	3583	3583	3583	3621	3583	3583	3621	3621	3583	3546	3546	3546	3510	3546	3546	3583	3583	3583	3583	3583	3583	3583	3583	3583	3583	3583	3583	3583	3583	3583	3583	3583	3583	3583	3583	3583	3583	2942	2942	2942	2942	2917	2917	2917	2917	2917	2942	2942	2942	2967	2967	2967	2942	2942	2942	2942	2942	2942	2942	2942	2942	2942	2942	2942	2942	2942	2917	2917	2917	2893	2893	2869	2869	2869	2869	2869	2869	2869	2869	2869	2869	2869	2869	2869	2942	2942	2942	2942	2942	2942	2942	2942	2942	2942	2942	2942	2967	2967	2967	2993	2993	2993	3019	3019	3019	2993	2993	2993	2967	2967	2967	2967	3659	3659	3659	3621	3621	3621	3621	3621	3621	3621	3621	3621	3621	3659	3659	3659	3659	3659	3659	3659	3659	3659	3621	3621	3621	3621	3621	3621	3621	3621	3621	3621	3621	3659	3621	3659	3621	3659	3659	3659	3621	3659	3621	3621	3621	3621	3621	3621	3621	3659	3659	3659	3621	3621	3621	3621	3659	3659	3659	3659	3659	3659	3659	3659	3621	3621	3621	3621	3659	3659	3659	3659	3659	3659	3659	3659	3659	3659	3659	3659	3659	3659	3698	3698	3659	3659	3659	3659	3659	3659	3659	3659	3659	3659	3659	3659	3659	3659	3659	3659	3659	3659	3698	3698	3698	3659	3659	3659	3659	3659	3659	3659	3659	3659	3659	3698	3698	0	0	0	2281	2281	2266	2237	2237	2223	2223	2208	2208	2194	2181	2181	2181	2167	2153	2140	2127	2114	2114	2101	2088	2076	2076	2063	2063	2051	2039	2027	2039	2027	2015	1980	1980	1969	1958	1947	1947	1936	1925	1915	1894	1894	1873	1873	1863	1863	1853	1853	1843	1824	1824	1824	1804	1795	1786	1786	1777	1777	1777	1759	1750	1732	1732	1715	1715	1715	1706	1706	1690	1681	1673	1665	1657	1649	1649	1641	1641	1634	1626	1618	1611	1603	1589	1581	1581	1581	1581	1574	1560	1560	1553	1546	1539	1532	1525	1525	1519	1519	1519	1512	1512	1512	1506	1506	1512	1519	1519	1525	1525	1532	1539	1539	1539	1539	1539	1539	1539	1539	1539	1539	1539	1546	1546	1546	1546	1546	1546	1546	1546	1546	1539	1539	1539	1539	1539	1539	1539	1539	1546	1539	1539	1539	1546	1546	1539	1546	1539	1546	1546	0	0	0	0	0	0	0	0	0	0	0	0	0	0	0	0	0	0	0	0	0	0	0	0	0	0	0	0	0	0	0	0	0	0	0	0	0	0	0	0	0
0	0	0	0	0	0	0	0	0	0	0	0	0	1649	1649	1657	1665	1690	1690	1698	1698	1698	1698	1706	1706	1715	1715	1715	2478	2478	2460	2460	2460	2460	2460	2460	2443	2443	2426	2426	2409	2409	2409	2409	2409	2409	2426	2409	2426	2426	2443	2443	2426	2426	2426	2426	2426	2426	2409	2409	2409	2409	2409	2409	2426	2443	2443	2443	2443	2443	2426	2443	2443	2443	2426	2426	2426	2426	2443	2443	2443	2426	2443	2443	2443	2426	2443	2443	2443	2443	2443	2443	2443	2443	2443	2443	2443	2443	2443	2443	2443	2443	2443	2460	2460	2460	2478	3341	3309	3341	3341	3341	3341	3341	3341	3341	3341	3373	3373	3341	3341	3341	3341	3341	3341	3373	3309	3341	3309	3309	3309	3309	3341	3341	3309	3309	3277	3277	3277	3277	3277	3277	3309	3309	3341	3341	3373	3406	3406	3406	3475	3510	3510	3510	3546	3546	3546	3546	3583	3583	3583	3546	3546	3546	3546	3546	3546	3546	3546	3546	3546	3546	3546	3546	3546	3583	3583	3583	3621	3583	3583	3583	3583	3546	3546	3546	3546	3546	3546	3510	3546	3546	3583	3583	3546	3583	3583	3546	3546	3546	3546	3546	3546	3546	3546	3546	3546	3546	3546	3583	3546	3546	3546	3546	3546	3546	3546	3583	3546	3583	3583	3583	3583	3583	3583	3583	3546	3546	3546	3546	3510	3510	3546	3546	3583	3583	3583	3583	3583	3583	3583	3583	3583	3583	3583	3583	3583	3583	3583	3583	3583	3583	3583	3583	3583	2942	2942	2942	2942	2917	2917	2917	2917	2917	2942	2942	2942	2942	2942	2967	2942	2942	2942	2942	2942	2942	2942	2942	2942	2942	2942	2942	2942	2942	2917	2917	2893	2893	2893	2869	2869	2869	2869	2869	2869	2869	2869	2869	2869	2869	2869	2869	2893	2942	2942	2942	2942	2942	2942	2942	2942	2942	2942	2942	2967	2967	2967	2993	2993	2993	2993	2993	2993	2993	2993	2967	2967	2967	2967	2942	3621	3659	3659	3621	3621	3621	3621	3621	3621	3621	3621	3621	3621	3621	3659	3659	3659	3659	3659	3659	3659	3659	3621	3621	3621	3621	3621	3621	3621	3621	3621	3621	3621	3659	3659	3621	3621	3659	3659	3621	3621	3621	3621	3621	3621	3621	3621	3621	3621	3659	3659	3659	3621	3621	3621	3621	3621	3621	3621	3621	3621	3659	3659	3621	3621	3621	3621	3621	3659	3659	3659	3659	3659	3659	3659	3659	3659	3698	3698	3698	3698	3698	3698	3698	3698	3659	3659	3659	3659	3659	3659	3659	3659	3659	3659	3659	3659	3659	3659	3659	3659	3659	3659	3659	3659	3659	3659	3659	3659	3659	3659	3659	3659	3659	3659	3659	3659	3659	0	0	2281	2281	2281	2266	2252	2237	2223	2223	2208	2208	2194	2181	2181	2167	2153	2140	2140	2127	2114	2101	2101	2076	2076	2063	2063	2051	2039	2027	2039	2027	2015	1992	1980	1969	1958	1947	1947	1936	1925	1915	1894	1883	1873	1873	1863	1863	1853	1853	1843	1843	1824	1814	1814	1795	1786	1786	1777	1777	1777	1759	1750	1741	1732	1723	1715	1715	1706	1706	1706	1681	1673	1665	1657	1649	1641	1649	1641	1641	1618	1618	1611	1611	1589	1589	1581	1581	1581	1574	1567	1560	1553	1546	1539	1539	1532	1525	1519	1519	1512	1512	1512	1512	1506	1506	1512	1519	1519	1525	1525	1525	1539	1539	1539	1539	1539	1539	1539	1539	1539	1539	1539	1539	1539	1539	1539	1546	1539	1546	1546	1546	1539	1546	1539	1539	1539	1539	1539	1539	1546	1546	1546	1546	1546	1546	1546	1546	1539	1546	1546	0	0	0	0	0	0	0	0	0	0	0	0	0	0	0	0	0	0	0	0	0	0	0	0	0	0	0	0	0	0	0	0	0	0	0	0	0	0	0	0	0
0	0	0	0	0	0	0	0	0	0	0	0	0	1657	1657	1657	1681	1690	1698	1698	1698	1698	1706	1706	1706	1723	1723	1732	1741	1741	2460	2460	2478	2478	2460	2460	2460	2443	2443	2443	2426	2426	2409	2409	2409	2409	2426	2409	2426	2426	2426	2426	2426	2426	2426	2426	2409	2409	2409	2409	2409	2409	2409	2409	2426	2426	2426	2426	2426	2443	2426	2426	2443	2443	2426	2426	2426	2426	2426	2443	2443	2426	2426	2426	2426	2426	2443	2443	2443	2443	2443	2443	2443	2443	2443	2443	2460	2443	2443	2460	2460	2460	2460	2443	2443	2443	2443	3341	3341	3341	3341	3341	3341	3341	3341	3341	3373	3373	3373	3341	3341	3341	3341	3341	3373	3373	3373	3341	3341	3341	3341	3341	3309	3309	3341	3341	3309	3309	3277	3277	3309	3309	3341	3341	3373	3373	3406	3406	3406	3406	3475	3475	3510	3546	3546	3546	3546	3546	3546	3546	3583	3546	3546	3546	3546	3546	3546	3546	3546	3510	3546	3546	3546	3546	3546	3583	3583	3583	3583	3583	3546	3583	3583	3546	3546	3546	3546	3546	3546	3546	3546	3546	3546	3546	3546	3583	3583	3583	3546	3546	3546	3546	3546	3546	3546	3546	3546	3583	3583	3583	3546	3546	3546	3546	3546	3583	3546	3583	3583	3583	3583	3583	3583	3583	3583	3546	3546	3546	3546	3546	3510	3510	3546	3583	3583	3583	3583	3583	3583	3583	3583	3583	3583	3583	3583	3583	3583	3583	3583	3583	3583	3583	3583	3583	3583	3583	2942	2942	2942	2942	2942	2917	2917	2917	2942	2942	2942	2942	2942	2967	2942	2942	2942	2942	2942	2942	2942	2942	2942	2917	2942	2942	2942	2942	2917	2917	2893	2893	2893	2869	2869	2869	2869	2869	2869	2869	2869	2869	2869	2869	2869	2869	2893	2942	2942	2942	2942	2942	2942	2942	2942	2942	2942	2942	2967	2967	2967	2967	2993	2993	2993	2993	2993	2993	2993	2967	2967	2967	2967	2967	3621	3621	3621	3621	3621	3621	3621	3621	3621	3621	3621	3621	3621	3659	3659	3659	3659	3659	3659	3659	3659	3659	3621	3621	3621	3621	3621	3621	3621	3621	3621	3621	3621	3621	3621	3621	3621	3621	3621	3659	3621	3621	3621	3621	3621	3621	3621	3621	3621	3621	3659	3621	3621	3621	3621	3621	3621	3621	3621	3621	3621	3621	3621	3621	3621	3621	3621	3621	3659	3659	3659	3659	3659	3659	3659	3698	3659	3698	3698	3698	3698	3698	3698	3698	3698	3659	3659	3659	3659	3659	3659	3659	3659	3659	3659	3659	3659	3659	3659	3659	3659	3659	3659	3659	3659	3659	3659	3659	3659	3659	3659	3659	3659	3659	3621	3659	3659	3659	0	2297	2281	2297	2281	2281	2252	2237	2237	2223	2223	2208	2194	2194	2181	2167	2153	2153	2140	2127	2101	2101	2088	2076	2076	2063	2063	2051	2039	2027	2039	2027	2015	2003	1980	1969	1958	1947	1947	1936	1925	1915	1894	1894	1883	1873	1863	1863	1863	1853	1853	1843	1824	1814	1814	1795	1786	1786	1777	1777	1777	1759	1750	1741	1732	1723	1723	1715	1706	1698	1681	1681	1673	1665	1657	1649	1641	1649	1641	1641	1618	1618	1611	1603	1603	1596	1589	1581	1581	1574	1560	1560	1553	1546	1539	1532	1532	1525	1519	1519	1512	1512	1506	1506	1506	1506	1512	1512	1519	1519	1525	1525	1539	1539	1539	1539	1532	1539	1539	1539	1539	1539	1539	1539	1539	1539	1539	1546	1546	1546	1546	1546	1546	1539	1539	1539	1539	1539	1539	1539	1546	1539	1539	1546	1546	1546	1539	1546	1539	1546	1539	1539	0	0	0	0	0	0	0	0	0	0	0	0	0	0	0	0	0	0	0	0	0	0	0	0	0	0	0	0	0	0	0	0	0	0	0	0	0	0	0	0
0	0	0	0	0	0	0	0	0	0	0	0	0	1665	1665	1665	1681	1690	1698	1698	1698	1698	1706	1715	1715	1723	1723	1732	1741	1759	1768	1768	1768	2478	2460	2460	2460	2460	2443	2443	2426	2409	2409	2409	2409	2426	2426	2409	2409	2409	2426	2426	2409	2409	2409	2409	2409	2409	2409	2392	2409	2409	2409	2409	2426	2426	2426	2426	2426	2443	2426	2426	2426	2443	2426	2426	2426	2426	2443	2443	2443	2443	2443	2443	2426	2426	2426	2443	2426	2426	2426	2443	2443	2443	2443	2460	2460	2443	2443	2443	2443	2443	2443	2443	2443	2443	2443	3440	3373	3373	3373	3373	3373	3373	3373	3341	3341	3341	3341	3341	3341	3341	3341	3341	3373	3406	3373	3373	3373	3373	3373	3373	3341	3341	3373	3373	3341	3309	3309	3309	3341	3341	3341	3341	3373	3373	3406	3406	3406	3406	3440	3510	3546	3546	3546	3546	3546	3546	3546	3546	3583	3546	3546	3583	3546	3546	3546	3546	3510	3510	3546	3546	3546	3583	3546	3546	3583	3583	3583	3583	3546	3546	3583	3546	3546	3546	3546	3546	3546	3546	3546	3546	3546	3546	3546	3546	3583	3546	3546	3546	3546	3546	3546	3546	3546	3546	3546	3583	3583	3546	3546	3546	3546	3546	3546	3546	3546	3546	3546	3546	3546	3546	3546	3546	3546	3546	3546	3546	3546	3546	3510	3510	3510	3546	3583	3583	3583	3583	3583	3583	3583	3583	3583	3583	3583	3583	3583	3621	3583	3583	3583	3583	3583	3583	3583	3583	2942	2942	2917	2917	2917	2917	2917	2893	2917	2917	2942	2942	2942	2967	2942	2942	2942	2942	2942	2942	2942	2942	2942	2942	2917	2917	2917	2917	2917	2893	2893	2893	2893	2869	2869	2869	2869	2869	2869	2869	2869	2869	2869	2869	2869	2869	2893	2893	2942	2942	2942	2942	2942	2942	2942	2942	2942	2942	2967	2967	2967	2967	2993	2993	2993	2993	2993	2993	2967	2967	2967	2967	2967	2967	2942	3621	3621	3621	3621	3621	3621	3621	3621	3621	3621	3621	3621	3621	3621	3621	3659	3659	3659	3659	3659	3659	3621	3621	3621	3621	3621	3621	3621	3621	3621	3621	3621	3621	3621	3621	3621	3621	3621	3659	3621	3621	3621	3621	3621	3621	3621	3621	3621	3621	3659	3621	3621	3621	3621	3621	3621	3621	3621	3621	3621	3621	3621	3621	3621	3621	3621	3621	3659	3659	3659	3659	3659	3659	3659	3698	3698	3698	3698	3698	3698	3659	3659	3698	3659	3659	3659	3659	3659	3659	3659	3659	3659	3659	3659	3659	3659	3659	3659	3659	3659	3659	3659	3659	3659	3659	3659	3659	3659	3659	3659	3659	3659	3659	3621	3659	3659	0	0	2297	2297	2297	2281	2281	2266	2252	2237	2237	2223	2223	2208	2194	2181	2181	2167	2153	2140	2127	2101	2101	2088	2076	2076	2063	2063	2051	2039	2027	2027	2027	2015	2003	1992	1980	1969	1958	1947	1936	1925	1915	1894	1894	1883	1873	1863	1863	1863	1853	1853	1843	1824	1814	1804	1786	1786	1786	1777	1777	1777	1759	1750	1741	1732	1723	1723	1715	1706	1698	1698	1681	1673	1665	1657	1649	1649	1649	1641	1641	1618	1618	1611	1611	1603	1589	1581	1581	1581	1574	1560	1560	1553	1546	1539	1539	1532	1525	1525	1519	1519	1512	1506	1506	1506	1506	1506	1512	1519	1519	1525	1525	1539	1539	1539	1539	1532	1539	1539	1539	1539	1539	1539	1539	1539	1539	1546	1546	1546	1546	1539	1546	1539	1539	1539	1539	1539	1539	1539	1539	1539	1539	1539	1539	1539	1539	1539	1539	1539	1546	1546	1546	0	0	0	0	0	0	0	0	0	0	0	0	0	0	0	0	0	0	0	0	0	0	0	0	0	0	0	0	0	0	0	0	0	0	0	0	0	0	0	0
0	0	0	0	0	0	0	0	0	0	0	0	0	1665	1665	1673	1681	1690	1698	1698	1698	1706	1706	1706	1715	1723	1732	1732	1741	1759	1759	1768	1777	1777	1777	1786	1786	2460	2443	2443	2426	2426	2409	2426	2426	2426	2426	2409	2409	2409	2409	2409	2409	2409	2409	2409	2409	2409	2409	2409	2409	2409	2409	2409	2426	2426	2426	2426	2426	2443	2426	2426	2426	2443	2426	2426	2426	2426	2426	2426	2426	2426	2443	2443	2443	2426	2426	2426	2426	2426	2426	2426	2443	2443	2443	2443	2460	2443	2443	2443	2460	2460	2460	2443	2443	2443	3440	3440	3475	3440	3440	3440	3406	3406	3406	3373	3373	3373	3373	3373	3341	3341	3341	3406	3373	3373	3373	3373	3406	3406	3406	3406	3373	3373	3406	3440	3373	3341	3309	3309	3341	3341	3373	3341	3373	3373	3406	3406	3406	3406	3440	3510	3510	3510	3546	3546	3546	3546	3546	3583	3583	3546	3583	3583	3546	3546	3546	3546	3510	3510	3510	3546	3546	3546	3546	3546	3583	3546	3583	3546	3546	3546	3546	3546	3546	3546	3546	3546	3546	3546	3546	3546	3546	3546	3546	3546	3546	3546	3546	3546	3546	3546	3546	3546	3583	3546	3546	3546	3546	3546	3546	3546	3546	3546	3546	3546	3546	3546	3546	3546	3546	3546	3546	3546	3546	3546	3546	3546	3546	3546	3510	3510	3510	3546	3583	3583	3583	3583	3583	3583	3583	3583	3621	3583	3583	3583	3621	3621	3621	3621	3583	3583	3583	3583	3583	3583	2942	2942	2942	2917	2917	2893	2893	2893	2893	2917	2917	2942	2942	2967	2942	2942	2942	2942	2942	2942	2942	2942	2942	2917	2917	2917	2917	2917	2893	2893	2893	2893	2893	2893	2869	2869	2869	2869	2869	2869	2869	2869	2869	2869	2869	2869	2893	2893	2917	2942	2942	2942	2942	2942	2942	2942	2942	2942	2967	2967	2967	2993	2993	2993	2993	2993	2993	2967	2967	2967	2967	2967	2967	2942	2942	2942	3621	3621	3621	3621	3621	3621	3621	3621	3621	3621	3621	3621	3621	3659	3659	3659	3659	3659	3659	3659	3621	3621	3621	3621	3621	3621	3621	3621	3621	3621	3621	3621	3621	3621	3621	3621	3621	3621	3659	3659	3659	3659	3659	3621	3621	3659	3659	3659	3659	3659	3621	3621	3621	3621	3621	3621	3621	3621	3621	3659	3621	3621	3621	3621	3621	3621	3659	3659	3659	3659	3659	3698	3698	3698	3698	3698	3698	3698	3698	3698	3659	3659	3659	3659	3659	3659	3659	3659	3659	3659	3659	3659	3659	3659	3659	3659	3659	3659	3659	3659	3659	3659	3659	3659	3659	3659	3659	3659	3659	3659	3621	3621	3621	3659	3659	0	0	2297	2297	2297	2281	2281	2266	2252	2237	2237	2237	2223	2208	2194	2181	2181	2167	2153	2140	2127	2101	2101	2088	2076	2076	2063	2063	2051	2039	2027	2027	2027	2015	2003	1980	1980	1969	1947	1947	1936	1925	1915	1904	1894	1883	1873	1863	1863	1863	1853	1853	1843	1824	1814	1795	1786	1786	1786	1777	1777	1777	1768	1750	1741	1732	1723	1723	1715	1706	1706	1698	1681	1681	1673	1665	1657	1649	1649	1641	1641	1634	1618	1611	1611	1603	1596	1589	1589	1581	1574	1560	1560	1553	1546	1539	1539	1532	1525	1525	1519	1512	1506	1506	1506	1506	1506	1506	1512	1519	1525	1525	1525	1539	1539	1539	1539	1539	1539	1539	1539	1539	1539	1539	1539	1539	1539	1546	1546	1546	1546	1546	1546	1546	1539	1539	1539	1539	1539	1539	1539	1539	1539	1539	1539	1539	1546	1539	1539	1539	1539	1539	1539	0	0	0	0	0	0	0	0	0	0	0	0	0	0	0	0	0	0	0	0	0	0	0	0	0	0	0	0	0	0	0	0	0	0	0	0	0	0	0	0
0	0	0	0	0	0	0	0	0	0	0	0	0	1673	1673	1681	1690	1698	1698	1698	1698	1706	1706	1706	1715	1723	1732	1741	1741	1750	1759	1768	1777	1777	1786	1786	1777	1777	1777	2443	2426	2426	2426	2426	2426	2409	2409	2409	2409	2409	2409	2409	2409	2409	2409	2409	2409	2409	2392	2409	2409	2409	2409	2409	2426	2426	2426	2426	2426	2443	2426	2426	2426	2426	2426	2426	2426	2426	2426	2426	2443	2443	2443	2443	2443	2443	2443	2426	2426	2426	2426	2426	2426	2443	2443	2443	2460	2443	2443	2443	2460	2460	2460	2443	2443	0	3475	3475	3475	3475	3475	3475	3440	3440	3440	3373	3373	3373	3373	3373	3373	3341	3341	3341	3406	3406	3373	3373	3406	3406	3406	3406	3406	3406	3406	3440	3440	3373	3341	3341	3373	3373	3373	3373	3406	3406	3440	3440	3406	3440	3475	3475	3510	3510	3546	3546	3546	3546	3546	3546	3583	3546	3583	3583	3583	3546	3583	3546	3546	3510	3510	3546	3546	3546	3546	3546	3583	3546	3546	3546	3546	3546	3583	3546	3546	3583	3546	3546	3546	3546	3546	3546	3546	3546	3546	3546	3546	3546	3546	3546	3546	3546	3583	3546	3546	3546	3546	3583	3546	3546	3546	3546	3546	3546	3546	3546	3546	3546	3546	3546	3546	3546	3546	3546	3546	3546	3546	3546	3546	3546	3510	3546	3510	3546	3583	3583	3583	3583	3583	3583	3583	3583	3621	3583	3621	3621	3621	3621	3621	3621	3621	3621	3583	3583	3583	3583	2942	2942	2942	2917	2917	2893	2893	2893	2893	2893	2917	2893	2917	2917	2942	2942	2942	2942	2942	2942	2942	2942	2942	2917	2917	2917	2917	2893	2893	2893	2893	2893	2893	2893	2869	2869	2869	2869	2869	2869	2869	2869	2869	2869	2869	2869	2893	2893	2917	2917	2942	2942	2942	2942	2942	2942	2942	2942	2967	2967	2967	2993	2993	2967	2967	2967	2967	2967	2967	2942	2942	2942	2967	2942	2942	3621	3621	3621	3621	3621	3621	3621	3621	3621	3621	3621	3621	3621	3621	3621	3659	3659	3621	3659	3659	3659	3621	3621	3621	3621	3621	3621	3621	3621	3621	3621	3621	3621	3621	3621	3621	3621	3621	3621	3659	3659	3659	3659	3659	3659	3659	3659	3659	3659	3659	3659	3621	3621	3621	3621	3621	3621	3621	3621	3621	3659	3621	3621	3621	3621	3621	3621	3659	3659	3659	3659	3659	3659	3698	3698	3698	3698	3698	3698	3698	3698	3659	3659	3659	3659	3659	3659	3659	3659	3659	3659	3659	3659	3659	3659	3659	3659	3659	3659	3659	3621	3659	3659	3659	3659	3659	3659	3659	3659	3659	3659	3621	3659	3621	3659	3659	0	0	2297	2297	2281	2281	2281	2266	2252	2237	2237	2237	2223	2208	2194	2181	2181	2167	2153	2140	2127	2101	2088	2088	2076	2076	2063	2051	2051	2027	2015	2027	2015	2003	2003	1980	1980	1969	1958	1936	1936	1925	1915	1904	1894	1883	1873	1863	1863	1853	1853	1843	1833	1824	1814	1795	1786	1786	1786	1777	1777	1777	1768	1750	1741	1732	1732	1723	1715	1706	1706	1706	1698	1681	1673	1657	1649	1649	1649	1641	1641	1634	1618	1611	1611	1603	1596	1589	1581	1581	1574	1560	1560	1553	1546	1539	1532	1532	1525	1525	1519	1512	1506	1506	1506	1506	1506	1506	1506	1519	1519	1525	1532	1532	1546	1546	1546	1539	1546	1539	1539	1539	1539	1546	1546	1546	1546	1546	1546	1546	1546	1546	1546	1546	1539	1539	1539	1539	1539	1539	1539	1546	1546	1546	1546	1546	1546	1546	1546	1539	1539	1539	1539	0	0	0	0	0	0	0	0	0	0	0	0	0	0	0	0	0	0	0	0	0	0	0	0	0	0	0	0	0	0	0	0	0	0	0	0	0	0	0	0
0	0	0	0	0	0	0	0	0	0	0	0	0	1665	1665	1681	1690	1690	1698	1706	1706	1715	1715	1715	1723	1732	1732	1741	1750	1759	1759	1768	1768	1768	1786	1786	1777	1777	1777	0	2460	2460	2426	2426	2426	2426	2426	2409	2409	2409	2409	2409	2409	2409	2409	2409	2409	2409	2392	2409	2409	2409	2409	2426	2426	2426	2426	2426	2426	2426	2426	2426	2426	2426	2426	2426	2426	2426	2426	2426	2426	2443	2443	2443	2443	2443	2443	2443	2426	2426	2426	2426	2426	2443	2443	2426	2460	2443	2443	2443	2460	2460	2460	2443	2460	2460	2460	3475	3440	3440	3475	3475	3440	3475	3475	3475	3373	3406	3406	3406	3406	3373	3373	3440	3406	3341	3341	3373	3406	3406	3440	3406	3406	3440	3440	3475	3475	3406	3373	3373	3406	3406	3406	3373	3440	3440	3440	3440	3440	3440	3475	3475	3510	3510	3546	3546	3546	3546	3546	3546	3546	3546	3546	3583	3583	3546	3583	3546	3510	3510	3510	3510	3546	3546	3546	3546	3583	3546	3546	3546	3546	3546	3583	3546	3546	3546	3546	3546	3546	3546	3546	3546	3546	3546	3546	3546	3546	3546	3546	3546	3546	3546	3583	3583	3546	3583	3583	3583	3583	3583	3546	3546	3546	3546	3546	3546	3546	3546	3546	3546	3546	3546	3546	3546	3546	3546	3546	3546	3546	3546	3510	3546	3546	3583	3583	3583	3583	3583	3621	3583	3583	3583	3583	3583	3583	3583	3583	3583	3583	3621	3583	3621	3583	3583	3583	3583	2942	2942	2942	2917	2917	2917	2869	2869	2869	2869	2869	2893	2893	2917	2917	2942	2942	2942	2942	2942	2942	2942	2942	2917	2917	2893	2893	2893	2893	2869	2869	2869	2893	2893	2869	2869	2893	2869	2869	2869	2869	2869	2869	2869	2869	2869	2893	2893	2917	2917	2942	2942	2942	2942	2942	2942	2967	2967	2993	2967	2967	2993	2967	2967	2967	2967	2967	2967	2942	2942	2942	2942	2967	2942	2942	3621	3621	3621	3621	3621	3621	3621	3621	3621	3621	3621	3621	3621	3621	3659	3659	3621	3621	3621	3621	3621	3621	3621	3621	3621	3621	3621	3621	3621	3621	3621	3621	3621	3621	3621	3621	3621	3621	3621	3659	3659	3621	3659	3659	3659	3659	3659	3659	3659	3659	3621	3621	3621	3621	3621	3621	3621	3621	3621	3621	3659	3621	3659	3659	3659	3659	3621	3659	3659	3659	3659	3659	3659	3659	3698	3698	3698	3698	3698	3698	3698	3659	3659	3659	3659	3659	3659	3659	3659	3659	3659	3659	3659	3659	3659	3659	3659	3659	3659	3659	3659	3659	3659	3659	3659	3659	3659	3659	3659	3659	3659	3659	3659	3659	3659	3659	3659	0	2297	2297	2297	2281	2281	2266	2252	2237	2237	2237	2223	2208	2194	2181	2181	2167	2153	2140	2127	2101	2101	2088	2088	2076	2063	2051	2051	2027	2015	2027	2015	2003	1992	1980	1980	1969	1947	1936	1925	1915	1915	1904	1894	1883	1873	1863	1863	1853	1853	1843	1833	1814	1804	1786	1795	1786	1786	1777	1777	1768	1768	1750	1741	1732	1723	1723	1715	1706	1706	1698	1698	1681	1673	1665	1657	1649	1649	1641	1641	1634	1618	1611	1611	1603	1596	1589	1581	1574	1574	1567	1560	1553	1546	1539	1532	1532	1525	1525	1519	1512	1506	1506	1506	1506	1499	1499	1506	1506	1525	1525	1532	1546	1546	1546	1546	1546	1546	1546	1546	1546	1546	1546	1546	1546	1546	1546	1546	1553	1553	1553	1546	1546	1546	1546	1539	1539	1539	1539	1539	1546	1546	1553	1546	1546	1546	1546	1546	1539	1539	1532	1532	0	0	0	0	0	0	0	0	0	0	0	0	0	0	0	0	0	0	0	0	0	0	0	0	0	0	0	0	0	0	0	0	0	0	0	0	0	0	0	0
0	0	0	0	0	0	0	0	0	0	0	0	0	1665	1665	1673	1681	1690	1698	1706	1706	1715	1723	1723	1732	1732	1732	1741	1759	1759	1759	1768	1777	1777	1786	1786	1795	1804	1824	1824	1824	2460	2426	2426	2409	2409	2409	2409	2409	2409	2409	2409	2409	2409	2409	2409	2409	2409	2409	2409	2409	2409	2409	2409	2409	2426	2426	2426	2426	2426	2426	2426	2426	2426	2426	2409	2409	2409	2426	2426	2426	2443	2443	2443	2443	2443	2443	2443	2426	2426	2426	2426	2426	2426	2443	2443	2460	2443	2443	2443	2443	2478	2478	2460	2460	2460	2460	0	3440	3440	3440	3475	3475	3475	3510	3475	3475	3475	3440	3475	3475	3440	3440	3440	3440	3475	3440	3406	3440	3440	3475	3406	3440	3440	3475	3475	3475	3440	3406	3406	3475	3475	3440	3440	3475	3440	3475	3440	3475	3440	3475	3475	3475	3510	3510	3510	3546	3510	3546	3546	3546	3546	3546	3583	3546	3546	3583	3546	3510	3510	3510	3510	3546	3546	3546	3546	3583	3546	3546	3546	3546	3546	3583	3546	3546	3546	3546	3546	3546	3546	3546	3546	3546	3546	3546	3546	3546	3546	3546	3546	3546	3546	3546	3546	3583	3583	3583	3583	3583	3546	3546	3546	3546	3546	3546	3546	3546	3546	3546	3510	3546	3546	3546	3546	3546	3546	3546	3546	3546	3546	3510	3546	3546	3583	3583	3583	3583	3583	3583	3583	3583	3583	3583	3583	3583	3583	3583	3583	3583	3621	3583	3583	3583	3583	3583	3583	2942	2942	2917	2917	2917	2893	2869	2869	2869	2869	2893	2893	2893	2917	2942	2942	2942	2942	2942	2942	2942	2942	2942	2917	2917	2917	2893	2893	2893	2869	2869	2893	2893	2893	2893	2893	2917	2869	2917	2869	2869	2869	2869	2869	2869	2869	2893	2893	2917	2917	2917	2917	2917	2942	2942	2942	2942	2942	2942	2967	2967	2967	2993	2993	2967	2967	2967	2942	2942	2942	2942	2942	2942	2942	2942	3621	3621	3621	3621	3621	3621	3621	3621	3621	3621	3621	3621	3621	3621	3621	3659	3621	3621	3621	3659	3621	3621	3621	3621	3621	3621	3621	3621	3621	3621	3621	3583	3621	3621	3621	3621	3621	3621	3621	3621	3659	3621	3659	3659	3659	3659	3659	3659	3659	3659	3659	3621	3621	3621	3621	3621	3621	3621	3621	3621	3659	3621	3621	3621	3659	3659	3621	3659	3659	3659	3659	3659	3659	3659	3698	3698	3698	3698	3659	3659	3698	3659	3659	3659	3659	3659	3659	3659	3659	3659	3659	3659	3659	3659	3659	3659	3659	3659	3659	3659	3659	3659	3659	3659	3659	3659	3659	3659	3659	3659	3659	3659	3659	3659	3659	3659	3659	0	0	2297	2297	2297	2281	2266	2252	2237	2237	2237	2223	2208	2194	2181	2181	2167	2153	2140	2127	2114	2101	2088	2088	2076	2063	2051	2051	2027	2015	2027	2015	2003	1992	1980	1969	1969	1947	1936	1925	1915	1915	1904	1894	1883	1873	1863	1863	1853	1843	1843	1824	1814	1804	1795	1795	1786	1786	1777	1777	1768	1750	1750	1741	1732	1723	1723	1715	1706	1706	1698	1690	1681	1673	1665	1657	1649	1649	1641	1641	1626	1618	1611	1611	1603	1596	1589	1581	1574	1567	1567	1553	1553	1546	1539	1532	1532	1525	1519	1512	1512	1506	1499	1499	1499	1499	1499	1506	1512	1519	1525	1532	1546	1546	1546	1546	1546	1546	1546	1546	1546	1546	1546	1546	1546	1546	1546	1546	1553	1553	1553	1553	1553	1546	1546	1546	1539	1539	1539	1539	1553	1553	1553	1553	1553	1553	1553	1546	1546	1546	1546	1532	0	0	0	0	0	0	0	0	0	0	0	0	0	0	0	0	0	0	0	0	0	0	0	0	0	0	0	0	0	0	0	0	0	0	0	0	0	0	0	0
0	0	0	0	0	0	0	0	0	0	0	0	0	1665	1665	1673	1673	1681	1698	1706	1706	1715	1723	1723	1732	1732	1741	1741	1741	1759	1768	1777	1786	1786	1795	1795	1795	1804	1824	1824	1833	1843	1843	1843	1853	1853	2409	2392	2392	2392	2392	2409	2409	2409	2409	2409	2409	2409	2409	2409	2409	2409	2409	2409	2426	2426	2426	2426	2426	2426	2426	2426	2426	2426	2426	2409	2409	2409	2426	2426	2426	2426	2443	2443	2443	2443	2443	2443	2426	2426	2426	2426	2443	2443	2443	2426	2460	2460	2460	2443	2443	2478	2478	2460	2478	2460	2460	0	3440	3440	3475	3475	3475	3475	3510	3510	3510	3510	3475	3475	3510	3475	3475	3475	3475	3475	3440	3440	3475	3475	3475	3440	3440	3440	3475	3475	3475	3475	3440	3475	3475	3475	3440	3440	3475	3475	3475	3440	3440	3440	3475	3475	3475	3510	3510	3510	3510	3510	3510	3510	3546	3546	3546	3546	3546	3546	3583	3546	3510	3510	3510	3510	3546	3546	3510	3546	3546	3546	3546	3546	3546	3546	3546	3546	3546	3583	3546	3510	3546	3546	3546	3546	3546	3546	3546	3546	3546	3546	3546	3546	3546	3546	3546	3546	3546	3583	3583	3583	3583	3546	3546	3546	3546	3546	3546	3546	3546	3546	3546	3510	3546	3546	3546	3546	3546	3546	3546	3546	3546	3546	3546	3546	3546	3546	3583	3583	3583	3583	3583	3583	3583	3583	3583	3583	3583	3583	3583	3583	3583	3621	3621	3583	3583	3583	3583	3583	2942	2942	2917	2917	2917	2893	2869	2869	2869	2869	2869	2869	2893	2893	2917	2942	2917	2942	2942	2942	2942	2942	2942	2942	2917	2917	2893	2893	2893	2893	2893	2893	2917	2917	2917	2917	2917	2917	2917	2917	2869	2869	2893	2869	2869	2869	2893	2893	2893	2893	2917	2942	2942	2942	2942	2942	2942	2942	2967	2967	2967	2993	2967	2967	2967	2967	2967	2942	2942	2942	2967	2942	2967	2967	3621	3621	3621	3621	3621	3621	3621	3621	3621	3621	3621	3621	3621	3621	3621	3621	3621	3621	3621	3621	3621	3621	3621	3621	3621	3621	3621	3621	3621	3621	3621	3621	3583	3583	3583	3583	3621	3621	3621	3621	3659	3659	3659	3659	3659	3659	3659	3659	3659	3659	3659	3659	3659	3621	3621	3621	3621	3621	3621	3621	3659	3659	3621	3621	3621	3659	3621	3621	3659	3659	3659	3659	3659	3659	3659	3698	3698	3698	3698	3698	3698	3698	3659	3659	3659	3659	3659	3659	3659	3659	3659	3659	3659	3659	3659	3659	3659	3659	3659	3659	3659	3659	3659	3659	3659	3659	3659	3659	3659	3659	3659	3659	3659	3659	3659	3659	3659	3659	3659	0	0	2281	2297	2281	2281	2252	2237	2237	2237	2223	2208	2194	2181	2181	2167	2153	2140	2127	2114	2101	2088	2088	2076	2063	2051	2039	2027	2015	2027	2015	2003	1992	1980	1969	1958	1947	1936	1936	1925	1915	1915	1894	1883	1873	1863	1863	1853	1843	1833	1824	1814	1804	1804	1795	1786	1786	1777	1759	1759	1759	1741	1741	1732	1723	1723	1715	1706	1706	1698	1698	1681	1673	1665	1657	1649	1649	1641	1634	1626	1618	1611	1611	1603	1596	1589	1581	1574	1567	1560	1553	1553	1546	1539	1532	1532	1525	1519	1512	1512	1506	1499	1499	1499	1499	1499	1499	1506	1506	1519	1532	1553	1553	1546	1553	1553	1553	1553	1553	1553	1553	1553	1553	1553	1553	1553	1553	1553	1553	1553	1553	1553	1553	1553	1553	1546	1546	1546	1546	1553	1553	1553	1553	1553	1553	1553	1553	1546	1546	1546	0	0	0	0	0	0	0	0	0	0	0	0	0	0	0	0	0	0	0	0	0	0	0	0	0	0	0	0	0	0	0	0	0	0	0	0	0	0	0	0	0
0	0	0	0	0	0	0	0	0	0	0	0	0	1657	1665	1673	1673	1681	1690	1698	1706	1715	1723	1732	1732	1741	1750	1750	1759	1768	1777	1777	1777	1795	1795	1795	1795	1804	1814	1814	1824	1833	1833	1843	1843	1863	1863	1873	1863	1863	2392	2392	2392	2409	2409	2409	2409	2409	2409	2409	2409	2409	2409	2409	2426	2426	2426	2426	2426	2426	2426	2426	2426	2426	2426	2426	2409	2409	2426	2426	2426	2426	2443	2443	2443	2443	2426	2443	2443	2426	2426	2426	2443	2443	2443	2443	2460	2460	2460	2460	2460	2478	2478	2478	2478	2478	2478	0	3475	3475	3475	3475	3475	3475	3510	3510	3510	3510	3475	3510	3510	3475	3475	3475	3475	3475	3475	3475	3475	3475	3475	3475	3475	3475	3475	3475	3475	3475	3440	3475	3475	3475	3475	3475	3475	3475	3475	3475	3475	3475	3510	3510	3475	3510	3510	3510	3510	3510	3546	3546	3546	3546	3546	3583	3546	3583	3546	3546	3510	3510	3510	3510	3546	3510	3510	3546	3546	3546	3546	3546	3546	3546	3546	3546	3510	3546	3546	3546	3546	3546	3546	3546	3546	3546	3546	3546	3546	3546	3546	3546	3546	3546	3546	3546	3546	3546	3546	3583	3546	3546	3546	3546	3546	3546	3546	3546	3510	3510	3510	3510	3510	3510	3510	3546	3546	3546	3546	3546	3546	3546	3546	3546	3546	3546	3583	3583	3583	3583	3583	3583	3583	3583	3583	3583	3583	3583	3583	3583	3583	3583	3621	3621	3583	3583	3546	3583	3546	2942	2917	2893	2893	2869	2869	2869	2869	2869	2869	2869	2893	2893	2893	2917	2917	2942	2942	2942	2942	2942	2942	2942	2917	2917	2917	2917	2917	2893	2893	2917	2917	2942	2917	2917	2942	2942	2942	2942	2893	2893	2893	2893	2869	2869	2893	2869	2893	2893	2893	2893	2942	2942	2942	2942	2942	2942	2967	2967	2967	2993	2967	2967	2967	2967	2942	2942	2942	2942	2942	2942	2942	2942	3621	3621	3621	3621	3621	3621	3621	3621	3621	3621	3621	3621	3621	3621	3621	3621	3621	3621	3621	3621	3621	3621	3621	3621	3621	3621	3621	3621	3621	3621	3621	3621	3621	3621	3621	3621	3621	3621	3621	3659	3659	3659	3659	3659	3659	3659	3659	3659	3659	3659	3621	3621	3621	3621	3621	3621	3621	3621	3621	3621	3621	3659	3621	3621	3621	3659	3621	3621	3659	3659	3659	3659	3659	3659	3659	3659	3659	3698	3659	3659	3698	3659	3659	3698	3659	3659	3659	3659	3659	3659	3659	3659	3659	3659	3659	3659	3659	3659	3659	3659	3659	3659	3659	3659	3659	3659	3659	3659	3659	3659	3659	3659	3659	3659	3659	3659	3659	3659	3659	0	0	2281	2281	2281	2266	2252	2237	2237	2237	2223	2208	2208	2194	2181	2167	2153	2140	2127	2114	2101	2088	2088	2076	2076	2051	2039	2027	2015	2027	2015	2003	1992	1980	1969	1958	1947	1936	1925	1925	1915	1915	1894	1883	1873	1863	1863	1853	1843	1833	1824	1814	1804	1795	1804	1786	1786	1777	1768	1759	1759	1741	1741	1732	1723	1715	1715	1706	1706	1698	1698	1681	1673	1665	1657	1649	1649	1641	1641	1634	1618	1611	1611	1603	1596	1589	1581	1574	1567	1560	1560	1553	1546	1539	1532	1532	1525	1519	1512	1512	1506	1499	1499	1499	1499	1499	1499	1506	1512	1525	1532	1553	1553	1553	1553	1553	1553	1560	1560	1553	1560	1560	1553	1553	1553	1553	1553	1553	1560	1553	1553	1553	1553	1553	1553	1553	1546	1546	1546	1553	1560	1560	1560	1560	1553	1553	1553	1553	1546	1546	0	0	0	0	0	0	0	0	0	0	0	0	0	0	0	0	0	0	0	0	0	0	0	0	0	0	0	0	0	0	0	0	0	0	0	0	0	0	0	0	0
0	0	0	0	0	0	0	0	0	0	0	0	0	1657	1657	1665	1673	1681	1690	1698	1706	1715	1723	1732	1741	1741	1759	1759	1768	1777	1786	1786	1786	1795	1795	1795	1804	1804	1814	1814	1814	1814	1833	1843	1853	1853	1873	1873	1863	1863	1863	2392	2409	2409	2409	2409	2409	2409	2409	2409	2409	2409	2409	2409	2426	2426	2426	2426	2426	2426	2426	2426	2426	2426	2426	2426	2409	2426	2426	2426	2426	2426	2426	2443	2443	2426	2426	2426	2426	2426	2426	2426	2443	2443	2460	2460	2460	2460	2460	2460	2460	2460	2460	2478	2478	2478	2478	0	3475	3475	3475	3475	3475	3510	3510	3510	3510	3510	3510	3510	3510	3510	3510	3510	3510	3510	3510	3475	3475	3475	3475	3475	3475	3475	3475	3475	3475	3475	3440	3475	3475	3475	3475	3475	3475	3475	3475	3475	3475	3475	3510	3475	3475	3510	3510	3510	3510	3510	3510	3510	3546	3546	3546	3546	3546	3546	3546	3546	3510	3510	3475	3510	3546	3546	3510	3546	3546	3546	3546	3546	3546	3510	3546	3510	3510	3510	3546	3510	3546	3546	3546	3546	3546	3546	3546	3546	3546	3546	3546	3546	3546	3546	3546	3546	3546	3546	3546	3583	3546	3546	3546	3546	3546	3546	3546	3546	3546	3546	3546	3546	3510	3510	3510	3510	3546	3546	3546	3546	3546	3546	3546	3546	3546	3583	3583	3583	3583	3583	3583	3583	3583	3583	3583	3583	3583	3583	3583	3583	3583	3583	3621	3583	3583	3583	3546	3546	3546	2893	2893	2893	2893	2869	2869	2869	2869	2869	2869	2869	2869	2893	2893	2917	2917	2917	2942	2942	2942	2942	2917	2942	2917	2917	2917	2917	2917	2917	2917	2917	2942	2942	2917	2942	2942	2942	2942	2917	2917	2893	2893	2893	2893	2869	2869	2893	2893	2893	2893	2917	2917	2942	2942	2942	2942	2942	2967	2967	2967	2967	2967	2967	2967	2942	2942	2942	2942	2942	2942	2917	2942	2942	3621	3659	3621	3621	3621	3621	3621	3621	3621	3621	3621	3621	3621	3621	3621	3621	3621	3621	3621	3621	3621	3621	3621	3621	3621	3621	3621	3621	3621	3621	3621	3621	3583	3621	3583	3621	3621	3621	3621	3659	3659	3659	3659	3659	3659	3621	3659	3621	3659	3659	3621	3621	3621	3621	3621	3621	3621	3621	3621	3621	3659	3659	3621	3621	3621	3621	3621	3621	3659	3659	3659	3659	3659	3659	3659	3659	3659	3659	3659	3659	3659	3659	3659	3659	3659	3659	3659	3659	3659	3659	3659	3659	3659	3659	3659	3659	3659	3659	3659	3659	3659	3659	3659	3659	3659	3659	3659	3659	3659	3659	3659	3659	3698	3698	3698	3659	3659	3659	3659	3659	0	2281	2281	2266	2252	2237	2237	2237	2237	2223	2208	2194	2194	2181	2167	2153	2140	2127	2114	2101	2088	2076	2076	2063	2051	2039	2027	2015	2027	2015	1992	1992	1980	1958	1958	1947	1936	1936	1925	1915	1915	1894	1883	1873	1863	1853	1853	1843	1833	1833	1824	1814	1804	1804	1786	1777	1777	1759	1759	1750	1741	1741	1732	1723	1715	1715	1706	1706	1698	1698	1681	1673	1665	1657	1649	1649	1641	1641	1634	1618	1611	1611	1603	1596	1589	1581	1574	1567	1560	1560	1553	1546	1539	1532	1532	1525	1519	1512	1512	1499	1499	1499	1499	1499	1499	1499	1506	1512	1519	1532	1553	1560	1553	1560	1560	1560	1560	1560	1560	1560	1560	1560	1560	1560	1553	1553	1560	1560	1560	1553	1553	1553	1553	1553	1553	1553	1553	1553	1560	1560	1560	1560	1560	1553	1553	1553	1553	1546	1546	0	0	0	0	0	0	0	0	0	0	0	0	0	0	0	0	0	0	0	0	0	0	0	0	0	0	0	0	0	0	0	0	0	0	0	0	0	0	0	0	0
0	0	0	0	0	0	0	0	0	0	0	0	0	1657	1657	1665	1673	1673	1690	1698	1698	1706	1723	1732	1741	1750	1759	1759	1768	1786	1795	1795	1786	1795	1795	1804	1795	1804	1804	1804	1814	1833	1833	1843	1873	1873	1873	1873	1873	1873	1883	1883	2409	2426	2426	2426	2426	2426	2409	2409	2409	2409	2409	2409	2426	2426	2426	2426	2426	2426	2426	2426	2426	2426	2426	2426	2426	2426	2426	2426	2426	2426	2426	2443	2443	2426	2426	2426	2443	2426	2426	2426	2443	2443	2460	2443	2460	2460	2460	2460	2460	2460	2460	2478	2478	2478	2478	0	3475	3475	3475	3475	3475	3475	3475	3510	3510	3510	3510	3510	3510	3510	3510	3510	3510	3510	3475	3475	3475	3475	3475	3475	3475	3475	3475	3475	3475	3475	3475	3475	3475	3475	3475	3475	3475	3475	3475	3440	3440	3440	3475	3475	3475	3510	3510	3510	3510	3510	3546	3546	3546	3546	3546	3583	3583	3546	3546	3546	3510	3510	3510	3510	3546	3546	3510	3546	3546	3546	3546	3546	3546	3546	3546	3546	3546	3510	3546	3510	3546	3546	3546	3546	3546	3546	3546	3546	3546	3546	3546	3546	3546	3546	3546	3546	3546	3546	3546	3583	3546	3546	3546	3546	3546	3546	3546	3546	3546	3546	3546	3546	3546	3546	3510	3546	3546	3546	3546	3546	3546	3546	3546	3546	3546	3583	3583	3583	3583	3583	3583	3583	3583	3583	3583	3583	3583	3583	3583	3583	3583	3583	3621	3621	3583	3583	3546	3546	3546	2917	2893	2893	2893	2869	2869	2869	2869	2869	2869	2869	2869	2869	2869	2893	2893	2917	2917	2917	2942	2942	2917	2917	2917	2942	2917	2942	2917	2917	2917	2917	2942	2942	2942	2942	2942	2942	2942	2942	2917	2917	2917	2893	2893	2893	2893	2893	2893	2893	2893	2917	2917	2917	2917	2942	2942	2942	2967	2967	2967	2967	2967	2942	2942	2942	2917	2942	2942	2942	2942	2917	2942	2942	3659	3659	3621	3621	3621	3621	3621	3621	3621	3621	3621	3621	3621	3621	3621	3621	3621	3621	3621	3621	3621	3621	3621	3621	3621	3621	3621	3621	3621	3621	3621	3621	3621	3583	3583	3583	3621	3621	3621	3659	3659	3659	3659	3659	3621	3621	3621	3621	3659	3659	3621	3621	3621	3621	3621	3621	3621	3621	3621	3621	3621	3659	3621	3621	3621	3621	3621	3659	3659	3659	3659	3659	3659	3659	3659	3659	3659	3659	3659	3659	3659	3659	3659	3659	3659	3659	3659	3659	3659	3659	3659	3659	3659	3659	3659	3659	3659	3659	3659	3659	3659	3659	3659	3659	3659	3659	3659	3659	3659	3659	3698	3698	3698	3698	3698	3698	3659	3659	3621	3621	0	0	2281	2266	2252	2252	2237	2237	2237	2223	2208	2194	2194	2181	2181	2153	2140	2127	2114	2101	2088	2088	2076	2076	2051	2039	2027	2015	2027	2015	1992	1992	1980	1969	1958	1947	1936	1936	1925	1915	1904	1904	1883	1873	1863	1863	1853	1853	1843	1833	1824	1814	1814	1804	1795	1786	1777	1759	1759	1750	1741	1741	1732	1723	1715	1715	1706	1706	1698	1698	1681	1673	1665	1657	1649	1649	1641	1641	1634	1626	1611	1603	1603	1596	1589	1581	1574	1567	1560	1553	1553	1546	1539	1532	1532	1525	1519	1512	1506	1499	1499	1499	1499	1499	1499	1499	1499	1506	1512	1532	1553	1560	1560	1560	1560	1560	1560	1560	1560	1560	1560	1560	1560	1560	1560	1553	1560	1560	1560	1553	1553	1546	1546	1553	1553	1546	1553	1560	1560	1560	1560	1560	1560	1553	1553	1553	1553	1546	1546	0	0	0	0	0	0	0	0	0	0	0	0	0	0	0	0	0	0	0	0	0	0	0	0	0	0	0	0	0	0	0	0	0	0	0	0	0	0	0	0	0
0	0	0	0	0	0	0	0	0	0	0	0	0	1649	1657	1665	1665	1673	1690	1698	1698	1715	1723	1732	1741	1750	1759	1759	1768	1786	1786	1795	1795	1795	1795	1804	1804	1804	1804	1814	1814	1833	1843	1853	1873	1873	1873	1873	1873	1873	1883	1894	1894	2426	2426	2426	2426	2426	2409	2409	2392	2409	2409	2409	2409	2426	2426	2426	2426	2426	2426	2426	2426	2426	2426	2426	2426	2426	2426	2426	2426	2426	2426	2443	2426	2426	2426	2426	2443	2443	2443	2443	2443	2443	2460	2443	2443	2460	2460	2460	2478	2460	2460	2460	2460	2460	2460	0	3475	3475	3475	3475	3475	3475	3475	3510	3475	3510	3475	3510	3510	3475	3475	3510	3475	3475	3475	3475	3475	3475	3475	3475	3475	3475	3475	3475	3475	3475	3475	3475	3475	3475	3475	3475	3475	3475	3475	3440	3440	3440	3475	3475	3510	3510	3510	3546	3510	3546	3546	3546	3546	3546	3583	3583	3583	3583	3546	3546	3510	3510	3510	3510	3546	3546	3546	3546	3546	3546	3546	3546	3546	3546	3546	3546	3546	3546	3546	3546	3510	3510	3510	3546	3546	3546	3546	3546	3546	3546	3546	3546	3546	3546	3546	3546	3546	3546	3583	3583	3546	3546	3546	3546	3546	3546	3546	3546	3546	3546	3546	3546	3546	3546	3546	3546	3546	3546	3546	3546	3546	3546	3546	3546	3546	3546	3583	3583	3583	3583	3583	3583	3583	3583	3583	3583	3583	3583	3583	3583	3583	3583	3583	3583	3583	3583	3546	3546	3546	2917	2917	2917	2893	2893	2893	2869	2869	2869	2869	2869	2869	2869	2869	2869	2893	2893	2893	2917	2917	2917	2917	2917	2917	2917	2917	2942	2942	2942	2917	2942	2942	2942	2917	2917	2917	2942	2942	2942	2942	2942	2917	2917	2893	2893	2893	2893	2893	2893	2893	2917	2917	2917	2942	2942	2942	2942	2942	2942	2942	2967	2942	2942	2942	2917	2917	2917	2942	2917	2917	2917	2917	2917	3659	3659	3621	3621	3621	3621	3621	3621	3621	3621	3621	3621	3621	3621	3621	3621	3621	3621	3621	3621	3621	3621	3621	3621	3621	3621	3621	3621	3621	3621	3621	3621	3583	3583	3583	3621	3621	3621	3621	3621	3621	3621	3621	3621	3621	3621	3621	3621	3621	3621	3621	3621	3621	3621	3621	3621	3621	3621	3621	3621	3621	3621	3621	3621	3621	3621	3621	3621	3621	3659	3659	3659	3659	3659	3659	3659	3659	3659	3659	3659	3659	3659	3659	3659	3659	3659	3659	3659	3659	3659	3659	3659	3659	3659	3659	3659	3659	3659	3659	3659	3659	3659	3659	3659	3659	3659	3659	3659	3659	3659	3698	3698	3698	3698	3698	3698	3659	3659	3621	3621	0	0	0	2266	2252	2237	2237	2237	2237	2223	2208	2194	2194	2181	2181	2153	2140	2127	2114	2101	2088	2088	2076	2063	2051	2039	2027	2015	2027	2015	1992	1992	1980	1969	1958	1947	1947	1936	1925	1915	1904	1894	1883	1883	1873	1863	1853	1853	1843	1824	1824	1814	1804	1804	1795	1786	1777	1759	1759	1750	1741	1741	1732	1723	1723	1715	1706	1706	1698	1690	1673	1673	1665	1657	1649	1649	1641	1641	1641	1626	1611	1603	1603	1596	1589	1581	1574	1567	1560	1553	1553	1546	1539	1532	1532	1525	1519	1519	1512	1506	1499	1499	1499	1499	1499	1499	1506	1506	1512	1525	1553	1553	1553	1560	1560	1560	1560	1560	1560	1560	1560	1560	1560	1560	1560	1560	1560	1546	1546	1553	1546	1546	1546	1546	1546	1546	1553	1560	1560	1560	1560	1560	1560	1553	1546	1553	1546	1539	1539	1539	0	0	0	0	0	0	0	0	0	0	0	0	0	0	0	0	0	0	0	0	0	0	0	0	0	0	0	0	0	0	0	0	0	0	0	0	0	0	0	0
0	0	0	0	0	0	0	0	0	0	0	0	0	1649	1657	1665	1665	1673	1690	1698	1698	1706	1706	1715	1723	1723	1750	1759	1759	1786	1795	1795	1804	1804	1804	1804	1804	1804	1814	1814	1814	1843	1843	1853	1873	1873	1873	1873	1873	1873	1883	1894	1894	2426	2426	2426	2426	2426	2409	2409	2392	2409	2392	2392	2409	2426	2426	2426	2426	2426	2426	2443	2426	2426	2426	2426	2426	2426	2426	2426	2426	2426	2426	2443	2426	2426	2426	2426	2443	2443	2426	2426	2426	2443	2443	2443	2443	2443	2443	2443	2460	2460	2460	2460	2478	2460	2460	0	3475	3475	3475	3475	3475	3475	3510	3510	3510	3510	3475	3475	3510	3510	3475	3510	3475	3510	3510	3510	3510	3510	3475	3510	3475	3510	3475	3475	3475	3475	3475	3475	3475	3475	3475	3475	3475	3475	3475	3440	3440	3440	3510	3510	3510	3510	3546	3546	3546	3546	3546	3546	3546	3546	3583	3583	3583	3546	3546	3546	3546	3510	3510	3546	3546	3546	3546	3546	3546	3546	3546	3546	3546	3546	3546	3546	3546	3546	3546	3546	3510	3510	3510	3510	3546	3546	3546	3546	3546	3546	3546	3546	3546	3546	3546	3546	3546	3583	3546	3583	3546	3546	3546	3546	3546	3546	3546	3546	3546	3546	3546	3546	3546	3546	3546	3546	3546	3546	3546	3546	3546	3546	3546	3546	3546	3621	3583	3583	3621	3621	3621	3621	3621	3621	3583	3583	3583	3583	3583	3583	3583	3583	3583	3583	3583	3583	3583	3583	2893	2893	2893	2893	2893	2893	2893	2893	2869	2869	2869	2869	2845	2869	2869	2893	2893	2893	2893	2893	2893	2917	2917	2917	2917	2942	2942	2942	2942	2942	2942	2942	2942	2942	2942	2942	2942	2942	2942	2942	2942	2942	2917	2917	2917	2917	2917	2917	2893	2893	2942	2942	2942	2917	2942	2917	2942	2917	2942	2942	2942	2917	2917	2917	2917	2917	2893	2893	2893	2893	2893	2893	2893	2893	3659	3659	3621	3621	3621	3621	3621	3621	3621	3621	3621	3621	3621	3621	3621	3621	3621	3621	3621	3621	3621	3621	3621	3621	3621	3621	3621	3621	3621	3621	3621	3621	3583	3583	3583	3621	3621	3621	3621	3621	3621	3621	3621	3621	3621	3621	3621	3621	3621	3621	3621	3621	3621	3621	3621	3621	3621	3621	3621	3621	3621	3621	3621	3621	3621	3621	3621	3621	3659	3659	3659	3659	3659	3659	3659	3659	3659	3659	3659	3659	3659	3659	3659	3659	3659	3659	3659	3659	3659	3659	3659	3659	3659	3659	3659	3659	3659	3659	3659	3659	3659	3659	3659	3659	3659	3659	3659	3659	3659	3659	3659	3698	3698	3738	3698	3659	3659	3659	3659	0	0	0	2252	2252	2252	2252	2237	2237	2237	2223	2208	2208	2194	2181	2181	2153	2127	2114	2114	2101	2088	2088	2076	2063	2051	2039	2027	2027	2027	2015	2003	1992	1980	1969	1969	1947	1947	1936	1925	1915	1904	1904	1883	1873	1873	1863	1853	1853	1843	1833	1824	1814	1804	1804	1795	1786	1777	1768	1759	1759	1750	1741	1732	1723	1723	1715	1706	1706	1698	1690	1673	1665	1665	1657	1649	1641	1641	1634	1626	1618	1611	1603	1596	1596	1589	1574	1574	1567	1560	1553	1546	1546	1539	1532	1532	1525	1519	1512	1512	1506	1499	1499	1499	1499	1499	1499	1506	1506	1512	1525	1539	1553	1553	1553	1553	1560	1560	1560	1553	1553	1560	1560	1560	1560	1553	1546	1546	1539	1546	1546	1539	1539	1539	1539	1539	1539	1546	1546	1546	1546	1553	1553	1553	1546	1546	1546	1546	1539	1539	1539	0	0	0	0	0	0	0	0	0	0	0	0	0	0	0	0	0	0	0	0	0	0	0	0	0	0	0	0	0	0	0	0	0	0	0	0	0	0	0	0
0	0	0	0	0	0	0	0	0	0	0	0	0	1649	1657	1657	1665	1673	1673	1690	1698	1698	1706	1715	1715	1723	1741	1759	1759	1777	1786	1795	1795	1795	1795	1804	1795	1804	1804	1814	1824	1853	1863	1863	1883	1883	1873	1873	1883	1883	1883	1904	1915	1915	1947	1947	2426	2426	2409	2392	2392	2392	2392	2392	2409	2426	2426	2426	2426	2426	2426	2443	2426	2443	2443	2426	2426	2426	2426	2426	2426	2426	2426	2443	2426	2426	2426	2426	2443	2443	2426	2426	2426	2426	2443	2426	2426	2426	2443	2443	2460	2460	2460	2460	2460	2460	2460	0	3475	3510	3475	3510	3475	3475	3510	3510	3510	3510	3475	3510	3510	3510	3510	3510	3510	3510	3510	3510	3510	3510	3475	3510	3475	3510	3475	3475	3475	3475	3475	3475	3475	3475	3440	3475	3475	3475	3475	3440	3440	3475	3510	3510	3510	3546	3546	3546	3546	3546	3546	3546	3546	3546	3546	3546	3546	3546	3546	3546	3546	3546	3510	3546	3546	3546	3546	3546	3546	3546	3546	3546	3546	3546	3546	3546	3546	3546	3546	3546	3546	3510	3510	3510	3510	3546	3510	3546	3546	3546	3546	3546	3546	3546	3546	3546	3546	3546	3546	3546	3546	3583	3546	3546	3546	3546	3546	3546	3546	3546	3546	3546	3546	3546	3510	3510	3546	3546	3546	3546	3546	3546	3546	3546	3546	3583	3583	3583	3621	3583	3621	3583	3621	3583	3583	3583	3621	3621	3621	3583	3583	3583	3583	3583	3583	3583	3583	3583	2893	2893	2893	2893	2893	2893	2893	2869	2869	2869	2869	2869	2845	2869	2845	2869	2869	2869	2869	2893	2893	2893	2917	2917	2917	2942	2942	2942	2942	2942	2942	2942	2942	2942	2942	2942	2942	2942	2942	2942	2942	2942	2942	2917	2917	2917	2917	2917	2917	2942	2942	2942	2942	2942	2917	2917	2917	2917	2942	2942	2942	2942	2942	2942	2917	2917	2893	2893	2893	2893	2893	2893	2893	2893	3659	3659	3621	3621	3621	3621	3621	3621	3621	3621	3621	3621	3621	3621	3621	3621	3621	3621	3583	3621	3621	3621	3621	3583	3583	3621	3621	3621	3621	3621	3621	3621	3583	3621	3621	3621	3621	3621	3621	3621	3621	3621	3621	3621	3621	3621	3621	3621	3621	3621	3621	3621	3621	3621	3621	3621	3621	3621	3621	3621	3621	3621	3621	3621	3621	3621	3621	3621	3659	3659	3659	3659	3659	3659	3659	3659	3659	3659	3659	3659	3659	3621	3659	3659	3659	3659	3659	3659	3659	3659	3659	3659	3659	3659	3659	3659	3659	3659	3659	3659	3659	3659	3659	3659	3659	3659	3659	3659	3659	3659	3659	3698	3698	3738	3698	3659	3659	3659	0	0	0	0	2252	2252	2252	2237	2237	2237	2223	2223	2208	2194	2194	2181	2167	2140	2127	2114	2114	2101	2088	2088	2076	2063	2051	2039	2027	2027	2027	2027	2015	1992	1980	1969	1958	1947	1947	1936	1925	1915	1915	1904	1883	1883	1873	1863	1853	1853	1843	1833	1824	1814	1804	1804	1795	1786	1777	1759	1759	1759	1750	1741	1732	1732	1723	1715	1706	1706	1698	1690	1673	1665	1665	1657	1649	1649	1641	1634	1626	1618	1603	1603	1596	1589	1589	1581	1574	1567	1560	1560	1553	1546	1539	1532	1532	1525	1525	1519	1512	1506	1499	1499	1499	1499	1499	1499	1506	1506	1512	1519	1532	1546	1546	1553	1553	1553	1553	1553	1553	1553	1546	1546	1546	1553	1546	1539	1539	1539	1539	1539	1539	1539	1539	1539	1539	1539	1539	1546	1546	1546	1546	1553	1553	1546	1546	1546	1546	1539	1532	1532	1532	0	0	0	0	0	0	0	0	0	0	0	0	0	0	0	0	0	0	0	0	0	0	0	0	0	0	0	0	0	0	0	0	0	0	0	0	0	0	0
0	0	0	0	0	0	0	0	0	0	0	0	0	1641	1649	1649	1665	1673	1690	1690	1698	1698	1706	1706	1715	1723	1741	1750	1759	1777	1786	1786	1786	1786	1795	1795	1795	1804	1804	1814	1824	1863	1873	1873	1873	1883	1883	1873	1883	1883	1894	1904	1915	1925	1936	1936	1947	1947	2392	2392	2392	2392	2392	2392	2409	2426	2426	2426	2426	2426	2426	2443	2426	2443	2443	2426	2426	2426	2426	2426	2426	2426	2426	2443	2426	2426	2426	2426	2443	2443	2426	2426	2426	2426	2426	2426	2426	2426	2426	2443	2460	2443	2460	2460	2460	2460	2460	3510	3475	3475	3475	3510	3510	3510	3510	3510	3510	3510	3475	3510	3510	3510	3510	3510	3510	3510	3510	3475	3475	3510	3475	3510	3475	3510	3475	3475	3475	3475	3475	3475	3475	3440	3475	3475	3440	3475	3475	3440	3475	3475	3510	3510	3546	3546	3546	3546	3546	3546	3546	3546	3546	3546	3546	3546	3546	3546	3546	3546	3546	3546	3546	3546	3546	3546	3546	3546	3546	3546	3583	3546	3546	3546	3546	3546	3546	3546	3546	3546	3546	3546	3510	3546	3546	3546	3546	3546	3546	3546	3546	3546	3546	3546	3546	3546	3546	3546	3546	3546	3546	3583	3583	3546	3546	3546	3546	3583	3546	3546	3546	3546	3546	3546	3546	3546	3546	3546	3546	3546	3546	3546	3546	3546	3546	3583	3583	3583	3621	3583	3621	3583	3621	3583	3583	3621	3621	3621	3583	3583	3583	3583	3583	3583	3583	3583	3583	3583	3583	3583	2893	2917	2917	2893	2893	2869	2869	2869	2869	2869	2845	2869	2845	2869	2869	2869	2869	2869	2869	2869	2917	2917	2942	2942	2942	2942	2942	2942	2942	2942	2942	2942	2942	2942	2942	2942	2942	2942	2942	2942	2942	2942	2917	2917	2917	2917	2917	2917	2942	2942	2942	2942	2917	2917	2917	2917	2942	2942	2917	2917	2917	2917	2917	2917	2893	2917	2893	2893	2893	2893	2893	3621	3621	3621	3621	3621	3621	3621	3621	3621	3621	3621	3621	3621	3621	3621	3621	3621	3621	3621	3621	3621	3621	3621	3583	3583	3583	3583	3621	3621	3621	3621	3621	3621	3621	3621	3621	3621	3621	3621	3621	3621	3621	3621	3621	3621	3621	3621	3621	3621	3621	3621	3621	3621	3621	3621	3621	3621	3621	3621	3621	3621	3621	3621	3621	3621	3621	3621	3621	3621	3659	3659	3659	3659	3659	3659	3659	3659	3659	3659	3659	3659	3659	3659	3659	3659	3659	3659	3659	3659	3659	3659	3659	3659	3659	3659	3659	3659	3659	3659	3659	3659	3659	3659	3659	3659	3659	3621	3621	3659	3659	3659	0	0	0	0	0	0	0	0	0	0	0	2237	2252	2237	2252	2252	2237	2237	2237	2223	2208	2208	2194	2194	2181	2153	2127	2114	2114	2101	2088	2088	2076	2076	2051	2039	2027	2027	2027	2027	2015	2003	1980	1969	1958	1947	1947	1936	1925	1915	1904	1904	1883	1883	1873	1863	1853	1853	1843	1824	1824	1814	1804	1804	1795	1786	1777	1768	1759	1759	1750	1741	1732	1732	1723	1715	1706	1706	1698	1690	1673	1665	1665	1657	1649	1649	1641	1634	1626	1611	1603	1596	1596	1589	1581	1581	1574	1567	1560	1560	1553	1546	1539	1532	1532	1525	1525	1519	1512	1506	1499	1499	1499	1499	1499	1506	1506	1512	1512	1519	1539	1539	1539	1546	1546	1546	1539	1546	1546	1546	1546	1546	1546	1553	1546	1539	1539	1539	1539	1539	1539	1532	1539	1539	1539	1539	1539	1539	1539	1539	1546	1546	1546	1546	1546	1539	1546	1532	1532	1532	1532	0	0	0	0	0	0	0	0	0	0	0	0	0	0	0	0	0	0	0	0	0	0	0	0	0	0	0	0	0	0	0	0	0	0	0	0	0	0	0
0	0	0	0	0	0	0	0	0	0	0	0	0	1649	1657	1657	1665	1673	1690	1690	1698	1698	1698	1706	1706	1715	1732	1741	1750	1759	1777	1777	1777	1786	1795	1795	1795	1804	1804	1814	1814	1814	1894	1883	1894	1894	1883	1883	1883	1883	1894	1915	1925	1925	1925	1936	1936	1958	1958	2376	2376	2392	2392	2392	2409	2409	2426	2426	2426	2426	2426	2426	2426	2426	2426	2426	2426	2426	2443	2443	2426	2426	2426	2443	2443	2443	2443	2443	2443	2443	2426	2426	2426	2426	2426	2426	2426	2426	2426	2443	2460	2443	2460	2460	2460	2460	2460	3510	3510	3510	3475	3510	3510	3510	3510	3510	3510	3510	3510	3510	3510	3510	3510	3510	3510	3510	3510	3475	3475	3475	3475	3510	3475	3510	3475	3475	3475	3475	3475	3440	3475	3475	3475	3475	3440	3475	3475	3440	3475	3475	3475	3510	3510	3546	3546	3546	3546	3546	3546	3546	3546	3546	3546	3546	3546	3546	3546	3546	3546	3546	3546	3546	3546	3546	3546	3546	3546	3546	3546	3546	3546	3546	3546	3546	3546	3546	3546	3546	3546	3546	3546	3510	3510	3510	3546	3546	3546	3546	3546	3546	3546	3546	3546	3546	3546	3546	3546	3546	3546	3583	3583	3546	3546	3546	3546	3546	3546	3546	3546	3546	3546	3546	3546	3546	3546	3546	3546	3546	3546	3546	3546	3546	3546	3583	3583	3583	3583	3621	3621	3621	3621	3583	3583	3621	3621	3621	3621	3583	3583	3583	3583	3583	3583	3583	3583	3583	3583	3621	2869	2893	2893	2893	2893	2869	2869	2869	2869	2869	2845	2845	2845	2845	2845	2845	2845	2869	2869	2893	2917	2917	2942	2942	2942	2942	2942	2942	2942	2942	2942	2917	2942	2942	2942	2942	2942	2942	2942	2942	2942	2942	2942	2917	2942	2942	2942	2917	2942	2942	2942	2942	2942	2917	2917	2917	2942	2917	2917	2917	2917	2917	2917	2917	2893	2893	2893	2893	2893	2893	3659	3621	3621	3621	3621	3621	3621	3621	3621	3621	3621	3621	3621	3621	3621	3621	3621	3621	3621	3621	3583	3621	3621	3621	3583	3583	3583	3583	3621	3621	3621	3621	3621	3621	3621	3621	3621	3621	3621	3621	3621	3621	3621	3621	3621	3621	3621	3621	3621	3621	3621	3621	3621	3621	3621	3621	3621	3621	3621	3621	3621	3621	3621	3621	3621	3621	3621	3621	3621	3621	3659	3659	3659	3659	3659	3659	3659	3659	3659	3659	3659	3659	3659	3659	3659	3659	3659	3659	3659	3659	3659	3659	3659	3659	3659	3659	3659	3659	3659	3659	3659	3659	3659	3659	3659	3659	3659	3621	3659	3659	3659	0	0	0	0	0	0	0	0	0	0	0	0	2237	2237	2237	2237	2237	2237	2237	2237	2223	2223	2208	2194	2181	2167	2153	2127	2114	2114	2114	2101	2088	2076	2076	2051	2039	2027	2015	2027	2015	2003	1992	1992	1958	1958	1947	1936	1936	1915	1915	1904	1904	1894	1883	1873	1863	1853	1843	1843	1824	1814	1814	1804	1795	1786	1786	1777	1768	1759	1759	1750	1741	1732	1732	1723	1715	1706	1706	1698	1690	1681	1665	1657	1657	1649	1649	1641	1634	1626	1618	1603	1596	1596	1589	1589	1581	1574	1567	1560	1560	1553	1546	1539	1532	1532	1525	1525	1519	1512	1506	1499	1499	1499	1499	1499	1506	1506	1512	1519	1525	1539	1539	1539	1539	1539	1539	1539	1539	1539	1539	1539	1539	1539	1546	1546	1539	1539	1539	1539	1539	1532	1532	1539	1539	1539	1539	1539	1539	1539	1539	1539	1546	1546	1539	1539	1539	1539	1532	1532	1532	1532	0	0	0	0	0	0	0	0	0	0	0	0	0	0	0	0	0	0	0	0	0	0	0	0	0	0	0	0	0	0	0	0	0	0	0	0	0	0	0
