0	0	0	0	0	0	0	0	0	0	1385	1385	1390	1402	1413	1413	1443	1443	1449	1449	1449	1455	1455	1467	1467	1473	1480	1486	1492	1499	1499	1506	1506	1506	1506	1506	1506	1506	1512	1512	1512	1519	1519	1519	1525	1532	1539	1539	1546	1539	1546	1546	0	2039	2039	2076	2076	2076	2076	2076	2076	2076	2063	2076	2076	2063	2063	2063	2051	2051	2063	2063	2063	2063	2088	2114	2101	2101	0	0	0	0	0	0	0	0	0	0	0	0	0	0	0	0	0	0	0	0	0	0	0	0	0	0	0	0	2027	2027	2027	2039	2051	2063	2051	2063	2076	2076	2088	2088	2101	2101	2101	2114	2114	2114	2114	0	0	0	7608	7608	7779	7608	7608	7608	7608	7608	7608	7608	7608	7608	7608	7779	7779	7779	7779	7779	7959	7959	8146	8146	7959	7959	7779	7779	7779	7779	7779	8343	8343	8343	8343	8343	8550	8550	8767	8767	8767	8995	8995	8995	8995	8995	8995	8767	8767	8550	8550	8343	8343	8343	8343	8550	8550	8550	8550	8767	8550	8767	8767	8995	8767	8767	8767	8767	8767	8767	8550	8550	8767	8767	8767	8767	8995	8767	8767	8767	8767	8767	8767	8767	8767	8550	8550	8550	8550	8550	8767	8767	8550	8767	8550	8550	8550	8550	8550	8550	8550	8550	8550	8343	8343	8343	8343	8343	8343	8343	8550	8550	8550	8550	8550	8550	8550	8550	8550	8550	8550	8550	8550	8550	8550	8550	8550	8550	8550	8550	8550	8550	0	0	0	3440	3440	3440	3440	3440	3440	3440	3475	3475	3475	3475	3440	3440	3406	3406	3373	3373	3373	3341	3341	3341	3341	3341	3309	3341	3309	3309	3309	3309	3309	3309	3309	3309	3309	3309	3309	3309	3309	3309	3309	3341	3309	3309	3309	3309	3309	3309	3309	3309	3309	3309	3309	3309	3373	3373	3373	3406	3406	3406	3440	3440	3406	3440	3475	3440	3440	3440	3475	3440	3440	3440	3440	3440	3440	3440	3475	3475	3475	3510	8995	8995	8995	8995	8995	8995	8995	8995	8995	8995	8995	8995	8767	8995	8995	8995	8995	8995	8995	8767	8995	8767	8767	8767	8767	8767	8995	8995	8995	8995	8995	8995	9235	9235	8995	8995	8995	8995	8995	8995	8995	8995	8995	8767	8767	8995	8767	8995	8995	8995	8995	8995	8767	8767	8767	8767	8767	8767	8767	8995	8995	8995	8767	8767	8767	8767	8550	8767	8767	8767	8767	8767	8767	8767	8767	8767	8767	8767	8767	8767	8767	8767	8767	8767	8550	8550	8767	8767	8767	8767	8767	8767	8767	8767	8767	8767	8767	8767	8767	8767	8767	8767	8767	8767	8767	8767	8767	8767	8767	8767	8767	8767	8550	8550	8550	8550	8550	8550	8767	8767	8767	8767	8767	8767	8767	8550	8550	8550	8550	8550	8550	8550	8550	8550	8767	8767	8767	8767	8767	8767	8767	8767	8767	8550	8550	8550	8767	8767	8767	8767	8550	8550	8550	8550	8550	8550	8550	8550	8550	8550	8550	8767	8767	8767	8767	8767	8767	8767	8767	8550	8550	8550	8550	0	0	0	0	0	2993	2967	2967	2967	2942	2917	2917	2917	2893	2869	2845	2845	2845	2845	2845	2822	2822	2799	2777	2777	2754	2754	2733	2711	2690	2649	2649	2649	2629	2629	2629	2609	2609	2589	2589	2589	2589	2570	2570	2570	2570	2570	2570	2551	2551	2551	2551	2551	2551	2551	2532	2532	2551	2496	2496	2496	2478	2478	2478	2460	2460	0	1698	1698	1698	1698	1698	1698	1698	1698	1690	1690	1690	1690	1673	1673	1673	1673	1673	1673	1673	1681	1681	0	0	0	0	0	0	0	0	0	0	0	0	0	0	0	0	0	0	0	0	0	0	0	0	0	0	0	0	0	0	0	0	0	0	0	0	0	0	0
0	0	0	0	0	0	0	0	0	0	1385	1385	1390	1402	1407	1407	1413	1431	1443	1437	1443	1449	1449	1455	1467	1473	1480	1492	1492	1499	1499	1506	1506	1506	1506	1506	1512	1512	1519	1519	1519	1519	1519	1519	1525	1532	1532	1539	1539	1539	1539	1546	0	2076	2063	2076	2076	2088	2088	2088	2088	2088	2088	2088	2088	2076	2076	2076	2063	2076	2076	2076	2101	2114	2114	2114	2114	2114	2114	2114	0	0	0	0	0	0	0	0	0	0	0	0	0	0	0	0	0	0	0	0	0	0	0	0	0	0	0	0	2027	2039	2051	2076	2063	2076	2076	2088	2088	2101	2101	2114	2114	2127	2114	2127	2140	2181	2181	2181	2194	2208	2208	2208	7608	7608	7608	7608	7608	7608	7608	7608	7608	7608	7608	7608	7779	7779	7779	7959	7959	7959	7959	7959	7779	7779	7779	7779	8146	8146	8146	8343	8343	8343	8550	8767	8767	8995	8995	8995	8995	8995	8995	8995	8995	8767	8767	8550	8550	8343	8343	8343	8343	8550	8343	8550	8550	8550	8550	8767	8767	8995	8767	8767	8550	8550	8767	8767	8550	8550	8550	8767	8767	8767	8767	8767	8767	8767	8767	8767	8767	8767	8767	8550	8550	8550	8550	8767	8767	8767	8550	8767	8550	8550	8550	8550	8550	8550	8550	8550	8550	8550	8343	8343	8343	8550	8550	8550	8550	8550	8550	8550	8550	8550	8550	8550	8550	8550	8550	8550	8550	8550	8550	8550	8550	8550	8550	8550	8550	8550	0	0	0	3440	3440	3440	3440	3440	3440	3440	3475	3475	3475	3440	3440	3440	3406	3373	3373	3373	3373	3373	3406	3373	3373	3373	3373	3341	3309	3309	3309	3309	3309	3309	3309	3309	3309	3309	3309	3341	3341	3341	3341	3341	3309	3309	3309	3309	3309	3309	3309	3309	3309	3309	3309	3309	3373	3373	3373	3406	3406	3406	3406	3406	3406	3406	3475	3440	3440	3440	3475	3440	3440	3440	3440	3406	3440	3440	3440	3440	3440	0	8995	9235	8995	8995	9235	8995	8995	8995	8995	8995	8995	8995	8767	8767	8995	8995	8995	8995	8995	8995	8995	8767	8767	8767	8767	8767	8767	8767	8995	8995	8995	8995	9235	9235	9235	8995	8995	8995	8995	8995	8995	8995	8995	8767	8995	8995	8995	8767	8767	8767	8767	8995	8767	8767	8767	8767	8995	8995	8995	8767	8995	8767	8767	8767	8767	8767	8767	8767	8767	8767	8767	8767	8767	8767	8767	8767	8767	8767	8767	8767	8767	8767	8767	8767	8767	8767	8767	8767	8767	8767	8767	8767	8767	8767	8767	8767	8767	8767	8767	8767	8767	8767	8767	8767	8767	8767	8767	8767	8767	8767	8767	8550	8550	8550	8550	8550	8550	8550	8550	8767	8767	8767	8767	8767	8767	8550	8550	8550	8550	8550	8550	8550	8550	8550	8767	8767	8767	8767	8767	8550	8767	8550	8550	8550	8550	8550	8767	8767	8767	8767	8767	8550	8550	8550	8550	8550	8550	8550	8550	8550	8550	8767	8767	8767	8767	8767	8550	8767	8767	8550	8550	8550	8550	0	0	0	0	0	2967	2967	2967	2967	2942	2942	2917	2893	2893	2869	2845	2845	2845	2845	2822	2822	2799	2799	2777	2754	2754	2733	2733	2711	2690	2649	2629	2649	2629	2629	2629	2609	2609	2589	2589	2570	2570	2570	2570	2570	2570	2551	2551	2551	2570	2551	2551	2551	2551	2551	2532	2532	2532	2496	2496	2496	2496	2496	2478	2478	2478	0	0	1698	1698	1698	1698	1698	1698	1698	1698	1698	1698	1690	1681	1681	1681	1681	1681	1681	1673	1681	1681	0	0	0	0	0	0	0	0	0	0	0	0	0	0	0	0	0	0	0	0	0	0	0	0	0	0	0	0	0	0	0	0	0	0	0	0	0	0	0
0	0	0	0	0	0	0	0	0	0	1385	1390	1396	1402	1407	1407	1413	1419	1431	1431	1431	1437	1437	1437	1467	1473	1480	1492	1492	1499	1499	1499	1506	1506	1512	1512	1519	1519	1519	1519	1525	1525	1525	1525	1532	1532	1532	1539	1532	1532	1532	0	0	2076	2076	2076	2088	2088	2101	2088	2088	2088	2101	2088	2101	2101	2114	2127	2114	2127	2114	2127	2114	2114	2127	2127	2114	2114	2127	2114	2114	0	0	0	0	0	0	0	0	0	0	0	0	0	0	0	0	0	0	0	0	0	0	0	0	0	0	0	0	0	0	2076	2076	2088	2088	2101	2101	2101	2114	2127	2127	2140	2127	2140	2153	2181	2181	2194	2194	2208	2208	2208	0	0	0	7608	7779	7779	7779	7608	7608	7608	7608	7608	7608	7779	7779	7779	7779	7779	7779	7779	7779	7779	7779	8146	8146	8343	8343	8343	8343	8550	8550	8550	8767	8995	8995	8995	8995	8995	8995	8995	8995	8767	8767	8995	8550	8550	8343	8343	8550	8550	8550	8550	8550	8550	8550	8550	8550	8767	8767	8767	8550	8550	8767	8767	8550	8550	8550	8767	8767	8767	8767	8767	8767	8767	8767	8767	8767	8767	8767	8550	8550	8550	8550	8767	8767	8767	8550	8767	8550	8550	8550	8550	8550	8550	8550	8550	8550	8550	8343	8343	8550	8550	8550	8550	8550	8550	8550	8550	8343	8343	8550	8550	8550	8550	8550	8767	8550	8550	8550	8550	8550	8550	8550	8550	8550	8550	0	0	0	3440	3440	3440	3440	3440	3440	3440	3440	3440	3475	3440	3440	3440	3406	3373	3373	3373	3373	3373	3373	3373	3341	3373	3341	3309	3309	3309	3309	3309	3309	3309	3309	3309	3309	3309	3309	3309	3341	3341	3341	3341	3309	3309	3309	3309	3309	3309	3309	3341	3341	3341	3309	3309	3341	3373	3373	3406	3406	3406	3440	3440	3440	3440	3440	3440	3440	3440	3440	3440	3440	3440	3440	3406	3406	3440	3440	3440	3440	0	8995	9235	8995	8995	9235	8995	8995	8995	8995	8995	8767	8995	8767	8767	8995	8995	8995	8995	8995	8995	8995	8995	8995	8767	8995	8995	8767	8995	8995	8995	8995	8995	9235	9235	8995	8995	8995	8995	8995	8995	8995	8995	8995	8995	8995	8995	8767	8767	8767	8767	8995	8995	8767	8767	8767	8767	8767	8995	8767	8767	8767	8767	8767	8767	8767	8767	8767	8767	8767	8767	8767	8767	8767	8767	8767	8767	8767	8767	8767	8767	8767	8767	8767	8767	8767	8550	8767	8767	8767	8767	8767	8767	8767	8767	8767	8767	8767	8767	8767	8767	8767	8767	8767	8767	8767	8767	8767	8767	8767	8767	8767	8550	8550	8550	8550	8343	8550	8550	8550	8767	8767	8767	8767	8767	8767	8550	8550	8550	8550	8550	8550	8550	8550	8550	8767	8767	8767	8767	8550	8550	8767	8550	8550	8550	8550	8550	8767	8767	8767	8767	8767	8550	8550	8550	8550	8550	8550	8550	8550	8550	8550	8767	8767	8767	8767	8767	8767	8767	8767	8767	8767	8550	8550	0	0	0	0	3019	3019	2993	2993	2967	2967	2942	2917	2917	2893	2893	2869	2869	2845	2845	2822	2822	2777	2777	2754	2754	2754	2733	2733	2711	2690	2649	2629	2629	2629	2629	2629	2609	2609	2589	2589	2589	2570	2570	2570	2570	2570	2551	2551	2551	2551	2551	2551	2551	2551	2532	2532	2532	2514	2496	2496	2496	2496	2478	2478	2478	2478	0	0	1698	1690	1698	1698	1698	1698	1698	1698	1698	1698	1690	1690	1690	1681	1681	1681	1681	1681	1681	1681	0	0	0	0	0	0	0	0	0	0	0	0	0	0	0	0	0	0	0	0	0	0	0	0	0	0	0	0	0	0	0	0	0	0	0	0	0	0	0
0	0	0	0	0	0	0	0	0	0	1379	1379	1385	1402	1407	1407	1413	1419	1425	1425	1431	1431	1437	1437	1449	1455	1473	1473	1455	1499	1499	1499	1506	1512	1512	1512	1519	1519	1519	1525	1525	1525	1532	1525	1532	1532	1532	1532	1532	1532	1525	1512	1512	1512	2076	2088	2088	2101	2114	2114	2114	2114	2127	2127	2127	2127	2127	2140	2140	2127	2127	2127	2127	2127	2127	2127	2127	2127	2127	2114	2127	2127	0	0	0	0	0	0	0	0	0	0	0	0	0	0	0	0	0	0	0	0	0	0	0	0	0	0	0	0	0	0	2076	2088	2101	2114	2114	2127	2127	2127	2140	2153	2153	2153	2167	2181	2181	2194	2194	2208	2208	2237	2252	2252	0	0	7779	7779	7779	7608	7608	7608	7608	7608	7608	7608	7608	7608	7779	7779	7779	7779	7608	7608	7608	8343	8343	8343	8343	8343	8343	8343	8343	8550	0	8995	8995	8995	8995	8995	8995	8995	8995	8767	8767	8995	8550	8550	8550	8550	8550	8550	8550	8550	8550	8550	8343	8550	8550	8767	8767	8767	8550	8550	8767	8767	8550	8550	8550	8767	8767	8767	8767	8767	8767	8767	8767	8767	8767	8550	8767	8550	8550	8550	8550	8550	8550	8550	8550	8550	8550	8550	8550	8550	8550	8550	8767	8550	8550	8550	8550	8550	8550	8550	8550	8343	8550	8550	8343	8550	8550	8550	8550	8550	8550	8550	8550	8550	8550	8550	8550	8550	8550	8550	8550	8550	8550	0	0	0	0	3440	3440	3440	3406	3440	3440	3440	3440	3440	3440	3440	3440	3440	3406	3373	3373	3373	3373	3373	3373	3341	3341	3341	3341	3341	3309	3309	3309	3309	3309	3309	3309	3309	3309	3309	3309	3309	3341	3341	3341	3341	3309	3309	3309	3309	3309	3309	3309	3341	3341	3341	3309	3309	3341	3373	3373	3406	3406	3406	3440	3440	3440	3406	3440	3440	3440	3440	3440	3440	3440	3440	3440	3440	3440	3475	3440	3440	3440	0	8995	8995	8995	8995	8995	8995	8995	8995	8995	8995	8995	8767	8767	8767	8995	8995	8995	9235	8995	8995	8995	8995	8995	8767	8995	8767	8767	8767	8767	8995	8995	8995	9235	9235	9235	8995	8995	9235	8995	8995	8995	8995	8995	8767	8767	8767	8767	8767	8767	8767	8767	8767	8767	8767	8767	8767	8767	8767	8767	8767	8767	8767	8767	8767	8767	8767	8767	8767	8767	8767	8767	8767	8767	8767	8767	8767	8767	8767	8767	8767	8767	8767	8767	8767	8767	8550	8767	8767	8767	8550	8550	8550	8767	8767	8767	8767	8767	8767	8767	8767	8767	8767	8767	8767	8767	8767	8767	8767	8767	8767	8550	8550	8550	8550	8550	8343	8550	8550	8550	8767	8767	8767	8767	8767	8767	8550	8550	8550	8550	8550	8550	8550	8550	8550	8767	8767	8767	8767	8767	8767	8767	8550	8550	8550	8550	8550	8767	8767	8767	8767	8550	8550	8550	8550	8550	8550	8550	8550	8550	8550	8550	8767	8767	8767	8767	8767	8767	8767	8767	8767	8767	8767	8767	0	0	0	0	3019	3019	2993	2993	2993	2967	2942	2917	2917	2893	2893	2869	2845	2869	2845	2845	2822	2799	2777	2754	2754	2733	2733	2733	2711	2711	2669	2649	2629	2629	2629	2629	2629	2609	2609	2589	2589	2570	2570	2570	2570	2570	2551	2551	2551	2551	2551	2551	2551	2551	2532	2514	2532	2514	2496	2496	2478	2478	2478	2443	2426	2426	0	0	0	1690	1698	1698	1698	1698	1698	1698	1698	1698	1698	1690	1698	1681	1681	1681	1681	1673	1681	1681	0	0	0	0	0	0	0	0	0	0	0	0	0	0	0	0	0	0	0	0	0	0	0	0	0	0	0	0	0	0	0	0	0	0	0	0	0	0	0
0	0	0	0	0	0	0	0	0	0	1385	1379	1396	1402	1407	1407	1413	1413	1419	1425	1425	1431	1437	1437	1443	1449	1449	1455	1455	1449	1449	1499	1499	1506	1506	1512	1519	1519	1525	1525	1532	1532	1532	1532	1532	1532	1532	1532	1539	1539	1532	1532	1532	1512	2076	2101	2101	2114	2127	2127	2127	2127	2127	2127	2140	2140	2140	2140	2140	2140	2140	2140	2140	2140	2140	2140	2140	2140	2127	2127	2140	2167	2167	0	0	0	0	0	0	0	0	0	0	0	0	0	0	0	0	0	0	0	0	0	0	0	0	0	0	0	0	0	0	0	2127	2127	2127	2127	2140	2140	2153	2167	2167	2167	2181	2181	2181	2208	2208	2208	2223	2237	2237	2237	0	0	0	0	0	7608	7608	7608	7608	7608	7608	7608	7608	7779	7779	7779	7779	7959	7959	7779	7779	8343	8343	8343	8343	8343	8343	8343	8343	0	0	0	0	0	0	8995	9235	8995	8995	8995	8995	8995	8550	8550	8550	8550	8550	8550	8550	8550	8550	8550	8767	8767	8767	8767	8767	8767	8550	8550	8550	8550	8550	8550	8550	8767	8767	8767	8767	8767	8767	8767	8767	8767	8767	8550	8550	8550	8550	8550	8550	8550	8550	8767	8550	8550	8550	8550	8550	8550	8550	8550	8767	8767	8550	8550	8550	8550	8550	8550	8550	8550	8550	8550	8550	8550	8343	8550	8550	8550	8550	8550	8550	8550	8550	8550	8550	8550	8550	8550	8550	8550	0	0	0	0	0	3440	3440	3440	3440	3440	3440	3440	3440	3440	3440	3440	3440	3406	3406	3373	3373	3373	3373	3373	3373	3373	3341	3373	3373	3341	3309	3309	3309	3309	3309	3309	3309	3309	3309	3309	3341	3309	3341	3341	3341	3341	3309	3309	3309	3309	3309	3309	3341	3341	3309	3309	3309	3309	3341	3341	3373	3406	3406	3406	3440	3440	3440	3406	3440	3440	3440	3440	3440	3440	3440	3475	3440	3440	3440	3440	3440	3440	0	0	9235	8995	9235	8995	9235	8995	8995	8995	9235	8995	8995	8995	8995	8995	9235	9235	9235	8995	8995	8995	8995	8995	8995	8995	8767	8767	8767	8767	8767	8767	8995	8995	9235	9235	9235	8995	8995	9235	8995	8995	8995	8995	8995	8995	8767	8995	8995	8767	8767	8767	8767	8995	8767	8767	8767	8767	8767	8767	8767	8767	8767	8767	8767	8767	8767	8767	8767	8767	8767	8767	8767	8767	8767	8767	8767	8767	8767	8767	8767	8767	8767	8767	8767	8767	8550	8550	8767	8767	8767	8550	8550	8767	8550	8767	8767	8767	8767	8767	8767	8767	8767	8550	8550	8767	8550	8767	8767	8767	8550	8550	8550	8550	8550	8550	8550	8550	8550	8550	8550	8767	8767	8767	8767	8550	8550	8550	8550	8550	8550	8550	8550	8550	8550	8767	8767	8767	8767	8767	8767	8767	8767	8767	8550	8550	8550	8767	8767	8767	8767	8767	8550	8550	8550	8550	8550	8550	8550	8550	8550	8550	8550	8767	8767	8767	8767	8767	8767	8767	8767	8767	8767	8767	8767	0	0	0	0	0	3019	2993	2993	2967	2967	2942	2917	2917	2893	2893	2869	2845	2845	2845	2822	2822	2777	2777	2754	2733	2733	2733	2733	2733	2711	2690	2649	2629	2629	2629	2589	2570	2570	2570	2570	2570	2570	2589	2570	2570	2551	2551	2551	2551	2551	2551	2551	2551	2551	2551	2532	2514	2514	2496	2478	2478	2478	2478	2426	2426	2426	2426	0	0	0	1698	1698	1698	1698	1698	1698	1698	1698	1698	1698	1690	1690	1681	1690	1681	1681	1681	1681	0	0	0	0	0	0	0	0	0	0	0	0	0	0	0	0	0	0	0	0	0	0	0	0	0	0	0	0	0	0	0	0	0	0	0	0	0	0	0
0	0	0	0	0	0	0	0	0	0	1385	1390	1396	1402	1407	1407	1413	1419	1419	1425	1425	1431	1431	1437	1443	1449	1449	1455	1455	1449	1449	1499	1486	1492	1499	1506	1506	1519	1519	1525	1532	1539	1539	1532	1532	1532	1532	1539	1539	1539	1539	1539	1539	0	0	2140	2140	2153	2153	2140	2127	2127	2140	2140	2140	2153	2153	2153	2167	2167	2167	2167	2140	2140	2140	2140	2153	2153	2153	2140	2153	2167	2181	2181	0	0	0	0	0	0	0	0	0	0	0	0	0	0	0	0	0	0	0	0	0	0	0	0	0	0	0	0	0	0	2127	2127	2114	2127	2140	2140	2167	2167	2181	2181	2181	2194	2194	2194	2208	2208	2208	2208	2223	2223	0	0	0	0	0	0	0	7608	7608	7608	7608	7608	7608	7608	7779	7779	7779	7959	7779	7779	7959	7959	8343	8343	8343	8343	8343	8550	8550	0	0	0	0	0	0	0	9235	8995	8995	8995	8995	8995	8550	8550	8550	8550	8550	8550	8550	8550	8550	8767	8767	8767	8767	8767	8767	8767	8550	8550	8767	8550	8550	8767	8550	8550	8767	8550	8550	8550	8550	8550	8550	8550	8550	8550	8550	8550	8550	8550	8550	8767	8767	8767	8767	8767	8550	8550	8550	8550	8550	8550	8550	8550	8550	8550	8550	8550	8550	8550	8550	8343	8550	8550	8550	8550	8550	8550	8550	8550	8550	8550	8550	8550	8550	8550	8550	8550	8550	8550	8550	8550	0	0	0	0	3440	3440	3440	3406	3440	3440	3440	3440	3440	3475	3440	3440	3406	3406	3406	3373	3373	3373	3373	3373	3373	3373	3341	3341	3341	3341	3309	3309	3309	3309	3309	3309	3309	3309	3309	3309	3341	3309	3341	3309	3309	3341	3309	3309	3309	3309	3309	3341	3341	3341	3341	3309	3309	3309	3341	3373	3373	3373	3406	3406	3406	3406	3440	3440	3440	3440	3440	3440	3440	3440	3440	3440	3440	3440	3440	3440	3440	3440	0	0	9489	8995	8995	8995	8995	8767	8995	8995	9235	8995	8995	9235	9235	9235	9235	9235	9235	9235	9235	9235	9235	9235	8995	8995	8995	8995	8995	8995	8995	8995	8995	8995	8995	8995	8995	8995	8995	8995	8995	9235	9235	8995	8995	8767	8767	8995	8995	8767	8767	8767	8767	8767	8767	8767	8767	8767	8550	8550	8767	8767	8767	8767	8767	8767	8767	8767	8767	8767	8767	8767	8767	8767	8767	8767	8767	8767	8767	8767	8767	8767	8767	8767	8767	8767	8767	8767	8767	8767	8767	8550	8550	8550	8550	8550	8550	8767	8767	8767	8767	8767	8767	8550	8550	8550	8550	8767	8767	8767	8550	8550	8550	8550	8550	8550	8550	8550	8550	8550	8550	8767	8767	8767	8767	8767	8767	8550	8550	8550	8550	8550	8550	8550	8550	8550	8767	8767	8767	8767	8767	8767	8767	8767	8550	8550	8550	8550	8767	8767	8767	8767	8767	8767	8550	8550	8550	8550	8550	8550	8550	8550	8550	8767	8767	8767	8767	8767	8767	8767	8767	8767	8767	8767	8767	0	0	0	0	0	3019	3019	2993	2967	2942	2942	2917	2917	2893	2869	2869	2845	2845	2822	2822	2822	2777	2754	2754	2754	2733	2733	2733	2733	2711	2711	2690	2629	2629	2589	2589	2570	2570	2570	2570	2570	2570	2570	2570	2551	2551	2551	2551	2551	2551	2551	2551	2551	2551	2551	2532	2532	2514	2514	2478	2478	2478	2460	2443	2426	2426	2426	2426	0	0	0	1698	1698	1698	1706	1698	1698	1698	1698	1698	1698	1690	1690	1690	1690	1681	1673	1673	0	0	0	0	0	0	0	0	0	0	0	0	0	0	0	0	0	0	0	0	0	0	0	0	0	0	0	0	0	0	0	0	0	0	0	0	0	0	0
0	0	0	0	0	0	0	0	0	0	1385	1390	1396	1402	1407	1407	1407	1413	1413	1419	1425	1431	1437	1443	1443	1443	1449	1449	1455	1455	1455	1473	1480	1486	1499	1506	1519	1519	1519	1525	1532	1532	1539	1532	1532	1532	1532	1539	1546	1546	1546	1546	1539	0	2223	2181	2181	2181	2167	2167	2140	2140	2140	2140	2153	2153	2153	2167	2167	2181	2181	2181	2167	2167	2167	2167	2167	2167	2167	2167	2181	2181	2181	2181	2181	0	0	0	0	0	0	0	0	0	0	0	0	0	0	0	0	0	0	0	0	0	0	0	0	0	0	0	0	0	2127	2114	2101	2127	2153	2140	2181	2181	2181	2194	2194	2194	2194	2223	2223	2223	2223	2223	2237	2237	2237	0	0	0	0	0	0	0	7608	7608	7444	7444	7608	7608	7779	7779	7779	7959	7959	7959	7959	8146	8146	8343	8343	8343	8550	8550	8550	0	0	0	0	0	0	0	9235	8995	8995	8767	8995	8995	8767	8550	8550	8550	8550	8550	8550	8550	8550	8550	8550	8550	8550	8550	8550	8767	8550	8550	8767	8767	8767	8767	8767	8767	8767	8767	8767	8767	8767	8550	8550	8550	8550	8550	8550	8550	8550	8550	8550	8767	8767	8767	8767	8767	8767	8767	8767	8767	8550	8550	8767	8767	8767	8767	8550	8550	8550	8550	8550	8550	8550	8550	8550	8550	8550	8550	8550	8550	8550	8550	8550	8550	8550	8550	8550	8550	8550	8550	8550	8550	0	0	0	0	3440	3440	3440	3406	3440	3440	3440	3440	3440	3475	3475	3440	3440	3406	3406	3373	3373	3341	3341	3373	3373	3341	3341	3341	3341	3341	3309	3309	3309	3309	3309	3309	3309	3309	3309	3309	3341	3309	3309	3309	3309	3309	3309	3309	3309	3309	3309	3341	3309	3309	3309	3309	3309	3309	3341	3341	3373	3373	3373	3406	3406	3440	3440	3440	3440	3440	3440	3440	3440	3440	3475	3475	3475	3440	3440	3440	3440	3440	3440	0	9489	8995	8995	8995	8995	8767	8995	8767	8995	8995	8995	8995	8995	9235	9235	9235	9235	9235	9235	9235	9235	9235	9235	8995	8995	8995	8995	8995	8995	8767	8767	8767	8767	8767	8995	8995	8995	8995	8995	8995	8995	8995	8767	8767	8767	8767	8995	8767	8767	8995	8995	8995	8767	8767	8767	8767	8550	8550	8767	8767	8767	8767	8767	8767	8767	8767	8767	8767	8767	8767	8767	8767	8767	8767	8767	8767	8767	8767	8767	8767	8767	8767	8767	8767	8767	8550	8550	8550	8550	8550	8550	8550	8550	8550	8550	8767	8767	8550	8550	8550	8550	8550	8550	8550	8550	8767	8767	8767	8767	8550	8550	8550	8550	8343	8550	8343	8550	8550	8550	8767	8767	8767	8550	8550	8550	8550	8550	8550	8550	8550	8550	8550	8550	8550	8767	8767	8767	8767	8550	8767	8767	8550	8550	8550	8550	8550	8550	8550	8767	8767	8767	8767	8550	8550	8550	8550	8550	8550	8550	8550	8550	8767	8767	8767	8767	8767	8767	8767	8767	8767	8767	8767	8767	0	0	0	0	0	3046	3019	2993	2967	2942	2942	2917	2917	2917	2893	2893	2869	2845	2845	2822	2822	2777	2754	2754	2733	2733	2733	2733	2711	2711	2711	2690	2649	2629	2589	2589	2570	2570	2570	2570	2570	2551	2570	2570	2570	2551	2551	2551	2551	2551	2551	2551	2551	2551	2551	2532	2514	2514	2496	2478	2478	2478	2478	2443	2426	2426	2426	2426	2426	0	0	1698	1698	1706	1706	1698	1698	1698	1698	1698	1698	1698	1690	1690	1690	1673	1673	1673	0	0	0	0	0	0	0	0	0	0	0	0	0	0	0	0	0	0	0	0	0	0	0	0	0	0	0	0	0	0	0	0	0	0	0	0	0	0	0
0	0	0	0	0	0	0	0	0	0	1385	1385	1390	1402	1407	1407	1407	1413	1413	1419	1425	1431	1437	1437	1449	1449	1449	1449	1455	1455	1455	1473	1480	1480	1492	1499	1512	1512	1519	1525	1532	1539	1539	1532	1532	1539	1539	1539	1546	1546	1553	1553	0	0	2223	2194	2194	2181	2181	2167	2153	2153	2153	2153	2167	2167	2167	2167	2167	2153	2181	2153	2181	2181	2194	2181	2181	2181	2181	2181	2181	2181	2181	2181	2181	2181	0	0	0	0	0	0	0	0	0	0	0	0	0	0	0	0	0	0	0	0	0	0	0	0	0	0	0	0	0	2114	2101	2167	2167	2194	2194	2194	2194	2194	2194	2194	2208	2237	2237	2237	2237	2237	2237	2252	2252	0	0	0	0	0	0	0	0	7608	7444	7444	7608	7608	7779	7779	7779	7959	8146	8146	8146	8146	8146	8343	8343	8343	8343	8343	8343	0	0	0	0	0	0	0	0	0	8767	8767	8995	8995	8767	8550	8550	8550	8550	8550	8550	8550	8550	8343	8550	8550	8550	8550	8550	8550	8550	8550	8550	8550	8767	8995	8995	8995	8995	8995	8767	8767	8767	8767	8550	8550	8550	8550	8550	8550	8550	8550	8550	8767	8767	8767	8767	8767	8767	8767	8767	8767	8767	8767	8767	8767	8550	8550	8550	8550	8550	8550	8550	8550	8550	8550	8550	8550	8550	8550	8550	8550	8550	8550	8550	8550	8550	8550	8550	8550	8550	8550	8550	0	0	0	0	3440	3440	3440	3440	3406	3406	3440	3406	3440	3440	3440	3475	3440	3440	3406	3406	3373	3373	3341	3341	3341	3341	3341	3341	3341	3341	3341	3309	3341	3309	3309	3341	3309	3309	3309	3309	3309	3309	3309	3309	3309	3309	3309	3309	3309	3309	3309	3309	3341	3309	3309	3309	3309	3309	3309	3341	3341	3373	3373	3406	3406	3440	3406	3440	3440	3440	3440	3440	3440	3440	3440	3440	3475	3475	3440	3440	3440	3440	3440	3440	0	0	8995	8995	8995	8995	8767	8995	8767	8995	8995	8995	8995	8995	8995	8995	9235	9235	9235	9235	8995	9235	9235	9235	8995	8995	8995	8995	8995	8767	8767	8767	8767	8767	8767	8767	8767	8767	8995	8995	8995	8995	8995	8767	8767	8995	8995	8995	8995	8995	8995	8995	8767	8767	8767	8550	8550	8550	8550	8550	8767	8767	8767	8767	8767	8767	8767	8767	8767	8767	8767	8767	8550	8767	8767	8767	8767	8767	8767	8995	8767	8767	8767	8767	8767	8767	8767	8767	8767	8767	8550	8550	8550	8550	8550	8550	8767	8767	8550	8550	8550	8550	8550	8550	8550	8550	8767	8767	8767	8767	8550	8550	8550	8550	8550	8550	8550	8550	8550	8550	8767	8767	8550	8550	8550	8550	8550	8550	8550	8550	8550	8550	8550	8550	8550	8550	8550	8767	8767	8550	8767	8767	8767	8550	8550	8550	8550	8550	8550	8550	8767	8550	8767	8767	8550	8550	8550	8550	8550	8767	8550	8767	8767	8767	8767	8767	8767	8767	8767	8767	8767	8767	8767	8767	0	0	0	0	0	3046	3019	2993	2967	2942	2942	2917	2917	2917	2893	2893	2869	2845	2845	2822	2822	2777	2754	2754	2733	2733	2733	2711	2711	2690	2669	2669	2649	2629	2589	2589	2570	2570	2570	2570	2570	2551	2551	2570	2551	2551	2551	2551	2551	2551	2551	2551	2551	2532	2532	2532	2514	2496	2496	2478	2478	2478	2460	2443	2426	2443	2426	2426	2409	2409	0	1698	1706	1706	1706	1706	1706	1706	1706	1706	1698	1706	1698	1690	1681	1681	1681	1681	0	0	0	0	0	0	0	0	0	0	0	0	0	0	0	0	0	0	0	0	0	0	0	0	0	0	0	0	0	0	0	0	0	0	0	0	0	0	0
0	0	0	0	0	0	0	0	0	0	1385	1385	1390	1390	1402	1402	1413	1413	1419	1419	1425	1431	1437	1443	1443	1449	1449	1449	1455	1455	1455	1467	1473	1480	1492	1499	1499	1506	1512	1525	1532	1539	1539	1539	1532	1539	1539	1539	1546	1539	1546	1546	0	2266	2266	2208	2194	2181	2181	2181	2167	2167	2167	2181	2181	2181	2181	2181	2181	2167	2194	2194	2194	2194	2194	2194	2194	2194	2194	2194	2194	2181	2181	2181	2181	2181	2181	0	0	0	0	0	0	0	0	0	0	0	0	0	0	0	0	0	0	0	0	0	0	0	0	0	0	0	0	0	0	2167	2181	2208	2194	2194	2194	2194	2194	2208	2223	2252	2252	2252	2252	2252	2252	2252	2252	2252	0	0	0	0	0	0	0	0	7444	7608	7608	7779	7779	7779	7779	7779	7959	7959	7959	7959	0	8146	8343	8343	8343	8343	8343	0	0	0	0	0	0	0	0	8767	8767	8767	8995	8995	8767	8550	8550	8550	8550	8550	8550	8550	8343	8343	8343	8343	8343	8343	8343	8550	8550	8550	8767	8767	8995	8995	8767	8995	8995	8995	8767	8767	8767	8767	8767	8550	8550	8550	8550	8550	8550	8550	8550	8767	8767	8767	8767	8767	8767	8767	8550	8550	8550	8550	8767	8550	8550	8550	8550	8550	8550	8550	8550	8550	8550	8550	8550	8550	8550	8550	8767	8550	8550	8550	8550	8550	8550	8550	8550	8550	8550	8550	0	0	0	0	0	3440	3440	3440	3440	3440	3406	3406	3440	3440	3440	3440	3440	3440	3440	3406	3406	3341	3373	3341	3341	3341	3341	3341	3341	3341	3341	3341	3341	3341	3309	3309	3309	3309	3309	3309	3309	3309	3309	3309	3309	3309	3309	3309	3309	3309	3309	3309	3309	3309	3309	3309	3309	3309	3309	3309	3341	3341	3373	3373	3406	3406	3406	3406	3406	3440	3440	3440	3440	3440	3440	3440	3440	3440	3440	3440	3440	3440	3475	3440	3440	3440	0	8995	8995	8767	8767	8767	8767	8767	8995	8995	8995	8995	8995	8995	8995	8995	8995	8995	8995	8995	8995	9235	9235	9235	8995	8995	8995	8995	8995	8767	8767	8767	8767	8767	8767	8767	8767	8995	8995	8995	8995	8995	8995	8767	8995	8995	8995	8995	8995	8995	8995	8767	8767	8550	8550	8550	8550	8550	8550	8767	8767	8767	8767	8767	8767	8767	8767	8767	8767	8767	8767	8550	8550	8767	8767	8767	8767	8767	8767	8767	8767	8767	8767	8767	8767	8767	8767	8767	8767	8767	8767	8767	8767	8767	8767	8767	8550	8550	8550	8767	8767	8767	8550	8550	8550	8767	8767	8767	8767	8550	8550	8550	8550	8550	8550	8550	8550	8767	8767	8767	8767	8550	8550	8550	8550	8550	8550	8550	8550	8767	8767	8767	8550	8550	8767	8767	8767	8767	8550	8767	8767	8767	8550	8550	8550	8550	8550	8550	8550	8550	8550	8550	8767	8550	8550	8550	8550	8550	8550	8550	8767	8995	8767	8767	8767	8767	8767	8767	8767	8767	8995	8995	0	0	0	0	0	0	0	3019	2993	2967	2942	2942	2917	2917	2917	2893	2893	2869	2869	2869	2822	2822	2777	2754	2754	2733	2733	2733	2711	2711	2690	2669	2669	2649	2629	2589	2589	2570	2570	2570	2570	2570	2551	2551	2551	2551	2551	2551	2551	2551	2551	2551	2551	2532	2532	2532	2532	2514	2496	2496	2496	2478	2460	2443	2426	2426	2443	2426	2426	2426	2426	0	1698	1706	1706	1706	1698	1698	1706	1706	1706	1706	1706	1698	1698	1690	1681	1681	1681	0	0	0	0	0	0	0	0	0	0	0	0	0	0	0	0	0	0	0	0	0	0	0	0	0	0	0	0	0	0	0	0	0	0	0	0	0	0	0
0	0	0	0	0	0	0	0	0	0	0	1385	1385	1396	1402	1407	1407	1413	1419	1419	1431	1431	1437	1443	1443	1449	1449	1449	1455	1455	1461	1467	1473	1480	1486	1492	1499	1499	1506	1519	1525	1532	1539	1546	1539	1546	1539	1546	1553	1539	1560	1560	0	2194	2194	2194	2194	2194	2194	2181	2181	2181	2181	2181	2194	2194	2181	2181	2181	2181	2181	2181	2194	2194	2208	2208	2208	2208	2208	2194	2194	2181	2181	2153	2153	2181	2181	0	0	0	0	0	0	0	0	0	0	0	0	0	0	0	0	0	0	0	0	0	0	0	0	0	0	0	0	0	0	0	2181	2208	2194	2194	2194	2194	2194	2208	2223	2252	2252	2252	2252	2252	2266	2266	2252	2252	0	0	0	0	0	0	0	0	0	7608	7608	7779	7779	7779	7779	7779	7959	7959	7959	7959	0	8146	8343	8343	8343	8343	0	8550	8550	8550	8550	8550	0	0	0	8767	8995	8767	8995	8995	8767	8550	8767	8550	8550	8550	8550	8343	8343	8343	8343	8343	8343	8343	8343	8343	8343	8343	8767	8767	8767	8995	8767	8995	8995	8995	8767	8767	8767	8767	8767	8550	8550	8550	8550	8550	8550	8550	8550	8767	8767	8767	8767	8767	8767	8767	8550	8550	8550	8550	8550	8550	8550	8550	8550	8550	8550	8550	8550	8550	8550	8550	8550	8767	8550	8550	8767	8550	8550	8550	8550	8550	8550	8550	8550	8550	8550	8550	8550	8550	0	0	3440	3440	3440	3440	3440	3440	3406	3440	3440	3440	3440	3440	3440	3440	3406	3406	3406	3373	3341	3341	3341	3341	3341	3341	3341	3341	3341	3341	3341	3341	3309	3309	3309	3309	3309	3309	3309	3309	3309	3309	3309	3309	3309	3309	3309	3309	3309	3309	3309	3309	3309	3309	3309	3309	3309	3309	3341	3341	3341	3373	3373	3406	3406	3406	3406	3440	3440	3440	3440	3440	3440	3440	3440	3440	3440	3440	3440	3440	3440	3440	3309	3309	0	8995	8995	8767	8767	8767	8995	8767	8995	8995	8995	8995	8995	8995	8995	8995	8995	8995	8995	8995	8995	8995	9235	8995	8995	8995	8995	8995	8767	8995	8767	8767	8767	8767	8767	8995	8995	8995	8995	8995	8995	8995	8995	8995	8995	8995	8767	8995	8767	8995	8995	8767	8767	8767	8550	8550	8550	8550	8550	8767	8767	8767	8767	8767	8767	8767	8767	8767	8767	8767	8767	8767	8767	8767	8767	8767	8767	8767	8767	8767	8767	8767	8767	8767	8767	8767	8767	8767	8767	8767	8767	8767	8767	8767	8767	8767	8550	8550	8550	8550	8550	8550	8550	8550	8550	8550	8767	8767	8767	8550	8550	8550	8550	8550	8767	8767	8550	8767	8767	8550	8550	8550	8550	8550	8550	8550	8550	8550	8550	8767	8767	8767	8550	8767	8767	8550	8767	8767	8767	8767	8767	8767	8767	8550	8550	8550	8550	8550	8550	8550	8550	8550	8550	8550	8550	8550	8550	8550	8550	8550	8767	8767	8767	8767	8767	8767	8767	8767	8767	8767	8995	8995	8995	0	0	0	0	0	0	3019	2993	2967	2942	2917	2917	2917	2917	2893	2893	2869	2869	2869	2845	2822	2777	2777	2754	2754	2733	2733	2711	2690	2690	2669	2649	2649	2629	2609	2589	2570	2570	2570	2570	2570	2551	2551	2551	2551	2551	2551	2551	2551	2551	2570	2551	2551	2551	2532	2532	2514	2496	2496	2496	2478	2460	2460	2443	2443	2460	2443	2443	2426	2426	0	1698	1706	1706	1706	1698	1698	1706	1706	1706	1706	1706	1706	1698	1681	1681	1681	1681	0	0	0	0	0	0	0	0	0	0	0	0	0	0	0	0	0	0	0	0	0	0	0	0	0	0	0	0	0	0	0	0	0	0	0	0	0	0	0
0	0	0	0	0	0	0	0	0	0	0	1385	1385	1390	1402	1402	1407	1413	1419	1425	1431	1431	1443	1443	1443	1449	1449	1449	1455	1455	1461	1467	1473	1480	1486	1492	1492	1499	1506	1519	1525	1532	1539	1546	1539	1539	1539	1546	1553	1539	1539	1560	0	2208	2208	2208	2194	2194	2194	2194	2181	2181	2181	2181	2194	2194	2181	2181	2181	2181	2181	2194	2194	2208	2208	2208	2208	2208	2208	2194	2194	2181	2167	2153	2167	2167	0	0	0	0	0	0	0	0	0	0	0	0	0	0	0	0	0	0	0	0	0	0	0	0	0	0	0	0	0	0	0	0	0	0	2194	2194	2208	2208	2194	2208	2223	2252	2252	2252	2266	2266	2266	2266	2266	2266	0	0	0	0	0	0	0	0	0	7779	7779	7779	7959	7779	7959	7959	7959	7959	7959	0	0	0	0	0	0	0	0	8343	8550	8550	8550	8550	8550	0	0	0	8767	8550	8767	8767	8767	8550	8550	8550	8550	8550	8550	8550	8550	8550	8550	8550	8550	8550	8550	8343	8343	8550	8767	8550	8767	8767	8767	8995	8995	8995	8767	8767	8767	8767	8767	8550	8550	8550	8550	8550	8550	8550	8550	8767	8767	8767	8767	8767	8767	8767	8767	8550	8550	8550	8550	8550	8550	8550	8550	8550	8550	8550	8550	8550	8550	8550	8550	8550	8550	8550	8550	8550	8550	8550	8550	8550	8767	8550	8550	8550	8550	8550	8550	8550	0	0	3440	3440	3440	3440	3440	3440	3406	3406	3440	3440	3440	3440	3440	3406	3406	3406	3406	3373	3341	3341	3341	3341	3341	3341	3341	3341	3373	3341	3341	3309	3309	3309	3309	3309	3309	3309	3309	3309	3309	3309	3309	3309	3309	3309	3309	3309	3309	3309	3309	3309	3309	3309	3309	3309	3309	3309	3373	3341	3341	3341	3373	3373	3406	3406	3406	3440	3440	3440	3440	3440	3440	3440	3440	3440	3440	3440	3440	3440	3440	3406	3373	3373	0	0	8995	8995	8767	8767	8767	8767	8995	8995	8995	8995	8995	8767	8767	8995	8995	8995	8767	8995	8995	8995	9235	8995	8767	8767	8995	8995	8767	8995	8767	8767	8767	8767	8767	8995	8995	8995	8995	8995	9235	8995	8995	8995	8995	9235	8767	8767	8767	8767	8995	8767	8767	8767	8767	8767	8767	8767	8550	8767	8767	8767	8767	8767	8767	8767	8767	8767	8767	8767	8767	8767	8550	8767	8767	8767	8767	8767	8767	8767	8767	8767	8767	8767	8767	8767	8767	8767	8767	8767	8767	8767	8767	8767	8767	8767	8550	8550	8550	8550	8767	8767	8550	8550	8550	8550	8767	8550	8550	8550	8550	8550	8767	8550	8767	8767	8550	8767	8550	8550	8550	8550	8550	8550	8550	8550	8550	8550	8550	8767	8550	8550	8550	8550	8767	8550	8767	8767	8550	8767	8550	8550	8550	8550	8550	8550	8550	8550	8550	8550	8550	8550	8550	8550	8550	8550	8550	8550	8550	8550	8550	8767	8767	8767	8767	8767	8767	8767	8767	8767	8767	8767	8767	0	0	0	0	0	0	0	2993	2942	2942	2917	2893	2893	2893	2869	2869	2869	2845	2845	2845	2822	2822	2777	2754	2754	2733	2733	2711	2690	2690	2669	2649	2649	2629	2589	2589	2570	2570	2570	2570	2551	2551	2551	2551	2551	2551	2551	2551	2570	2570	2570	2551	2570	2551	2532	2532	2514	2496	2496	2478	2460	2460	2460	2460	2443	2443	2443	2443	2443	2443	0	0	1706	1706	1706	1698	1698	1706	1698	1706	1698	1706	1706	1698	1690	1681	1681	1681	0	0	0	0	0	0	0	0	0	0	0	0	0	0	0	0	0	0	0	0	0	0	0	0	0	0	0	0	0	0	0	0	0	0	0	0	0	0	0
0	0	0	0	0	0	0	0	0	0	0	1385	1390	1390	1396	1402	1407	1413	1413	1425	1431	1431	1437	1443	1443	1449	1449	1449	1455	1455	1461	1467	1473	1480	1486	1492	1492	1499	1506	1519	1519	1525	1532	1539	1532	1539	1539	1532	1553	1532	1532	0	2237	2223	2223	2223	2223	2194	2194	2194	2181	2181	2181	0	0	0	0	0	0	2194	2181	2194	2208	2208	2208	2208	2208	2208	2208	2194	2194	2181	2153	2153	2153	2167	0	0	0	0	0	0	0	0	0	0	0	0	0	0	0	0	0	0	0	0	0	0	0	0	0	0	0	0	0	0	0	0	0	0	0	0	2208	2223	2208	2208	2237	2252	2252	2266	2266	2266	2266	2266	2266	2266	0	0	0	0	0	0	0	0	0	7779	7779	7779	7959	7959	7959	7959	7959	0	0	0	0	0	0	0	0	0	0	8550	8550	8550	8550	8550	8550	8550	8550	8550	8550	8550	8767	8767	8767	8767	8767	8550	8550	8550	8550	8550	8550	8550	8550	8550	8550	8343	8343	8343	8343	8343	8550	8550	8767	8767	8767	8995	8995	8995	8767	8767	8767	8767	8767	8767	8550	8550	8550	8550	8550	8550	8550	8550	8767	8767	8767	8767	8767	8767	8767	8550	8550	8550	8550	8550	8550	8550	8550	8550	8550	8550	8550	8550	8550	8550	8550	8550	8550	8550	8550	8550	8767	8550	8550	8767	8767	8767	8550	8550	8550	8550	8550	8550	0	3475	3440	3440	3440	3440	3440	3440	3406	3440	3440	3440	3440	3440	3440	3440	3406	3406	3406	3373	3373	3341	3341	3341	3341	3341	3341	3341	3373	3341	3341	3309	3309	3309	3309	3309	3309	3309	3309	3309	3309	3309	3309	3309	3309	3309	3309	3309	3309	3309	3309	3309	3309	3309	3309	3341	3341	3341	3373	3341	3373	3373	3373	3373	3373	3406	3406	3440	3440	3440	3440	3440	3440	3440	3440	3440	3440	3440	3440	3440	3440	3406	3373	3373	3373	0	8995	8995	8995	8767	8767	8767	8767	8767	8767	8767	8995	8995	8767	8995	8767	8767	8767	8767	8995	8995	8995	8995	8767	8767	8995	8767	8767	8995	8767	8767	8767	8767	8767	8767	8767	8767	8995	8995	9235	9235	8995	8995	8995	8995	8995	8767	8767	8767	8995	8995	8767	8767	8767	8767	8767	8767	8767	8767	8767	8767	8767	8767	8767	8767	8767	8767	8767	8995	8767	8767	8767	8767	8767	8550	8767	8550	8767	8767	8767	8767	8550	8767	8767	8767	8767	8767	8767	8767	8767	8767	8767	8767	8767	8767	8550	8767	8767	8767	8767	8767	8550	8767	8550	8550	8550	8767	8550	8767	8767	8767	8767	8550	8550	8550	8550	8767	8550	8550	8550	8550	8550	8767	8767	8767	8767	8550	8550	8767	8550	8767	8550	8550	8767	8550	8550	8550	8550	8767	8767	8767	8767	8550	8550	8550	8550	8550	8767	8767	8550	8550	8550	8550	8550	8550	8550	8550	8550	8550	8550	8767	8767	8767	8767	8767	8767	8767	8767	8767	8995	8767	8767	0	0	0	0	0	0	0	2967	2942	2942	2917	2893	2893	2893	2869	2869	2869	2845	2845	2845	2822	2822	2777	2754	2754	2733	2733	2711	2690	2690	2669	2649	2649	2629	2589	2589	2570	2570	2570	2570	2551	2551	2551	2551	2551	2551	2551	2570	2570	2570	2570	2551	2570	2532	2532	2514	2496	2496	2478	2478	2460	2460	2460	2460	2443	2443	2426	2426	2426	2426	0	0	1706	1706	1706	1698	1698	1706	1706	1706	1698	1706	1698	1698	1690	1681	1681	1681	0	0	0	0	0	0	0	0	0	0	0	0	0	0	0	0	0	0	0	0	0	0	0	0	0	0	0	0	0	0	0	0	0	0	0	0	0	0	0
0	0	0	0	0	0	0	0	0	0	0	1385	1385	1390	1402	1402	1402	1407	1407	1425	1437	1431	1437	1437	1443	1443	1449	1449	1455	1455	1461	1467	1473	1480	1486	1492	1499	1499	1506	1519	1519	1525	1532	1525	1525	1539	1532	1532	1539	1539	1539	0	2237	2223	2237	2223	2223	2194	2194	2194	0	0	0	0	0	0	0	0	0	2194	2194	2194	2208	2194	2208	2208	2194	2194	2194	2181	2181	2181	2153	2153	2153	0	0	0	0	0	0	0	0	0	0	0	0	0	0	0	0	0	0	0	0	0	0	0	0	0	0	0	0	0	0	0	0	0	0	0	0	0	0	2223	2208	2208	2237	2252	2252	2266	2266	2266	2266	2281	2281	2266	0	0	0	0	0	0	0	0	0	7779	7779	7779	7959	7959	7959	7959	0	0	0	0	0	0	0	0	0	0	0	8550	8550	8550	8550	8550	8550	8550	8767	8550	8550	8550	8767	8767	8767	8767	8767	8550	8550	8550	8550	8550	8550	8550	8550	8343	8550	8343	8343	8343	8343	8343	8550	8550	8550	8767	8550	8767	8767	8995	8767	8767	8767	8767	8767	8767	8550	8550	8550	8550	8550	8550	8550	8550	8767	8767	8767	8767	8767	8767	8767	8550	8550	8550	8550	8550	8550	8550	8550	8550	8550	8550	8550	8550	8550	8550	8550	8550	8550	8550	8550	8550	8550	8550	8550	8767	8767	8767	8550	8550	8550	8550	8550	8343	8343	3510	3475	3475	3440	3440	3440	3440	3406	3406	3406	3440	3440	3440	3440	3406	3406	3406	3406	3373	3341	3341	3341	3341	3341	3341	3341	3341	3341	3341	3341	3309	3309	3309	3309	3309	3309	3309	3309	3309	3309	3309	3277	3309	3309	3309	3309	3309	3309	3309	3309	3309	3309	3309	3309	3341	3341	3341	3373	3341	3341	3341	3373	3373	3373	3406	3406	3440	3440	3440	3440	3440	3440	3440	3440	3440	3440	3440	3406	3440	3440	3373	3373	3373	3373	0	8995	8995	8767	8767	8767	8767	8767	8767	8767	8767	8995	8995	8767	8767	8767	8767	8767	8767	8767	8995	8995	8995	8767	8767	8995	8767	8767	8767	8767	8767	8767	8767	8767	8767	8995	8995	8995	8995	9235	9235	8995	8767	8995	8995	8767	8767	8767	8767	8995	8767	8767	8767	8767	8767	8767	8767	8767	8767	8767	8767	8767	8767	8767	8767	8767	8767	8767	8995	8995	8767	8767	8767	8767	8767	8767	8550	8550	8767	8550	8550	8550	8767	8767	8767	8767	8767	8767	8767	8767	8767	8767	8767	8767	8767	8767	8767	8550	8550	8550	8550	8550	8767	8550	8550	8550	8550	8550	8550	8767	8767	8767	8767	8767	8767	8550	8767	8767	8550	8550	8550	8550	8767	8767	8767	8767	8550	8767	8767	8767	8767	8767	8550	8767	8550	8550	8550	8550	8550	8767	8767	8767	8767	8550	8550	8550	8550	8550	8550	8550	8550	8550	8550	8550	8550	8550	8550	8550	8550	8550	8767	8767	8767	8767	8767	8767	8767	8767	8767	8995	8767	8767	0	0	0	0	0	0	0	2967	2942	2917	2893	2893	2893	2893	2869	2869	2869	2869	2845	2845	2822	2799	2754	2754	2733	2733	2711	2711	2669	2669	2649	2649	2649	2629	2609	2589	2570	2570	2570	2570	2551	2551	2551	2551	2551	2551	2551	2570	2570	2570	2570	2551	2551	2551	2514	2514	2496	2496	2478	2478	2460	2460	2460	2460	2460	2460	2426	2426	2409	2392	2392	0	1706	1706	1706	1698	1698	1706	1706	1706	1706	1698	1698	1698	1690	1690	1690	1690	0	0	0	0	0	0	0	0	0	0	0	0	0	0	0	0	0	0	0	0	0	0	0	0	0	0	0	0	0	0	0	0	0	0	0	0	0	0	0
0	0	0	0	0	0	0	0	0	0	0	1385	1385	1385	1396	1396	1402	1407	1407	1425	1431	1431	1437	1437	1437	1443	1449	1449	1455	1455	1461	1467	1473	1480	1480	1486	1492	1492	1499	1512	1512	1519	1525	1525	1525	1532	1532	1532	1539	1539	1539	0	2237	2237	2237	2237	2237	2237	2194	0	0	0	0	0	0	0	0	0	0	0	2194	2194	2194	2194	2194	2194	2194	2181	2181	2181	2181	2181	0	0	0	0	0	0	0	0	0	0	0	0	0	0	0	0	0	0	0	0	0	0	0	0	0	0	0	0	0	0	0	0	0	0	0	0	0	0	0	0	0	0	0	0	0	2252	2266	2266	2281	2281	2281	2297	2297	0	0	0	0	0	0	0	0	0	0	0	7779	7779	7959	7959	0	0	0	0	0	0	0	0	0	0	0	0	0	0	8550	8550	8550	8550	8550	8767	8550	8550	8550	8550	8550	8550	8767	8550	8550	8550	8550	8550	8550	8550	8550	8550	8550	8343	8550	8550	8146	8343	8343	8343	8550	8550	8550	8767	8767	8767	8767	8767	8550	8767	8767	8767	8767	8767	8550	8767	8550	8550	8550	8550	8550	8550	8550	8767	8767	8767	8767	8550	8550	8550	8550	8550	8550	8550	8550	8550	8550	8550	8550	8550	8550	8550	8550	8550	8550	8550	8550	8550	8550	8550	8550	8767	8550	8767	8767	8767	8550	8550	8550	8550	8550	8550	8550	3510	3475	3475	3440	3440	3440	3440	3406	3406	3406	3406	3440	3440	3406	3406	3406	3406	3406	3373	3341	3341	3341	3341	3341	3341	3341	3341	3341	3341	3341	3309	3309	3309	3309	3309	3309	3309	3309	3309	3309	3309	3277	3277	3309	3309	3309	3309	3309	3309	3309	3309	3309	3309	3309	3309	3309	3309	3341	3341	3341	3341	3373	3373	3373	3406	3406	3406	3406	3440	3406	3406	3406	3406	3406	3406	3440	3406	3406	3373	3373	3341	3341	3341	0	0	8995	8767	8767	8767	8767	8767	8767	8767	8767	8767	8995	8995	8767	8767	8767	8767	8767	8767	8767	8995	8995	8995	9235	9235	8995	8767	8767	8995	8995	8767	8767	8995	8767	8995	8995	8995	8995	8995	8995	8995	8995	8767	8995	8995	8995	8767	8767	8767	8767	8995	8995	8995	8995	8995	8767	8767	8767	8767	8550	8550	8550	8550	8767	8767	8767	8767	8767	8995	8767	8767	8767	8767	8550	8550	8550	8550	8550	8550	8550	8550	8550	8550	8550	8767	8767	8767	8767	8767	8767	8767	8767	8767	8767	8767	8550	8550	8550	8767	8767	8550	8550	8550	8767	8550	8550	8550	8550	8550	8767	8767	8767	8767	8767	8767	8767	8767	8550	8550	8550	8550	8767	8767	8767	8767	8767	8767	8550	8550	8550	8767	8550	8550	8550	8550	8550	8550	8550	8550	8550	8550	8550	8550	8767	8767	8550	8550	8767	8767	8767	8550	8550	8767	8550	8550	8550	8550	8550	8550	8550	8767	8767	8767	8767	8767	8767	8767	8767	8995	8995	8767	8767	0	0	0	0	0	0	0	2967	2942	2942	2917	2893	2893	2869	2869	2845	2822	2822	2845	2845	2822	2822	2754	2754	2733	2733	2711	2690	2669	2669	2649	2649	2649	2629	2609	2589	2589	2570	2570	2570	2551	2551	2551	2551	2551	2551	2551	2551	2551	2551	2551	2551	2551	2514	2514	2496	2496	2496	2478	2478	2460	2460	2460	2460	2443	2460	2426	2426	2409	2376	2376	2376	1706	1706	1706	1706	1698	1706	1706	1706	1698	1698	1698	1698	1690	1690	1690	1690	0	0	0	0	0	0	0	0	0	0	0	0	0	0	0	0	0	0	0	0	0	0	0	0	0	0	0	0	0	0	0	0	0	0	0	0	0	0	0
0	0	0	0	0	0	0	0	0	0	0	1385	1385	1385	1390	1396	1402	1407	1407	1425	1425	1431	1437	1437	1437	1443	1443	1449	1455	1455	1461	1467	1473	1480	1486	1486	1492	1492	1499	1512	1512	1519	1525	1525	1532	1532	1532	1532	1532	1539	1546	1553	1553	1553	2237	2237	2237	2237	0	0	5282	5282	0	0	0	0	0	0	0	0	0	0	5448	2194	5364	5364	2181	2181	2181	0	0	0	0	0	0	0	0	0	0	0	0	0	0	0	0	0	0	0	0	0	0	0	0	0	0	0	0	0	0	0	0	0	0	0	0	0	0	0	0	0	0	0	0	0	0	0	0	0	2266	2266	2281	2281	2281	2297	2297	0	0	0	0	0	0	0	0	0	0	0	0	0	0	0	0	0	0	0	0	0	0	0	0	0	0	8550	8550	8550	8767	8550	8550	8550	8767	8767	8767	8550	8550	8550	8550	8550	8550	8550	8550	8550	8550	8550	8550	8550	8550	8550	8550	8550	8550	8550	8343	8343	8343	8343	8550	8550	8550	8767	8550	8550	8767	8767	8767	8550	8767	8767	8767	8767	8550	8767	8550	8550	8550	8550	8550	8550	8550	8550	8550	8550	8550	8550	8550	8550	8550	8550	8550	8550	8550	8550	8550	8550	8550	8550	8550	8550	8550	8550	8550	8550	8550	8550	8550	8550	8550	8550	8550	8767	8767	8550	8550	8550	8550	8550	8550	8550	3546	3546	3475	3475	3440	3440	3440	3440	3406	3406	3406	3406	3406	3406	3406	3406	3406	3406	3406	3373	3373	3341	3341	3341	3341	3341	3341	3341	3341	3341	3341	3309	3309	3309	3309	3309	3309	3309	3309	3309	3309	3309	3309	3309	3309	3309	3277	3309	3309	3309	3309	3309	3309	3309	3309	3341	3309	3309	3341	3341	3341	3341	3373	3373	3373	3406	3373	3406	3406	3406	3406	3406	3406	3406	3406	3406	3406	3406	3373	3373	3373	3373	3373	3373	0	0	8767	8767	8767	8767	8767	8767	8767	8767	8767	8767	8995	8995	8767	8767	8767	8550	8767	8767	8767	8995	8995	9235	9235	9235	9235	8995	8767	8995	8995	8995	8995	8995	8995	8995	8995	8767	8995	8995	8995	9235	9235	9235	9235	5202	5202	5202	5202	8995	8995	8995	9235	9235	8995	8995	8995	8995	8767	8767	8767	8550	8550	8550	8550	8550	8550	8767	8767	8767	8767	8767	8767	8767	8550	8550	8550	8550	8550	8550	8550	8550	8550	8550	8550	8767	8767	8767	8767	8767	8767	8767	8767	8767	8767	8767	8767	8767	8767	8767	8767	8550	8550	8767	8550	8550	8550	8550	8550	8550	8767	8767	8995	8995	8995	8767	8550	8550	8550	8550	8550	8550	8767	8767	8767	8767	8767	8767	8550	8550	8550	8550	8550	8343	5050	5125	5202	5202	8550	8550	8767	8767	8767	8767	8767	8767	8550	8767	8767	8767	8767	8767	8550	8767	8550	8550	8550	8550	8550	8550	8550	8550	8767	8767	8767	8767	8767	8767	8767	8767	8995	8767	8767	0	0	0	0	0	0	2967	2967	2967	2942	2917	2893	2869	2869	2845	2845	2822	2822	2822	2822	2822	2799	2754	2754	2754	2733	2711	2690	2669	2669	2649	2649	2649	2629	2609	2609	2589	2570	2589	2589	2570	2570	2551	2551	2551	2551	2551	2551	2570	2551	2570	2551	2551	2514	2496	2496	2478	2478	2460	2460	2460	2460	2460	2460	2426	2426	2426	2409	2409	2392	1698	1706	1706	1706	1706	1706	1698	1706	1706	1706	1698	1698	1698	1698	1698	1698	1698	1698	0	0	0	0	0	0	0	0	0	0	0	0	0	0	0	0	0	0	0	0	0	0	0	0	0	0	0	0	0	0	0	0	0	0	0	0	0	0	0
0	0	0	0	0	0	0	0	0	0	0	1385	1385	1390	1390	1396	1402	1402	1413	1425	1425	1431	1431	1431	1431	1437	1443	1449	1449	1461	1467	1473	1480	1480	1486	1492	1492	1492	1499	1506	1512	1519	1519	1525	1532	1532	1532	1532	1532	1539	1539	1539	1539	1553	0	0	0	0	5282	5282	5282	5282	5282	5282	0	0	0	0	0	5364	5448	5448	5448	5448	5364	5448	5448	2181	0	0	0	0	0	0	0	0	0	0	0	0	0	0	0	0	0	0	0	0	0	0	0	0	0	0	0	0	0	0	0	0	0	0	0	0	0	0	0	0	0	0	0	0	0	0	0	0	0	0	0	0	0	0	0	0	0	0	0	0	0	0	0	0	0	0	0	0	0	0	0	0	0	0	0	0	0	0	0	0	0	0	0	8550	8550	8767	8767	8550	8767	8767	8767	8767	8767	8550	8550	8550	8550	8550	8550	8550	8550	8550	8550	8550	8550	8550	8550	8550	8550	8550	8550	8550	8550	8550	8343	8550	8550	8550	8550	8550	8550	8550	8550	8767	8767	8550	8767	8767	8550	8550	8550	8550	8550	8550	8550	8550	8550	8550	8550	8550	8550	8550	8550	8550	8550	8550	8550	8550	8550	8550	8550	8550	8550	8550	8550	8550	8550	8550	8550	8550	8550	8550	8550	8550	8550	8550	8550	8550	8550	8550	8767	8550	8550	8550	8550	8550	8550	8343	3510	3510	3475	3475	3440	3440	3440	3440	3440	3440	3440	3440	3440	3440	3406	3406	3406	3406	3373	3373	3341	3341	3341	3341	3341	3341	3341	3341	3341	3309	3309	3309	3309	3309	3309	3309	3309	3309	3309	3309	3309	3309	3277	3309	3309	3309	3309	3309	3309	3309	3309	3309	3309	3309	3309	3309	3309	3309	3341	3341	3341	3341	3373	3373	3373	3373	3373	3406	3406	3406	3406	3406	3406	3406	3406	3406	3440	3406	3373	3373	3373	3341	3341	3341	0	0	8767	8767	8550	8550	8767	8767	8767	8767	8767	8767	8995	8995	8995	8767	8767	8767	8767	8995	8995	9235	9235	9235	9235	9235	5202	5202	8995	8995	8995	8995	8995	8995	8995	8995	5364	5282	5282	5282	5202	5202	5202	5202	5202	5202	5202	5202	5202	5202	5202	5202	5202	9235	9235	8995	8995	5282	5282	5282	5282	8767	8767	8767	8550	8550	8550	8767	8550	8767	8767	8767	8767	8550	8550	8550	8550	8550	8343	8550	8550	8343	8343	8343	5364	5364	5364	5364	5202	5202	5202	5125	4977	5050	5050	5050	8767	8767	5202	5125	5125	5282	5282	5282	5282	5282	8343	5125	5050	5125	5125	5125	5282	5202	5202	8995	8767	8767	8767	8550	5125	5125	5125	5125	5125	5125	8767	8550	8550	8550	8343	8550	5125	5050	5050	5125	5202	5125	5125	8767	8767	8767	8767	8767	8767	8767	8550	8767	8995	8767	8767	8767	8767	8550	8550	8550	8550	8550	8550	8550	8550	8550	8767	8767	8767	8767	8767	8767	8767	8767	8767	8767	8767	0	0	0	0	0	0	2993	2967	2967	2942	2917	2893	2869	2869	2845	2845	2822	2822	2822	2822	2822	2799	2777	2777	2754	2733	2711	2711	2669	2669	2649	2649	2649	2649	2609	2589	2589	2589	2589	2589	2570	2570	2570	2570	2570	2570	2551	2551	2570	2570	2570	2532	2532	2514	2496	2478	2478	2478	2460	2443	2460	2460	2460	2460	2460	2460	2426	2409	2409	2376	1706	1706	1706	1706	1706	1698	1706	1698	1706	1698	1698	1698	1698	1698	1698	1698	1690	1690	0	0	0	0	0	0	0	0	0	0	0	0	0	0	0	0	0	0	0	0	0	0	0	0	0	0	0	0	0	0	0	0	0	0	0	0	0	0	0
0	0	0	0	0	0	0	0	0	0	0	1385	1385	1385	1390	1396	1402	1407	1413	1419	1425	1425	1431	1431	1431	1437	1443	1449	1455	1461	1467	1473	1480	1480	1486	1492	1492	1499	1499	1506	1512	1519	1525	1525	1525	1532	1525	1525	1532	1532	1532	1532	1539	0	0	0	0	5282	5282	5282	5282	5282	5282	5364	5282	5282	5364	5364	5364	5364	5364	5448	5448	5448	5448	5448	5448	5448	0	0	0	0	0	0	0	0	0	0	0	0	0	0	0	0	0	0	0	0	0	0	0	0	0	0	0	0	0	0	0	0	0	0	0	0	0	0	0	0	0	0	0	0	0	0	0	0	0	0	0	0	0	0	0	0	0	0	0	0	0	0	0	0	0	0	0	0	0	0	0	0	0	0	0	8343	8343	8343	8146	8343	8550	8550	8550	8550	8550	8767	8995	8767	8767	8767	8767	8767	8767	8550	8550	8550	8550	8550	8550	8550	8550	8550	8550	8550	8550	8550	8550	8550	8550	8550	8550	8550	8550	8550	8550	8550	8550	8550	8550	8550	8550	8550	8550	8550	8550	8550	8550	8550	8550	8550	8550	8550	8550	8550	8550	8550	8550	8550	8550	8550	8550	8550	8550	8550	8550	8550	8550	8550	8550	8550	8550	8550	8550	8550	8550	8343	8550	8550	8550	8550	8550	8550	8550	8550	8550	8550	8550	8550	8550	8767	8767	8767	8550	8550	8550	8550	8343	8343	3510	3510	3475	3475	3440	3440	3440	3440	3440	3406	3406	3406	3406	3406	3406	3406	3373	3373	3373	3373	3341	3341	3341	3341	3341	3341	3341	3341	3341	3341	3341	3309	3309	3309	3309	3309	3309	3309	3309	3309	3309	3309	3309	3309	3309	3309	3309	3309	3309	3309	3309	3309	3309	3309	3309	3309	3309	3309	3341	3341	3341	3341	3373	3373	3373	3373	3406	3406	3406	3406	3406	3406	3406	3406	3406	3406	3440	3406	3373	3373	3373	3373	3373	3373	0	0	8550	8550	8550	8550	8767	8767	8767	8767	8995	8995	8995	9235	9489	5282	5282	5282	5282	8995	8995	9235	9235	9235	9489	9235	5202	5202	5125	5125	5125	5125	8995	8995	8995	5282	5282	5202	5202	5202	5202	5202	5202	5202	5202	5202	5202	5202	5202	5202	5202	5202	5202	5202	5282	5282	5282	5282	5282	5282	5282	5282	5202	5364	5364	5202	5202	5125	5125	5125	5125	5202	5282	5202	5202	5282	5202	5202	8343	8343	8343	8343	5282	5282	5282	5364	5364	5364	5202	5202	5202	5125	5050	5125	5125	5050	5050	5050	5125	5125	5125	5202	5202	5202	5202	5202	5125	5125	5050	5125	5125	5125	5125	5202	5202	5202	5202	5125	5125	5125	5125	5125	5125	5125	5125	5125	5125	8767	5050	5050	5125	5125	5202	5125	5125	5125	5202	5202	5202	8767	8767	8767	8767	8767	8767	8767	8767	8767	8767	8767	8767	8767	8550	8767	8550	8550	8550	8550	8550	8550	8550	8550	8767	8767	8767	8995	8995	8767	8767	8767	8767	8767	8767	0	0	0	0	0	0	2993	2993	2967	2942	2942	2893	2893	2869	2869	2845	2822	2822	2822	2822	2822	2799	2799	2777	2754	2733	2711	2690	2669	2669	2669	2669	2649	2649	2609	2609	2609	2589	2589	2589	2551	2551	2551	2551	2551	2551	2551	2551	2570	2551	2551	2532	2514	2496	2496	2478	2478	2478	2443	2443	2443	2443	2443	2443	2443	2443	2409	2409	2392	1698	1698	1706	1706	1706	1706	1698	1698	1698	1698	1698	1698	1698	1698	1690	1698	1698	1690	1690	0	0	0	0	0	0	0	0	0	0	0	0	0	0	0	0	0	0	0	0	0	0	0	0	0	0	0	0	0	0	0	0	0	0	0	0	0	0	0
0	0	0	0	0	0	0	0	0	0	0	1385	1385	1385	1390	1396	1402	1407	1413	1419	1425	1425	1431	1431	1437	1437	1449	1455	1461	1467	1467	1473	1480	1480	1486	1492	1492	1499	1499	1506	1512	1519	1519	1525	1525	1532	1532	1532	1532	1532	1539	1539	0	0	0	0	0	5282	5282	5282	5282	5282	5282	5364	5364	5364	5364	5364	5364	5364	5364	5448	5448	5448	5448	5535	5535	5535	5535	0	0	0	0	0	0	0	0	0	0	0	0	0	0	0	0	0	0	0	0	0	0	0	0	0	0	0	0	0	0	0	0	0	0	0	0	0	0	0	0	0	0	0	0	0	0	0	0	0	0	0	0	0	0	0	0	0	0	0	0	0	0	0	0	0	0	0	0	0	0	0	0	0	8343	8343	8343	8343	8343	8343	8550	8550	8550	8550	8550	8767	8995	8767	8995	8767	8767	8767	8767	8767	8767	8550	8767	8550	8767	8550	8550	8767	8550	8550	8767	8767	8550	8550	8550	8550	8550	8550	8550	8550	8550	8550	8550	8550	8550	8550	8550	8767	8550	8550	8550	8550	8550	8550	8550	8550	8550	8550	8550	8550	8550	8550	8550	8550	8550	8550	8550	8550	8550	8550	8550	8550	8550	8550	8550	8550	8550	8550	8550	8550	8550	8550	8550	8550	8550	8550	8550	8550	8550	8550	8550	8550	8550	8550	8550	8767	8767	8767	8550	8550	8550	8550	8550	8550	3510	3510	3475	3475	3440	3440	3440	3440	3440	3406	3406	3406	3406	3406	3406	3406	3373	3373	3373	3373	3373	3341	3341	3341	3341	3341	3341	3341	3309	3309	3341	3309	3309	3309	3341	3309	3309	3309	3309	3309	3309	3309	3309	3309	3309	3309	3309	3309	3309	3309	3309	3309	3309	3309	3309	3309	3309	3309	3341	3341	3341	3341	3341	3373	3373	3373	3406	3406	3406	3406	3406	3406	3406	3406	3406	3406	3406	3406	3341	3341	3341	3341	3341	3341	0	0	5364	5364	5364	5364	5364	5364	5364	5364	5364	5364	5364	5364	5282	5282	5282	5282	5282	5202	5202	5202	5282	5282	9489	5282	5202	5202	5125	5125	5125	5125	5202	5202	5202	5202	5202	5125	5125	5125	5125	5202	5202	5202	5202	5202	5202	5202	5202	5202	5202	5202	5202	5202	5282	5282	5282	5282	5282	5282	5282	5282	5202	5364	5202	5202	5202	5202	5202	5202	5125	5202	5282	5282	5202	5282	5202	5202	5202	5202	5125	5125	5202	5202	5282	5282	5282	5282	5202	5202	5202	5202	5125	5125	5125	5125	5125	5125	5125	5125	5125	5125	5202	5202	5202	5202	5202	5125	5125	5125	5125	5125	5125	5202	5202	5202	5202	5202	5202	5125	5125	5125	5125	5125	5125	5125	5125	5125	5125	5125	5125	5125	5202	5125	5125	5125	5125	5125	5125	8767	8767	8767	8767	8767	8550	8550	8550	8767	8767	8767	8767	8767	8550	8767	8767	8550	8550	8550	8550	8550	8550	8550	8767	8767	8767	8995	8767	8767	8767	8767	8767	8550	8550	0	0	0	0	0	0	2993	2967	2942	2942	2942	2893	2893	2893	2869	2869	2845	2822	2822	2822	2822	2799	2799	2777	2754	2733	2711	2690	2690	2669	2669	2669	2649	2649	2629	2609	2589	2589	2570	2570	2551	2551	2551	2551	2551	2551	2551	2551	2551	2532	2532	2514	2496	2496	2478	2478	2460	2460	2426	2426	2426	2426	2426	2443	2409	2409	2392	2392	2376	2359	1698	1698	1698	1698	1706	1698	1698	1698	1706	1698	1698	1698	1698	1698	1698	1698	1690	1690	0	0	0	0	0	0	0	0	0	0	0	0	0	0	0	0	0	0	0	0	0	0	0	0	0	0	0	0	0	0	0	0	0	0	0	0	0	0	0
0	0	0	0	0	0	0	0	0	0	0	1385	1385	1385	1396	1396	1402	1407	1413	1413	1419	1425	1431	1431	1437	1437	1449	1455	1461	1467	1467	1473	1480	1480	1480	1492	1492	1492	1499	1506	1506	1519	1525	1525	1532	1532	1525	1525	1532	1539	1539	1539	0	0	0	0	0	5282	5282	5282	5282	5282	5282	5364	5282	5364	5364	5282	5364	5364	5448	5448	5448	5535	5535	5535	5535	5626	5535	5535	0	0	0	0	0	0	0	5535	5626	5815	5815	0	0	0	0	0	0	0	0	0	0	0	0	0	0	0	0	0	0	0	0	0	0	0	0	0	0	0	0	0	0	0	0	0	0	0	0	0	0	0	0	0	0	0	0	0	0	0	0	0	0	0	0	0	0	0	0	0	0	0	0	0	8343	8343	8343	8343	8343	8343	8343	8343	8550	8550	8550	8550	8767	8550	8767	8767	8550	8550	8550	8550	8550	8550	8550	8550	8550	8550	8550	8550	8550	8550	8550	8550	8767	8550	8767	8550	8550	8550	8550	8550	8550	8550	8550	8767	8767	8767	8767	8767	8550	8550	8550	8550	8550	8550	8550	8550	8550	8550	8550	8550	8550	8550	8550	8550	8550	8550	8550	8550	8550	8550	8550	8550	8550	8550	8550	8550	8550	8550	8550	8550	8343	8343	8550	8550	8550	8550	8550	8550	8550	8550	8550	8550	8550	8550	8550	8550	8550	8550	8550	8550	8550	8550	8550	8550	0	3510	3475	3475	3475	3440	3440	3440	3406	3406	3406	3406	3406	3406	3406	3373	3373	3373	3373	3341	3341	3341	3309	3309	3309	3309	3309	3309	3309	3309	3341	3341	3309	3309	3341	3341	3309	3309	3309	3309	3309	3309	3309	3309	3309	3309	3309	3309	3309	3309	3309	3309	3309	3309	3309	3309	3309	3309	3309	3341	3341	3341	3373	3373	3373	3406	3406	3406	3406	3406	3406	3406	3406	3406	3406	3406	3406	3406	3341	3341	3341	3341	3341	3341	5364	5364	5364	5364	5364	5364	5364	5364	5364	5364	5364	5364	5364	5364	5364	5282	5282	5282	5282	5202	5202	5202	5282	5282	5202	5202	5202	5202	5125	5125	5125	5125	5125	5125	5125	5125	5125	5125	5125	5125	5125	5125	5125	5125	5125	5202	5202	5202	5202	5202	5202	5202	5125	5202	5202	5282	5282	5282	5364	5282	5282	5364	5282	5364	5282	5202	5202	5202	5202	5202	5202	5282	5282	5282	5282	5202	5202	5202	5202	5202	5125	5202	5282	5202	5282	5282	5282	5282	5202	5202	5202	5202	5125	5202	5125	5125	5125	5125	5125	5125	5202	5202	5202	5202	5125	5125	5125	5125	5125	5125	5125	5202	5202	5202	5202	5202	5202	5125	5125	5125	5125	5125	5125	5125	5125	5125	5125	5125	5125	5125	5125	5125	5202	5125	5125	5125	5050	5050	5050	8767	8767	8767	8767	8550	8550	8550	8550	8767	8767	8767	8767	8767	8767	8767	8767	8550	8550	8550	8550	8550	8550	8550	8767	8767	8767	8767	8767	8995	8767	8995	8767	8767	8550	0	0	0	0	0	0	2993	2993	2967	2967	2942	2893	2893	2869	2869	2845	2845	2822	2822	2822	2822	2799	2799	2754	2754	2733	2711	2690	2690	2690	2669	2669	2649	2649	2609	2609	2589	2589	2570	2570	2570	2570	2551	2551	2551	2551	2551	2551	2532	2514	2514	2496	2496	2478	2478	2460	2443	2443	2426	2426	2409	2409	2409	2426	2426	2392	2376	2376	2359	2359	1690	1698	1698	1698	1706	1698	1698	1698	1698	1698	1698	1698	1690	1690	1698	1698	1690	1690	0	0	0	0	0	0	0	0	0	0	0	0	0	0	0	0	0	0	0	0	0	0	0	0	0	0	0	0	0	0	0	0	0	0	0	0	0	0	0
0	0	0	0	0	0	0	0	0	0	0	1385	1385	1390	1402	1402	1402	1407	1407	1413	1419	1419	1425	1431	1437	1443	1449	1461	1461	1467	1467	1473	1480	1480	1480	1486	1492	1492	1499	1506	1512	1519	1525	1525	1532	1532	1525	1525	1539	1539	1539	1539	0	0	0	0	0	5282	5282	5282	5282	5282	5364	5364	5282	5364	5364	5282	5282	5282	5364	5448	5448	5535	5535	5535	5626	5626	5626	5626	5626	0	0	0	0	0	5535	5535	5535	5626	5626	0	0	0	0	0	0	0	0	0	0	0	0	0	0	0	0	0	0	0	0	0	0	0	0	0	0	0	0	0	0	0	0	0	0	0	0	0	0	0	0	0	0	0	0	0	0	0	4977	4977	0	0	0	0	0	0	0	0	0	0	0	0	8343	8343	8343	8146	8343	8343	8343	8343	8146	8343	8550	8550	8550	8550	8550	8767	8550	8550	8550	8767	8550	8550	8550	8550	8550	8550	8550	8550	8550	8550	8550	8550	8550	8550	8550	8550	8550	8550	8550	8550	8550	8550	8550	8767	8767	8767	8767	8767	8550	8550	8550	8550	8550	8550	8550	8550	8550	8550	8343	8550	8550	8550	8550	8550	8550	8550	8550	8550	8550	8550	8550	8550	8550	8550	8550	8550	8550	8550	8550	8343	8343	8343	8550	8550	8550	8550	8550	8550	8550	8550	8550	8550	8550	8550	8550	8550	8550	8550	8550	8550	8550	8550	8550	8550	0	3510	3440	3440	3440	3440	3440	3440	3406	3406	3406	3406	3406	3406	3373	3373	3373	3373	3341	3341	3341	3341	3309	3309	3309	3309	3309	3309	3309	3309	3341	3341	3309	3309	3309	3309	3309	3309	3309	3309	3309	3309	3309	3309	3309	3309	3309	3309	3309	3309	3309	3309	3309	3309	3309	3309	3309	3309	3341	3341	3341	3341	3341	3373	3373	3406	3406	3373	3406	3406	3406	3406	3406	3406	3406	3406	3406	3406	3373	3341	3341	3309	3309	0	5282	5364	5282	5282	5364	5364	5364	5364	5364	5364	5364	5364	5364	5364	5364	5282	5282	5282	5282	5202	5202	5202	5282	5282	5202	5202	5202	5202	5125	5125	5125	5125	5125	5125	5125	5125	5125	5125	5050	5050	5050	5125	5125	5125	5125	5125	5202	5202	5202	5202	5202	5202	5202	5202	5282	5282	5282	5282	5282	5282	5282	5282	5202	5202	5202	5202	5202	5202	5202	5282	5202	5202	5202	5282	5202	5202	5202	5202	5202	5202	5125	5202	5202	5202	5202	5202	5202	5202	5202	5202	5202	5202	5125	5125	5125	5125	5125	5125	5125	5125	5202	5202	5202	5202	5125	5125	5125	5125	5125	5125	5125	5202	5202	5202	5202	5202	5202	5125	5125	5125	5125	5125	5125	5125	5125	5125	5125	5125	5125	5125	5125	5125	5125	5125	5125	5125	5050	5050	5050	8767	8767	8767	8767	8550	8550	8550	8550	8550	8767	8550	8767	8767	8767	8767	8767	8767	8767	8767	8767	8550	8767	8767	8767	8767	8767	8995	8995	8995	8767	8767	8550	8550	0	0	0	0	0	0	0	0	2993	2967	2967	2942	2893	2893	2893	2869	2845	2822	2822	2822	2822	2822	2822	2799	2777	2754	2733	2711	2690	2690	2690	2669	2669	2649	2649	2609	2589	2589	2589	2570	2570	2551	2551	2570	2551	2551	2551	2532	2532	2532	2514	2496	2496	2478	2478	2460	2460	2443	2426	2392	2392	2392	2376	2376	2359	2359	2359	2359	2359	2327	2327	2252	2223	2181	2181	2181	1698	1698	1690	1690	1690	1690	1690	1690	1690	1698	1698	1690	1690	0	0	0	0	0	0	0	0	0	0	0	0	0	0	0	0	0	0	0	0	0	0	0	0	0	0	0	0	0	0	0	0	0	0	0	0	0	0	0
0	0	0	0	0	0	0	0	0	0	0	1385	1390	1396	1402	1402	1407	1407	1413	1413	1419	1419	1425	1431	1437	1443	1443	1461	1467	1467	1473	1480	1480	1480	1486	1492	1492	1499	1506	1506	1519	1519	1525	1532	1532	1539	1525	1525	1532	1539	1539	1539	0	0	0	0	0	5282	5282	5282	5282	5282	5364	5364	5282	5282	5282	5282	5282	5282	5282	5448	5448	5448	5535	5535	5535	5626	5626	5626	5626	0	0	0	0	0	5535	5535	5448	5535	5535	0	0	0	0	0	0	0	0	0	0	0	0	0	0	0	0	0	0	0	0	0	0	0	0	0	0	0	0	0	0	0	0	0	0	0	0	0	0	0	0	0	0	0	0	5202	5125	5202	5202	5282	5282	5282	5282	0	0	0	0	0	0	0	0	0	0	8550	8343	8343	8343	8343	8343	8146	8146	8146	8550	8343	8550	8550	8550	8767	8767	8767	8767	8767	8767	8550	8550	8550	8550	8343	8343	8343	8550	8550	8550	8550	8550	8550	8550	8550	8550	8550	8550	8550	8550	8550	8550	8767	8767	8767	8767	8767	8767	8550	8550	8550	8550	8550	8550	8550	8550	8550	8343	8550	8550	8550	8550	8550	8550	8550	8550	8550	8550	8550	8550	8550	8550	8550	8550	8550	8550	8550	8550	8550	8343	8343	8550	8550	8550	8550	8550	8550	8550	8550	8550	8550	8550	8550	8550	8550	8550	8550	8550	8550	8550	8767	8767	0	0	0	3440	3440	3440	3440	3440	3440	3406	3406	3406	3406	3406	3406	3373	3373	3373	3373	3341	3341	3341	3309	3309	3309	3309	3309	3309	3309	3309	3309	3309	3341	3309	3309	3309	3309	3309	3309	3309	3309	3309	3309	3309	3309	3309	3309	3277	3277	3309	3309	3309	3309	3309	3309	3309	3309	3309	3309	3341	3341	3341	3341	3373	3373	3373	3373	3406	3406	3406	3406	3406	3406	3406	3406	3406	3406	3406	3406	3373	3341	3341	3309	3309	0	5282	5282	5282	5282	5282	5282	5282	5282	5364	5364	5364	5364	5364	5364	5364	5282	5282	5282	5282	5202	5202	5202	5282	5282	5202	5202	5202	5202	5125	5125	5125	5125	5125	5125	5125	5125	5125	5125	5050	5050	5125	5125	5125	5125	5125	5125	5125	5125	5202	5202	5202	5202	5202	5202	5202	5202	5202	5282	5282	5282	5282	5282	5282	5282	5202	5202	5202	5202	5202	5282	5282	5282	5282	5282	5202	5202	5202	5202	5202	5202	5125	5202	5202	5202	5202	5202	5202	5202	5202	5202	5202	5202	5125	5125	5125	5125	5202	5125	5125	5125	5125	5125	5125	5125	5125	5125	5125	5125	5125	5125	5125	5125	5125	5125	5202	5202	5202	5125	5125	5125	5125	5125	5125	5125	5125	5125	5125	5125	5125	5125	5125	5125	5125	5125	5125	5125	5125	5050	5050	8767	8767	8767	8767	8550	8550	8550	8550	8550	8767	8550	8550	8767	8550	8550	8767	8767	8550	8767	8767	8767	8767	8767	8995	8767	8995	8995	8995	8995	8767	8550	8343	8343	0	0	0	0	0	0	0	0	2993	2993	2942	2942	2893	2893	2893	2869	2845	2822	2822	2822	2822	2822	2822	2799	2799	2733	2733	2711	2711	2690	2690	2690	2669	2649	2649	2609	2589	2589	2570	2570	2570	2551	2551	2551	2551	2551	2551	2532	2532	2532	2496	2496	2478	2478	2478	2443	2443	2426	2426	2392	2376	2359	2343	2359	2359	2343	2297	2312	2312	2312	2266	2237	2208	2181	2181	2181	2181	2167	2140	2127	2114	2114	2088	1698	1698	1698	1690	1690	1690	0	0	0	0	0	0	0	0	0	0	0	0	0	0	0	0	0	0	0	0	0	0	0	0	0	0	0	0	0	0	0	0	0	0	0	0	0	0	0
0	0	0	0	0	0	0	0	0	0	0	1390	1390	1402	1402	1402	1402	1407	1407	1413	1419	1425	1431	1431	1437	1449	1449	1455	1461	1467	1473	1480	1480	1480	1480	1486	1492	1499	1499	1506	1512	1519	1525	1532	1532	1539	1532	1532	1539	1539	1539	1539	0	0	0	0	0	5364	5282	5282	5282	5282	5282	5282	5282	5282	5282	5282	5282	5282	5282	5364	5448	5448	5448	5535	5535	5535	5535	5535	5626	0	0	0	0	0	5448	5448	5364	5448	5448	0	0	0	0	0	0	0	0	0	0	0	0	0	0	5448	5448	0	0	0	0	0	0	0	0	0	0	0	0	0	0	0	0	0	0	0	0	0	0	0	0	5282	5202	5282	5202	5282	5202	5282	5202	5202	5282	5282	5282	5282	5282	5282	5282	0	0	0	0	0	0	8343	8343	8146	8343	8343	8146	8146	8146	8146	8343	8343	8550	8550	8550	8767	8767	8767	8767	8767	8767	8767	8767	8550	8550	8550	8343	8343	8343	8550	8550	8550	8550	8550	8550	8550	8995	8550	8550	8550	8550	8550	8767	8767	8767	8995	8767	8767	8767	8550	8550	8550	8343	8550	8550	8550	8550	8343	8343	8550	8550	8550	8550	8550	8550	8550	8550	8550	8550	8550	8550	8550	8550	8550	8550	8550	8550	8550	8550	8550	8343	8343	8550	8550	8550	8550	8550	8550	8550	8550	8550	8550	8550	8550	8550	8550	8550	8550	8550	8550	8767	8767	8767	0	0	3440	3440	3440	3440	3440	3440	3406	3406	3406	3406	3406	3373	3373	3373	3373	3373	3373	3341	3341	3309	3309	3309	3309	3309	3309	3309	3309	3309	3309	3341	3341	3309	3341	3309	3309	3309	3309	3309	3309	3309	3309	3309	3309	3309	3277	3309	3309	3309	3309	3309	3309	3309	3309	3309	3309	3309	3309	3341	3341	3341	3341	3341	3341	3373	3373	3373	3406	3406	3406	3406	3406	3440	3406	3406	3440	3406	3406	3373	3341	3341	3309	3309	0	5282	5202	5202	5202	5282	5282	5282	5364	5364	5364	5364	5364	5364	5364	5364	5282	5282	5282	5282	5282	5282	5202	5202	5202	5202	5125	5202	5125	5125	5125	5125	5125	5125	5125	5125	5050	5125	5125	5050	5050	5050	5050	5125	5125	5125	5125	5125	5125	5125	5125	5125	5125	5202	5202	5202	5202	5202	5202	5202	5202	5202	5202	5202	5202	5202	5202	5202	5282	5364	5364	5282	5282	5282	5282	5202	5202	5202	5202	5202	5202	5202	5202	5202	5202	5202	5282	5202	5202	5202	5202	5202	5125	5125	5125	5125	5125	5125	5125	5125	5125	5125	5125	5125	5125	5125	5125	5125	5125	5125	5125	5125	5125	5125	5202	5125	5125	5125	5125	5125	5125	5125	5125	5125	5125	5125	5125	5125	5125	5202	5125	5125	5202	5125	5125	5125	5050	5050	5050	8995	8767	8767	8767	8767	8767	8550	8550	8767	8767	8767	8550	8550	8767	8550	8550	8550	8550	8550	8550	8550	8767	8767	8767	8995	8995	8995	8995	8995	8995	8767	8550	8343	8343	0	0	0	0	0	0	0	0	2993	2993	2942	2942	2917	2893	2869	2869	2845	2822	2822	2822	2822	2799	2799	2799	2799	2733	2733	2733	2711	2690	2690	2690	2669	2649	2649	2609	2589	2589	2589	2570	2570	2551	2551	2551	2551	2551	2551	2532	2532	2514	2496	2496	2478	2478	2460	2443	2443	2426	2409	2376	2359	2343	2343	2312	2312	2312	2281	2281	2266	2266	2252	2237	2208	2194	2181	2181	2181	2167	2140	2127	2114	2088	2088	2076	1698	1698	1690	1681	1681	0	0	0	0	0	0	0	0	0	0	0	0	0	0	0	0	0	0	0	0	0	0	0	0	0	0	0	0	0	0	0	0	0	0	0	0	0	0	0
0	0	0	0	0	0	0	0	0	0	0	1390	1390	1402	1407	1407	1407	1413	1419	1413	1419	1425	1431	1431	1437	1443	1449	1455	1467	1467	1473	1473	1480	1480	1480	1486	1492	1499	1499	1506	1512	1519	1525	1532	1532	1539	1532	1539	1539	1539	1546	1560	1560	0	0	0	0	5364	5282	5282	5282	5282	5282	5282	5364	5282	5282	5282	5282	5282	5282	5282	5364	5364	5364	5448	5448	5535	5535	5535	0	0	0	0	0	0	5282	5282	5282	5202	5202	5202	0	0	0	0	0	0	0	0	0	5364	5364	5364	5364	5448	5448	0	0	0	0	0	0	0	0	0	0	0	0	0	0	0	0	0	0	0	0	0	0	0	5202	5282	5282	5282	5282	5282	5282	5282	5202	5202	5282	5282	5282	5282	5282	5282	5282	5282	5282	5202	5282	5282	5282	8343	8343	8146	8146	8146	8146	8146	8146	8146	8550	8550	8550	8550	8550	8767	8767	8767	8767	8767	8767	8550	8550	8550	8550	8550	8343	8550	8550	8550	8550	8550	8550	8550	8550	8767	8995	8767	8767	8767	8767	8550	8767	8767	8767	8767	8767	8767	8550	8550	8550	8550	8343	8550	8550	8550	8550	8343	8343	8550	8550	8550	8550	8550	8550	8550	8550	8550	8550	8550	8550	8550	8550	8550	8550	8550	8550	8550	8550	8550	8343	8343	8550	8550	8550	8550	8550	8550	8550	8550	8550	8550	8550	8550	8550	8550	8550	8550	8550	8550	8550	8767	8767	0	0	3440	3440	3440	3440	3406	3406	3406	3406	3406	3406	3373	3373	3406	3373	3373	3373	3373	3373	3341	3341	3309	3309	3309	3309	3309	3309	3309	3309	3341	3341	3341	3341	3309	3309	3309	3309	3309	3309	3309	3309	3309	3309	3309	3309	3277	3309	3309	3309	3309	3309	3309	3309	3309	3309	3309	3309	3309	3341	3341	3341	3341	3341	3341	3373	3373	3373	3373	3406	3406	3406	3406	3406	3406	3406	3406	3406	3406	3341	3309	3309	3309	3309	0	5282	5282	5202	5202	5282	5202	5282	5282	5282	5282	5364	5282	5282	5364	5364	5282	5282	5282	5282	5282	5282	5202	5282	5202	5202	5202	5125	5125	5125	5050	5050	5050	5050	5050	5050	5050	5050	5050	5050	5050	5050	5050	5125	5125	5125	5125	5125	5050	5050	5050	5125	5125	5125	5125	5125	5202	5202	5202	5202	5202	5202	5202	5202	5202	5282	5202	5202	5282	5282	5364	5282	5282	5282	5282	5202	5202	5202	5202	5202	5202	5202	5202	5282	5202	5202	5282	5202	5202	5202	5202	5125	5125	5125	5125	5125	5125	5125	5125	5125	5125	5125	5125	5125	5125	5125	5125	5125	5125	5125	5125	5125	5125	5125	5125	5125	5125	5125	5125	5125	5125	5125	5125	5125	5125	5202	5202	5202	5202	5202	5202	5202	5125	5125	5125	5050	5050	5050	5050	8995	8767	8767	8767	8767	8767	8767	8767	8767	8767	8767	8767	8550	8550	8550	8550	8550	8550	8550	8767	8550	8767	8767	8767	8995	8995	8995	8995	8995	8767	8767	8550	8343	8146	8146	0	0	0	0	0	0	0	3019	2993	2967	2942	2917	2893	2893	2869	2845	2822	2822	2822	2822	2799	2799	2799	2799	2733	2711	2711	2711	2690	2690	2669	2669	2649	2649	2609	2609	2609	2589	2570	2570	2551	2551	2551	2551	2551	2551	2532	2532	2514	2496	2478	2478	2460	2443	2443	2426	2426	2359	2343	2343	2327	2312	2297	2312	2297	2281	2266	2266	2252	2237	2223	2194	2181	2181	2181	2167	2167	2140	2127	2088	2088	2088	2076	2076	1698	1690	1681	1681	0	0	0	0	0	0	0	0	0	0	0	0	0	0	0	0	0	0	0	0	0	0	0	0	0	0	0	0	0	0	0	0	0	0	0	0	0	0	0
0	0	0	0	0	0	0	0	0	0	0	1385	1396	1402	1407	1407	1407	1413	1419	1413	1419	1425	1431	1431	1437	1443	1449	1455	1461	1467	1467	1473	1480	1480	1480	1486	1486	1492	1499	1506	1519	1519	1525	1532	1532	1539	1539	1539	1539	1539	1546	1553	1553	0	0	0	0	0	5364	5282	5282	5282	5282	5282	5282	5282	5282	5282	5282	5282	5282	5282	5364	5364	5364	5448	5448	5448	5535	0	0	0	0	0	0	5282	5282	5282	5202	5202	5202	5202	0	0	0	0	0	0	0	0	5364	5364	5364	5364	5364	5364	5364	5364	0	0	0	0	0	0	0	0	0	0	0	0	0	0	0	0	0	0	0	0	0	0	5202	5282	5282	5282	5282	5282	5282	5282	5282	5282	5282	5364	5282	5282	5282	5282	5282	5282	5282	5202	5202	5202	5282	5282	8343	8343	8146	8146	8146	8146	8146	8146	8550	8550	8767	8550	8767	8767	8767	8767	8767	8767	8767	8767	8550	8550	8550	8550	8550	8550	8550	8550	8550	8550	8550	8550	8550	8550	8767	8767	8767	8767	8767	8550	8550	8767	8767	8767	8550	8550	8550	8550	8550	8550	8550	8550	8550	8550	8550	8550	8550	8550	8550	8550	8550	8550	8550	8550	8550	8550	8550	8550	8550	8550	8550	8550	8550	8550	8550	8550	8550	8550	8343	8343	8550	8550	8550	8550	8550	8550	8550	8550	8550	8550	8550	8550	8550	8550	8550	8550	8550	8550	8550	8550	8550	0	0	3440	3440	3440	3440	3406	3406	3406	3406	3406	3406	3373	3406	3406	3373	3373	3373	3373	3341	3341	3341	3341	3309	3309	3309	3309	3309	3309	3309	3341	3341	3341	3341	3341	3309	3309	3309	3309	3309	3309	3277	3309	3309	3309	3309	3277	3309	3309	3309	3309	3309	3309	3309	3309	3309	3309	3309	3309	3341	3341	3341	3341	3341	3341	3373	3373	3373	3373	3373	3406	3406	3406	3406	3406	3406	3406	3373	3373	3341	3341	3341	3309	3309	0	5282	5282	5202	5202	5202	5202	5202	5202	5282	5282	5282	5364	5282	5364	5364	5364	5364	5282	5282	5282	5282	5282	5282	5202	5202	5125	5125	5050	5125	5050	5050	5050	5050	5050	5050	5050	5050	5050	5050	5050	5050	5050	5050	5050	5050	5050	5050	5050	5050	5050	5050	5125	5125	5125	5125	5125	5202	5202	5202	5282	5202	5202	5202	5202	5202	5202	5202	5282	5202	5282	5282	5282	5282	5282	5202	5202	5202	5202	5202	5202	5202	5202	5202	5202	5202	5202	5202	5202	5202	5202	5125	5125	5125	5125	5125	5125	5125	5125	5125	5125	5125	5125	5125	5125	5125	5125	5125	5125	5125	5125	5202	5202	5125	5125	5125	5125	5125	5125	5125	5125	5125	5125	5125	5125	5202	5202	5202	5202	5202	5202	5202	5202	5125	5125	5050	5050	5050	5050	8767	8767	8550	8550	8550	8550	8550	8550	8550	8550	8550	8550	8550	8550	8550	8550	8550	8550	8550	8767	8550	8767	8550	8767	8995	8995	8995	8995	8995	8995	8767	8550	8550	8550	8146	0	0	0	0	0	0	0	3019	2993	2993	2942	2917	2893	2893	2869	2845	2822	2822	2822	2822	2799	2799	2799	2799	2733	2733	2711	2711	2669	2669	2669	2649	2649	2629	2589	2589	2589	2570	2570	2570	2551	2551	2551	2551	2551	2551	2532	2514	2514	2496	2478	2460	2443	2443	2426	2426	2409	2359	2343	2327	2312	2312	2297	2281	2281	2281	2252	2252	2223	2223	2208	2194	2181	2167	2167	2167	2153	2140	2127	2088	2076	2076	2076	2076	2076	1698	1681	1681	0	0	0	0	0	0	0	0	0	0	0	0	0	0	0	0	0	0	0	0	0	0	0	0	0	0	0	0	0	0	0	0	0	0	0	0	0	0	0
0	0	0	0	0	0	0	0	0	0	0	1390	1396	1402	1402	1402	1407	1407	1413	1413	1419	1425	1431	1431	1437	1443	1449	1449	1455	1461	1467	1473	1480	1480	1480	1486	1492	1499	1506	1512	1519	1519	1525	1532	1532	1539	1539	1539	1539	1546	1546	1553	1560	1560	0	0	0	0	5364	5282	5282	5282	5282	5282	5282	5282	5282	5282	5282	5282	5364	5282	5364	5282	5364	5364	5364	5364	0	0	0	0	0	0	0	5282	5282	5282	5282	5202	5282	5282	5282	5282	0	0	0	0	0	5448	5448	5448	5448	5364	5282	5364	5364	5282	5202	5202	0	0	0	0	0	0	0	0	0	0	0	0	0	0	0	0	0	0	0	5202	5282	5364	5364	5282	5282	5282	5282	5282	5282	5282	5282	5364	5364	5364	5282	5282	5282	5282	5202	5202	5282	5282	5282	5125	5050	5050	8343	8343	8146	8146	8343	8343	8343	8550	8550	8343	8343	8550	8550	8550	8767	8767	8550	8550	8550	8550	8550	8550	8343	8343	8343	8550	8550	8550	8550	8550	8550	8550	8550	8550	8550	8767	8767	8550	8550	8550	8550	8550	8550	8550	8550	8550	8550	8550	8550	8550	8550	8550	8550	8550	8550	8550	8550	8550	8550	8550	8550	8550	8550	8767	8767	8767	8767	8550	8550	8550	8550	8550	8550	8550	8550	8550	8550	8343	8550	8550	8550	8550	8550	8550	8550	8550	8550	8550	8550	8550	8550	8550	8550	8550	8550	8550	8343	8343	8343	8343	0	3440	3440	3440	3406	3406	3406	3406	3406	3406	3406	3406	3406	3406	3373	3373	3373	3373	3341	3341	3341	3309	3309	3309	3309	3309	3309	3309	3309	3341	3309	3309	3341	3309	3309	3309	3309	3309	3309	3309	3309	3309	3309	3309	3309	3277	3309	3309	3309	3309	3309	3309	3309	3309	3309	3309	3309	3309	3341	3341	3341	3341	3341	3341	3341	3373	3373	3373	3373	3406	3406	3406	3406	3406	3406	3373	3373	3373	3341	3341	3309	3309	3309	0	5202	5202	5202	5282	5282	5282	5282	5282	5282	5282	5282	5282	5282	5364	5364	5364	5364	5282	5282	5282	5282	5282	5202	5202	5125	5125	5125	5050	5050	5050	4977	5050	5050	5050	5050	5050	5050	5050	5050	5050	5050	5050	5050	5050	5050	5050	5050	5050	4977	4977	4977	5050	5050	5125	5125	5202	5282	5202	5125	5282	5202	5202	5202	5202	5202	5202	5202	5282	5282	5282	5282	5282	5282	5282	5202	5202	5202	5202	5202	5282	5202	5202	5202	5202	5202	5202	5202	5202	5202	5202	5202	5125	5125	5125	5125	5125	5125	5125	5050	5125	5125	5125	5125	5125	5125	5125	5125	5125	5125	5125	5125	5125	5125	5125	5125	5125	5125	5125	5125	5125	5125	5125	5125	5125	5202	5202	5202	5202	5202	5202	5202	5202	5125	5125	5125	5050	5125	5125	5125	8550	8550	8550	8550	8550	8550	8550	8550	8550	8550	8550	8550	8550	8550	8550	8550	8550	8550	8550	8550	8550	8550	8550	8995	8995	8995	8995	8995	8995	8767	8550	8550	8550	0	0	0	0	0	0	0	0	3019	2993	2967	2917	2917	2893	2869	2845	2822	2822	2799	2799	2799	2799	2799	2799	2799	2711	2711	2711	2690	2669	2669	2649	2649	2629	2629	2629	2589	2589	2570	2570	2570	2551	2551	2551	2551	2551	2551	2532	2532	2514	2496	2478	2460	2443	2443	2426	2409	2376	2343	2343	2327	2312	2312	2281	2281	2281	2266	2252	2237	2208	2208	2194	2181	2181	2167	2167	2167	2153	2140	2127	2088	2076	2076	2076	2076	2076	1681	1681	1681	0	0	0	0	0	0	0	0	0	0	0	0	0	0	0	0	0	0	0	0	0	0	0	0	0	0	0	0	0	0	0	0	0	0	0	0	0	0	0
0	0	0	0	0	0	0	0	0	0	0	1390	1396	1402	1407	1407	1407	1413	1419	1413	1419	1425	1431	1431	1437	1443	1449	1449	1455	1467	1467	1473	1473	1480	1480	1486	1486	1499	1506	1512	1519	1519	1525	1532	1532	1532	1532	1539	1539	1539	1539	1553	1567	1567	1567	0	0	0	0	5282	5282	5282	5282	5282	5282	5282	5282	5282	5282	5364	5364	5364	5364	5282	5364	5282	5282	5282	0	0	0	0	0	0	0	5282	5282	5282	5282	5202	5282	5282	5282	5282	0	0	0	0	0	5448	5364	5364	5364	5364	5364	5364	5364	5364	5282	5202	5202	0	0	0	0	0	0	0	0	0	0	0	0	0	0	0	0	0	0	5282	5282	5364	5364	5364	5282	5282	5282	5282	5282	5282	5282	5282	5364	5364	5364	5282	5282	5282	5202	5202	5282	5202	5202	5050	5050	8550	8550	8550	8550	8146	8146	8550	8550	8550	8550	8550	8550	8550	8550	8767	8767	8767	8550	8550	8550	8550	8550	8550	8550	8550	8343	8343	8550	8550	8343	8343	8343	8550	8767	8550	8550	8550	8767	8550	8550	8550	8550	8550	8550	8550	8550	8550	8550	8550	8550	8550	8550	8550	8550	8550	8550	8550	8550	8550	8550	8550	8550	8550	8550	8767	8550	8550	8550	8550	8550	8550	8550	8550	8550	8550	8550	8550	8550	8550	8550	8550	8550	8550	8550	8550	8550	8550	8550	8550	8550	8550	8550	8550	8550	8550	8550	8550	8343	8343	8343	8343	0	3440	3406	3406	3406	3406	3406	3406	3406	3406	3406	3406	3406	3406	3373	3373	3373	3373	3341	3341	3309	3309	3309	3309	3309	3309	3309	3309	3309	3341	3309	3309	3309	3309	3309	3309	3309	3309	3309	3309	3309	3277	3309	3309	3309	3309	3309	3309	3309	3309	3309	3309	3309	3309	3309	3309	3309	3309	3341	3341	3341	3341	3341	3341	3341	3373	3373	3373	3373	3406	3406	3406	3406	3406	3406	3373	3373	3373	3373	3341	3341	3341	3341	0	5282	5364	5202	5202	5282	5282	5202	5282	5282	5282	5282	5282	5282	5364	5364	5364	5364	5282	5364	5364	5282	5282	5282	5282	5202	5125	5125	5050	5050	5050	5050	5050	5050	5050	5050	5050	5050	5050	5050	5050	5050	5050	5050	5050	5050	5050	5050	4977	4977	4977	5050	5050	5050	5125	5125	5202	5282	5202	5125	5202	5202	5202	5202	5202	5202	5202	5202	5282	5282	5282	5282	5282	5282	5202	5202	5202	5202	5202	5202	5202	5125	5282	5282	5125	5202	5202	5202	5202	5202	5202	5202	5125	5125	5125	5125	5125	5125	5125	5125	5125	5125	5125	5202	5125	5125	5125	5125	5125	5202	5125	5125	5125	5125	5125	5125	5125	5125	5125	5125	5125	5125	5125	5125	5125	5202	5202	5202	5202	5202	5202	5202	5202	5125	5125	5125	5125	5125	5125	5202	5202	5202	8550	8550	8767	8767	8767	8767	8550	8550	8550	8550	8550	8550	8550	8550	8550	8550	8550	8343	8550	8550	8550	8995	8995	8995	8995	8767	8767	8767	8550	8550	8550	0	0	0	0	0	0	0	0	0	0	2967	2917	2917	2917	2893	2845	2845	2822	2822	2822	2799	2799	2799	2799	2777	2711	2711	2690	2690	2669	2649	2649	2649	2629	2629	2629	2589	2589	2570	2570	2570	2551	2551	2551	2551	2551	2551	2532	2532	2496	2460	2460	2426	2426	2426	2409	2409	2392	2343	2327	2327	2297	2297	2281	2266	2266	2252	2237	2223	2208	2194	2194	2181	2181	2167	2167	2167	2153	2140	2127	2088	2076	2076	2076	2076	2076	2063	1681	1681	2063	0	0	0	0	0	0	0	0	0	0	0	0	0	0	0	0	0	0	0	0	0	0	0	0	0	0	0	0	0	0	0	0	0	0	0	0	0	0
0	0	0	0	0	0	0	0	0	0	0	1396	1402	1402	1402	1402	1407	1413	1419	1419	1425	1425	1431	1431	1437	1443	1449	1449	1455	1461	1467	1473	1473	1473	1480	1486	1492	1499	1506	1519	1519	1519	1532	1532	1532	1532	1532	1539	1539	1546	1546	1553	1553	1567	1567	0	0	0	5282	5202	5282	5282	5282	5282	5282	5282	5282	5282	5282	5282	5282	5282	5282	5282	5282	5202	5202	5282	0	0	0	0	0	0	0	5282	5364	5282	5282	5202	5282	5282	5364	5364	0	0	0	0	0	0	5448	5448	5448	5364	5364	5448	5448	5364	5282	5202	5202	0	0	0	0	0	0	0	0	0	0	0	0	0	0	0	0	0	5282	5282	5282	5364	5364	5282	5282	5282	5282	5282	5282	5282	5282	5282	5364	5364	5364	5282	5282	5282	5202	5202	5202	5125	5050	5050	5050	8550	8767	8550	8550	8550	8550	8550	8550	8550	8550	8550	8550	8550	8550	8767	8767	8767	8550	8550	8550	8550	8550	8550	8343	8343	8343	8343	8343	8550	8550	8550	8550	8767	8767	8767	8767	8767	8767	8550	8550	8550	8550	8550	8550	8550	8550	8550	8550	8550	8550	8550	8550	8550	8550	8767	8550	8550	8550	8550	8550	8550	8550	8343	8343	8550	8550	8550	8550	8550	8550	8550	8550	8550	8550	8550	8550	8550	8550	8343	8550	8550	8550	8550	8550	8550	8550	8550	8550	8550	8550	8550	8550	8550	8550	8550	8550	8550	8343	8343	8343	8343	0	3440	3406	3406	3406	3406	3406	3406	3406	3406	3406	3406	3406	3406	3406	3373	3373	3373	3341	3341	3309	3309	3309	3309	3309	3341	3309	3309	3309	3341	3309	3341	3309	3309	3309	3309	3309	3309	3309	3309	3309	3277	3309	3309	3309	3309	3309	3277	3309	3309	3309	3309	3309	3309	3309	3309	3309	3309	3341	3341	3341	3341	3341	3341	3341	3341	3341	3341	3373	3406	3406	3406	3406	3406	3406	3373	3373	3373	3373	3373	3373	3373	3373	0	5364	5364	5282	5282	5282	5282	5202	5282	5282	5282	5282	5282	5282	5364	5364	5364	5364	5364	5364	5364	5282	5282	5282	5202	5202	5125	5125	5050	5050	5050	5050	5050	5050	5050	5050	5050	5050	5050	5050	5050	5050	5050	5050	5050	5050	5050	5050	4977	4977	4977	5050	5050	5050	5125	5125	5125	5202	5202	5125	5202	5202	5202	5202	5125	5202	5202	5202	5282	5202	5282	5282	5282	5202	5202	5202	5202	5202	5202	5202	5125	5125	5202	5282	5125	5125	5202	5125	5202	5125	5125	5125	5125	5125	5125	5125	5125	5125	5125	5125	5125	5125	5125	5202	5125	5125	5202	5125	5125	5202	5125	5125	5125	5125	5125	5125	5125	5125	5125	5125	5125	5125	5125	5125	5125	5202	5202	5202	5202	5202	5202	5202	5125	5125	5050	5125	5125	5125	5125	5202	5125	5125	8767	8767	8767	8767	8767	8767	8767	8767	8550	8550	8550	8550	8550	8550	8343	8343	8343	8343	8343	8343	8343	8767	8995	8995	8995	8767	8767	8767	8550	8550	8550	0	0	0	0	0	0	0	0	2967	2967	2942	2942	2917	2917	2893	2869	2845	2822	2822	2822	2799	2799	2799	2799	2777	2711	2711	2690	2669	2669	2649	2649	2649	2629	2629	2609	2589	2589	2589	2570	2570	2551	2551	2551	2532	2532	2532	2532	2532	2478	2443	2426	2409	2409	2426	2392	2376	2359	2343	2327	2312	2297	2297	2281	2266	2266	2252	2237	2223	2208	2208	2194	2181	2181	2167	2167	2167	2153	2140	2127	2076	2076	2076	2076	2076	2076	2076	2063	2051	2051	0	0	0	0	0	0	0	0	0	0	0	0	0	0	0	0	0	0	0	0	0	0	0	0	0	0	0	0	0	0	0	0	0	0	0	0	0	0
0	0	0	0	0	0	0	0	0	0	0	1390	1396	1402	1402	1407	1407	1413	1419	1419	1425	1425	1431	1431	1437	1443	1449	1449	1449	1455	1467	1473	1473	1480	1480	1486	1492	1499	1506	1512	1519	1519	1525	1532	1532	1532	1532	1539	1539	1546	1546	1546	1546	0	0	0	0	0	5202	5202	5202	5282	5282	5282	5282	5282	5282	5364	5282	5282	5364	5364	5282	5282	5202	5202	5202	5125	5125	0	0	0	0	0	0	0	5364	5282	5282	5282	5282	5364	5364	5364	0	0	0	0	0	5364	5448	5364	5364	5364	5364	5282	5282	5282	5282	5202	5125	5125	0	0	0	0	0	0	0	0	0	0	0	0	0	0	0	0	5282	5364	5364	5364	5364	5364	5282	5282	5282	5282	5282	5282	5282	5282	5364	5282	5282	5282	5282	5202	5202	5202	5125	5125	5202	5202	5202	5202	8767	8550	8550	8550	8550	8550	8550	8550	8550	8550	8550	8550	8767	8550	8550	8550	8550	8550	8550	8550	8550	8550	8550	8550	8343	8550	8550	8550	8550	8550	8550	8767	8767	8767	8767	8767	8767	8550	8550	8550	8550	8550	8550	8550	8550	8550	8550	8550	8550	8550	8550	8550	8767	8767	8767	8550	8550	8550	8550	8550	8550	8550	8550	8550	8550	8550	8550	8550	8550	8550	8550	8550	8550	8550	8550	8550	8550	8343	8343	8343	8550	8550	8550	8550	8550	8550	8550	8550	8550	8550	8550	8550	8767	8550	8550	8550	8343	8343	8343	8146	8146	3440	3406	3406	3406	3406	3406	3406	3406	3406	3406	3406	3406	3406	3406	3373	3373	3373	3341	3341	3341	3341	3309	3309	3309	3309	3309	3309	3309	3309	3309	3309	3309	3309	3309	3309	3309	3309	3309	3309	3309	3277	3309	3309	3309	3277	3309	3309	3309	3309	3309	3309	3309	3309	3309	3309	3277	3309	3341	3341	3341	3341	3341	3341	3341	3341	3341	3341	3341	3373	3406	3406	3406	3373	3373	3373	3373	3373	3373	3373	3341	3373	3373	0	5364	5364	5282	5282	5282	5282	5282	5282	5282	5282	5282	5282	5282	5364	5364	5282	5282	5282	5364	5364	5202	5282	5202	5202	5125	5125	5050	5050	5050	5050	5050	5050	5050	5050	5050	5050	5050	5050	5050	5050	5050	5050	5050	5050	5050	5050	5050	5050	5050	5050	5050	5050	5050	5125	5125	5202	5202	5202	5125	5202	5202	5202	5202	5125	5202	5202	5202	5125	5202	5282	5282	5282	5282	5202	5202	5202	5202	5202	5202	5125	5125	5125	5125	5125	5125	5202	5125	5125	5125	5125	5125	5125	5125	5125	5125	5125	5125	5125	5125	5202	5202	5202	5202	5202	5202	5202	5125	5125	5202	5125	5125	5125	5125	5125	5125	5125	5125	5125	5125	5125	5125	5125	5125	5125	5125	5202	5202	5202	5202	5202	5202	5202	5125	5125	5125	5125	5125	5125	5125	5125	5202	5202	8767	8767	8767	8767	8767	8767	8767	8767	8550	8550	8550	8550	8343	8343	8343	8343	8343	8343	8343	8343	8767	8767	8767	8767	8767	8767	8767	8550	8550	8550	8550	0	0	0	0	0	0	0	2967	2942	2942	2942	2917	2917	2893	2869	2845	2845	2822	2822	2799	2799	2799	2777	2777	2711	2711	2690	2669	2669	2649	2649	2649	2629	2629	2629	2609	2609	2589	2570	2570	2570	2551	2551	2532	2532	2532	2514	2478	2460	2443	2426	2409	2392	2392	2376	2359	2343	2327	2297	2297	2297	2297	2281	2266	2266	2237	2237	2223	2208	2194	2194	2181	2181	2167	2153	2153	2153	2140	2127	2114	2076	2076	2076	2076	2076	2063	2063	2063	2027	2027	0	0	0	0	0	0	0	0	0	0	0	0	0	0	0	0	0	0	0	0	0	0	0	0	0	0	0	0	0	0	0	0	0	0	0	0	0
0	0	0	0	0	0	0	0	0	0	0	1390	1396	1402	1402	1407	1407	1407	1413	1413	1425	1425	1431	1431	1437	1443	1449	1449	1449	1455	1467	1473	1480	1480	1486	1486	1492	1499	1506	1512	1519	1525	1525	1532	1532	1539	1532	1539	1546	1546	1546	1546	1546	0	0	0	0	0	5282	5282	5282	5282	5282	5282	5282	5282	5282	5364	5282	5282	5364	5282	5282	5202	5202	5202	5125	5125	5125	0	0	0	0	0	0	0	5282	5282	5282	5282	5282	5364	5364	5364	0	0	0	0	0	5364	5448	5364	5364	5282	5282	5364	5448	5282	5282	5202	5202	5202	0	0	0	0	0	0	0	0	0	0	0	0	0	0	0	0	0	5364	5282	5364	5364	5364	5282	5282	5282	5282	5282	5282	5282	5282	5282	5282	5282	5282	5282	5202	5125	5125	5125	5050	5202	5125	5125	5125	8767	8550	8550	8550	8550	8550	8550	8550	8550	8550	8550	8550	8550	8550	8550	8550	0	0	0	8550	8343	8343	8343	8343	8343	8550	8550	8550	8550	8550	8550	8767	8995	8995	8767	8767	8767	8767	8550	8550	8550	8550	8550	8550	8550	8550	8550	8550	8550	8550	8550	8550	8767	8550	8550	8550	8550	8550	8550	8550	8550	8550	8550	8550	8550	8550	8550	8550	8550	8550	8550	8550	8550	8550	8550	8550	8550	8343	8343	8550	8550	8550	8550	8550	8550	8550	8550	8550	8550	8550	8550	8550	8550	8550	8550	8550	8343	8343	8343	8146	8146	3440	3440	3406	3406	3406	3406	3406	3373	3406	3406	3406	3406	3406	3406	3373	3373	3341	3341	3341	3341	3341	3309	3309	3309	3341	3309	3309	3309	3309	3309	3309	3309	3309	3309	3309	3309	3309	3309	3309	3309	3309	3309	3277	3309	3277	3277	3277	3277	3277	3277	3277	3309	3309	3309	3309	3277	3277	3341	3341	3341	3341	3341	3341	3341	3341	3341	3373	3373	3373	3406	3406	3406	3373	3373	3373	3373	3373	3373	3373	3373	3373	3373	5364	5282	5282	5282	5282	5282	5282	5202	5282	5282	5282	5282	5282	5282	5282	5364	5282	5282	5202	5202	5202	5202	5202	5202	5202	5125	5125	5050	5050	5050	5050	5050	5050	5050	5050	5050	5050	5050	5050	5050	5050	5125	5050	5050	5050	5050	5050	5050	5050	5050	5050	5050	5125	5125	5125	5125	5202	5202	5202	5125	5202	5202	5202	5202	5125	5202	5202	5125	5125	5202	5202	5202	5282	5282	5202	5202	5202	5202	5202	5202	5125	5125	5125	5125	5125	5125	5125	5125	5202	5202	5125	5125	5125	5125	5125	5125	5125	5125	5125	5125	5125	5202	5202	5202	5202	5202	5202	5125	5125	5202	5125	5125	5125	5125	5125	5125	5125	5125	5125	5125	5125	5125	5125	5125	5125	5125	5125	5125	5125	5125	5125	5125	5125	5125	5125	5125	5050	5125	5125	5202	5202	5202	5202	8767	8767	8767	8767	8767	8767	8550	8550	8550	8550	8550	8550	8343	8343	8550	8550	8343	8550	8343	8343	8767	8767	8767	8767	8767	8767	8767	8550	8550	8550	8550	0	0	0	0	0	0	0	2942	2942	2942	2917	2917	2917	2893	2869	2869	2845	2845	2822	2822	2799	2799	2777	2754	2733	2711	2690	2669	2669	2649	2649	2649	2649	2629	2629	2609	2609	2589	2589	2589	2570	2570	2551	2551	2532	2514	2460	2443	2426	2426	2409	2392	2392	2376	2359	2359	2343	2312	2297	2297	2297	2297	2281	2281	2266	2252	2237	2223	2208	2208	2194	2181	2181	2167	2167	2153	2153	2140	2127	2114	2088	2076	2076	2076	2076	2063	2063	2076	2063	2063	0	0	0	0	0	0	0	0	0	0	0	0	0	0	0	0	0	0	0	0	0	0	0	0	0	0	0	0	0	0	0	0	0	0	0	0	0
0	0	0	0	0	0	0	0	0	0	0	1390	1396	1402	1402	1407	1407	1407	1413	1413	1425	1431	1431	1437	1437	1443	1449	1449	1449	1455	1455	1467	1473	1486	1492	1499	1499	1506	1512	1519	1525	1525	1525	1532	1532	1539	1532	1539	1539	1546	1546	1546	1546	0	0	0	0	5282	5282	5282	5282	5282	5282	5282	5282	5282	5364	5364	5282	5282	5364	5282	5282	5282	5202	5202	5202	5202	5202	0	0	0	0	0	0	0	5282	5282	5282	5282	5282	5364	5448	5448	0	0	0	0	0	0	5535	5364	5364	5282	5364	5364	5364	5282	5282	5202	5202	5202	5202	0	0	0	0	0	0	0	0	0	0	0	0	0	0	0	0	5364	5364	5364	5364	5282	5282	5282	5282	5282	5282	5282	5282	5282	5282	5282	5282	5282	5282	5202	5202	5202	5125	5125	5202	5202	5125	5125	8550	8550	8550	8343	8343	8550	8550	8550	8550	8550	8550	8767	8767	8550	8550	8550	8767	8767	0	0	8343	8343	8146	8343	8343	8343	8550	8550	8550	8550	8550	8767	8767	8767	8767	8767	8767	8767	8550	8550	8550	8550	8550	8550	8550	8550	8550	8550	8550	8550	8767	8767	8550	8550	8550	8550	8550	8550	8550	8550	8550	8550	8550	8550	8550	8550	8550	8550	8343	8343	8550	8550	8550	8550	8550	8550	8550	8343	8343	8343	8550	8550	8550	8550	8550	8550	8550	8550	8550	8550	8550	8550	8550	8550	8550	8550	8550	8343	8343	8146	8146	3440	3440	3406	3406	3406	3406	3406	3406	3406	3406	3406	3406	3406	3406	3373	3373	3341	3341	3341	3341	3309	3341	3309	3309	3341	3309	3309	3309	3309	3309	3309	3309	3309	3309	3309	3309	3309	3309	3309	3309	3309	3309	3309	3309	3277	3277	3277	3277	3277	3277	3277	3309	3309	3309	3309	3277	3309	3309	3341	3341	3341	3341	3341	3341	3341	3341	3341	3373	3373	3406	3406	3406	3406	3373	3373	3373	3373	3373	3373	3373	3373	3373	5364	5364	5364	5282	5282	5282	5282	5202	5282	5282	5282	5282	5282	5282	5282	5125	5125	5125	5202	5125	5202	5202	5202	5202	5202	5125	5125	5050	5050	5050	5050	5050	5050	5050	5050	5050	5050	5050	5050	5050	5125	5125	5050	5050	5050	5050	5050	5050	5050	5050	5050	5125	5125	5125	5125	5125	5202	5202	5125	5125	5202	5202	5125	5125	5125	5125	5202	5125	5125	5202	5202	5202	5282	5282	5202	5202	5202	5202	5202	5202	5125	5202	5202	5125	5125	5125	5125	5125	5125	5125	5125	5202	5202	5202	5125	5125	5125	5125	5125	5125	5125	5202	5202	5202	5202	5202	5125	5125	5125	5202	5125	5125	5125	5125	5125	5125	5125	5125	5125	5125	5125	5125	5125	5125	5125	5125	5125	5125	5125	5125	5125	5125	5125	5125	5050	5125	5050	5050	5125	5125	5125	5202	5202	0	8767	8767	8767	8767	8767	8767	8767	8550	8550	8550	8550	8343	8343	8550	8550	8550	8550	8550	8343	8767	8767	8767	8767	8767	8767	8767	8550	8550	8550	8550	0	0	0	0	0	0	0	2942	2942	2942	2917	2917	2917	2893	2893	2869	2845	2845	2822	2822	2822	2799	2754	2754	2733	2733	2690	2669	2669	2649	2649	2649	2649	2649	2629	2629	2609	2589	2589	2589	2570	2570	2570	2551	2496	2496	2443	2426	2426	2426	2409	2392	2376	2376	2359	2343	2327	2312	2297	2297	2297	2297	2281	2281	2266	2237	2223	2223	2208	2208	2194	2181	2181	2167	2153	2153	2140	2140	2127	2101	2088	2076	2076	2076	2076	2063	2063	2076	2076	2076	0	0	0	0	0	0	0	0	0	0	0	0	0	0	0	0	0	0	0	0	0	0	0	0	0	0	0	0	0	0	0	0	0	0	0	0	0
0	0	0	0	0	0	0	0	0	0	0	1390	1396	1402	1402	1402	1407	1407	1413	1419	1425	1431	1437	1437	1437	1449	1449	1449	1449	1455	1455	1467	1473	1486	1486	1492	1506	1506	1519	1519	1525	1525	1525	1525	1532	1532	1532	1539	1546	1546	1546	1546	0	0	0	0	0	5282	5282	5282	5282	5282	5364	5364	5282	5282	5448	5364	5364	5282	5364	5282	5282	5202	5202	5202	5202	5202	5125	5125	0	0	0	0	0	5282	5282	5282	5282	5282	5364	5364	5626	5626	0	0	0	0	0	0	5535	5448	5364	5364	5282	5364	5282	5282	5282	5202	5202	5202	5202	0	0	0	0	0	0	0	0	0	0	0	0	0	0	0	0	0	5364	5364	5364	5282	5282	5282	5282	5282	5282	5282	5282	5282	5282	5282	5282	5282	5282	5282	5282	5282	5202	5202	5202	5202	5202	5202	8550	8550	8550	8343	8343	8343	8550	8550	8550	8550	8550	8550	8767	8550	8550	8550	8550	8767	0	0	0	0	8550	8550	8550	8550	8550	8550	8550	8550	8550	8550	8550	8550	8550	8550	8550	8550	8550	8550	8550	8550	8550	8550	8550	8550	8550	8550	8550	8550	8767	8767	8550	8550	8550	8550	8550	8550	8550	8550	8550	8550	8550	8550	8550	8550	8550	8550	8343	8343	8550	8550	8550	8550	8550	8550	8550	8343	8343	8343	8550	8550	8550	8550	8550	8767	8550	8550	8550	8550	8550	8550	8550	8550	8550	8550	8550	8343	8343	8343	8343	0	3406	3406	3406	3406	3406	3406	3406	3406	3406	3406	3406	3406	3406	3373	3373	3341	3341	3309	3341	3309	3341	3341	3341	3341	3309	3309	3309	3309	3309	3309	3309	3309	3309	3309	3309	3309	3309	3309	3309	3309	3309	3309	3309	3277	3277	3277	3277	3277	3277	3309	3309	3309	3309	3309	3309	3309	3341	3341	3341	3341	3341	3341	3341	3341	3341	3373	3373	3373	3406	3406	3406	3406	3373	3373	3373	3373	3373	3373	3309	3309	3373	5364	5282	5282	5282	5282	5282	5282	5202	5282	5282	5282	5282	5282	5282	5282	5125	5125	5125	5125	5125	5125	5202	5202	5202	5125	5125	5050	5125	5050	5050	5050	5050	5050	5050	5050	5050	5050	5050	5050	5050	5050	5050	5050	5050	5050	5050	5050	5050	5050	5050	5125	5125	5125	5125	5125	5125	5125	5125	5125	5125	5125	5125	5125	5125	5125	5125	5125	5125	5125	5202	5202	5202	5282	5202	5202	5202	5125	5125	5125	5202	5125	5125	5202	5125	5125	5125	5125	5125	5125	5125	5125	5125	5202	5202	5125	5202	5202	5202	5202	5202	5202	5202	5202	5202	5202	5202	5202	5125	5202	5202	5125	5125	5125	5125	5125	5125	5125	5125	5125	5125	5125	5125	5125	5125	5125	5125	5125	5125	5125	5125	5125	5125	5125	5125	5125	5125	5125	5050	5050	5050	5050	0	0	0	8767	8767	8767	8767	8767	8767	8767	8550	8550	8550	8550	8550	8343	8550	8550	8550	8550	8550	8343	8767	8767	8767	8767	8767	8767	8767	8550	8550	8550	8550	0	0	0	0	0	0	0	2942	2942	2917	2917	2917	2917	2893	2893	2869	2845	2845	2822	2822	2822	2799	2754	2754	2733	2733	2711	2669	2669	2669	2669	2649	2649	2649	2629	2629	2609	2609	2589	2589	2570	2570	2551	2551	2496	2496	2426	2426	2409	2409	2409	2376	2376	2359	2359	2343	2327	2312	2297	2297	2297	2297	2281	2266	2252	2237	2237	2223	2208	2208	2194	2194	2181	2167	2153	2153	2140	2140	2127	2114	2101	2088	2076	2076	2076	2063	2063	2076	2063	2063	0	0	0	0	0	0	0	0	0	0	0	0	0	0	0	0	0	0	0	0	0	0	0	0	0	0	0	0	0	0	0	0	0	0	0	0	0
0	0	0	0	0	0	0	0	0	0	0	1396	1396	1402	1402	1402	1407	1407	1413	1413	1425	1431	1437	1437	1443	1449	1449	1449	1449	1455	1455	1467	1480	1480	1492	1499	1506	1506	1512	1512	1525	1525	1525	1525	1532	1539	1539	1539	1546	1546	1546	1546	0	0	0	5282	5282	5282	5282	5202	5282	5282	5282	5282	5282	5282	5364	5364	5282	5282	5364	5282	5282	5202	5202	5202	5202	5125	5125	5125	0	0	0	0	0	5282	5282	5282	5282	5282	5364	5364	5626	5626	0	0	0	0	0	0	5364	5364	5364	5282	5282	5364	5364	5282	5282	5282	5202	5282	5282	0	0	0	0	0	0	0	0	0	0	0	0	0	0	0	0	0	5364	5282	5282	5282	5282	5282	5282	5282	5282	5282	5282	5282	5282	5282	5282	5282	5282	5282	5282	5202	5125	5125	5202	5202	5202	5125	5125	8550	8343	8343	8343	8343	8550	8550	8550	8550	8550	8550	8550	8550	8550	8550	8550	0	0	0	0	0	8550	8550	8550	8550	8550	8550	8343	8343	8550	8550	8550	8550	8550	8550	8550	8767	8550	8550	8550	8550	8550	8550	8550	8550	8550	8550	8550	8550	8550	8767	8767	8550	8550	8550	8550	8550	8550	8550	8550	8550	8550	8550	8550	8550	8550	8550	8343	8343	8343	8343	8550	8550	8343	8550	8550	8343	8343	8343	8550	8550	8550	8550	8550	8767	8550	8550	8550	8550	8550	8550	8767	8550	8550	8550	8550	8550	8550	8550	8550	0	3406	3406	3440	3406	3406	3406	3373	3373	3406	3406	3406	3406	3406	3373	3373	3341	3341	3309	3341	3309	3341	3309	3341	3341	3309	3309	3309	3309	3309	3309	3309	3309	3309	3309	3309	3309	3309	3309	3309	3309	3309	3309	3309	3309	3309	3277	3277	3277	3277	3309	3309	3309	3309	3309	3309	3309	3341	3341	3341	3373	3341	3341	3341	3341	3341	3373	3373	3373	3373	3373	3406	3406	3373	3373	3373	3373	3373	3373	3341	3341	3341	5448	5364	5282	5282	5282	5282	5202	5202	5282	5282	5202	5282	5202	5282	5125	5125	5125	5125	5125	5125	5202	5202	5202	5202	5202	5202	5125	5125	5050	5125	5050	5050	5050	5050	5050	5050	5050	5050	5050	5050	5050	5050	5050	5050	5050	5050	5050	5050	5050	5050	5050	5125	5125	5125	5125	5125	5125	5125	5125	5125	5202	5202	5125	5125	5125	5125	5202	5125	5125	5125	5202	5202	5202	5202	5202	5125	5125	5125	5125	5202	5125	5125	5125	5125	5125	5125	5125	5125	5125	5125	5125	5125	5202	5202	5202	5202	5202	5202	5202	5202	5202	5202	5202	5202	5202	5202	5125	5125	5125	5202	5125	5125	5125	5125	5125	5125	5125	5125	5125	5125	5125	5125	5125	5125	5125	5125	5125	5125	5125	5125	5125	5125	5125	5125	5125	5125	5125	5125	5050	5050	5050	0	0	0	0	0	8767	8767	8767	8767	8767	8550	8550	8550	8550	8550	8343	8550	8550	8550	8550	8550	8550	8767	8767	8767	8767	8767	8767	8767	8550	8550	8550	8550	0	0	0	0	0	0	2993	2967	2942	2917	2917	2917	2893	2893	2869	2845	2845	2822	2822	2822	2799	2777	2754	2733	2733	2733	2711	2669	2669	2669	2669	2649	2649	2649	2649	2629	2609	2609	2589	2589	2570	2570	2551	2551	2514	2478	2426	2409	2409	2409	2392	2376	2359	2359	2359	2343	2343	2327	2312	2297	2297	2281	2281	2281	2252	2252	2237	2237	2208	2223	2208	2194	2194	2167	2153	2153	2140	2127	2114	2114	2101	2088	2076	2076	2076	2063	2063	2063	2063	2063	0	0	0	0	0	0	0	0	0	0	0	0	0	0	0	0	0	0	0	0	0	0	0	0	0	0	0	0	0	0	0	0	0	0	0	0	0
0	0	0	0	0	0	0	0	0	0	0	1396	1402	1402	1402	1407	1407	1407	1413	1419	1425	1431	1437	1443	1443	1449	1449	1455	1455	1455	1461	1467	1473	1480	1480	1499	1506	1506	1512	1519	1519	1525	1525	1532	1532	1539	1539	1546	1553	1553	0	0	0	0	0	5282	5282	5202	5202	5202	5282	5282	5282	5282	5364	5282	5364	5364	5364	5282	5282	5282	5282	5202	5202	5202	5202	5202	5125	5125	0	0	0	0	0	5202	5282	5282	5282	5282	5282	5282	5535	5535	0	0	0	0	0	5282	5364	5364	5282	5282	5282	5364	5282	5282	5282	5202	5202	5202	5202	0	0	0	0	0	0	0	0	0	0	0	0	0	0	0	0	0	0	5282	5282	5282	5282	5282	5282	5282	5282	5282	5282	5282	5282	5282	5282	5282	5282	5282	5282	5282	5202	5202	5202	5202	5125	5125	5125	8550	8550	8343	8343	8343	8550	8550	8343	8550	8550	8550	8767	8550	8550	8550	0	0	0	0	0	0	0	0	8550	8550	8550	8550	8343	8343	8343	8550	8550	8550	8550	8767	8767	8767	8767	8550	8550	8550	8550	8550	8550	8550	8550	8550	8550	8550	8550	8550	8767	8550	8550	8550	8550	8550	8550	8550	8550	8550	8550	8550	8550	8550	8550	8550	8343	8343	8343	8343	8343	8343	8343	8343	8343	8343	8343	8343	8550	8550	8550	8550	8550	8767	8550	8550	8550	8550	8550	8550	8550	8550	8550	8767	8550	8767	8550	8550	8550	0	3406	3406	3406	3406	3406	3373	3373	3373	3373	3406	3406	3373	3406	3373	3373	3341	3341	3341	3341	3341	3341	3309	3309	3309	3309	3309	3309	3309	3309	3309	3309	3309	3309	3309	3309	3309	3309	3309	3309	3309	3309	3309	3309	3309	3277	3309	3309	3309	3309	3309	3309	3309	3309	3309	3309	3309	3309	3341	3341	3341	3341	3341	3341	3341	3373	3373	3373	3373	3373	3373	3406	3406	3373	3373	3373	3373	3373	3373	3341	3341	3341	5448	5364	5282	5282	5282	5282	5202	5202	5282	5282	5282	5282	5202	5202	5202	5202	5125	5125	5202	5202	5282	5282	5282	5202	5202	5202	5125	5125	5125	5125	5050	5050	5050	5050	5050	5050	5050	5050	5050	5050	5050	5050	5050	5050	5050	5050	5050	5050	5050	5050	5050	5125	5125	5125	5125	5125	5125	5125	5125	5125	5202	5202	5125	5125	5125	5125	5202	5125	5202	5202	5202	5202	5202	5202	5202	5125	5125	5125	5125	5125	5125	5125	5125	5125	5125	5125	5125	5125	5125	5125	5125	5202	5202	5202	5202	5202	5202	5202	5202	5202	5202	5202	5202	5202	5125	5125	5125	5125	5125	5125	5125	5125	5125	5125	5125	5125	5125	5125	5125	5125	5125	5125	5125	5125	5125	5125	5125	5125	5125	5125	5125	5125	5125	5125	5125	5125	5050	5050	5050	5050	5050	0	0	0	0	0	0	8767	8767	8995	8995	8767	8550	8550	8550	8550	8550	8550	8550	8550	8550	8550	8550	8995	8767	8767	8767	8767	8767	8767	8767	8550	8550	8550	0	0	0	0	0	0	2993	2967	2942	2917	2917	2917	2893	2893	2869	2845	2845	2845	2822	2822	2799	2777	2733	2733	2711	2711	2711	2690	2690	2690	2690	2669	2669	2649	2649	2629	2609	2609	2589	2589	2570	2570	2570	2551	2514	2496	2409	2409	2392	2392	2392	2376	2376	2359	2359	2343	2343	2327	2312	2297	2297	2281	2281	2281	2266	2252	2237	2237	2223	2223	2208	2194	2181	2181	2153	2153	2140	2127	2127	2114	2101	2088	2076	2076	2076	2063	2063	2063	2063	2063	0	0	0	0	0	0	0	0	0	0	0	0	0	0	0	0	0	0	0	0	0	0	0	0	0	0	0	0	0	0	0	0	0	0	0	0	0
