0	0	0	0	0	0	0	0	0	0	0	0	1883	1883	1883	1883	1894	1894	1894	1894	1883	1904	1883	1883	1883	1863	1863	1873	1853	1853	0	0	0	0	0	0	0	0	0	0	0	0	0	0	0	0	0	0	0	0	0	0	0	0	0	0	0	0	0	0	0	0	0	0	0	1824	1873	1883	1894	1894	1904	1904	1904	1904	1894	1894	1894	1894	1894	1894	1883	1894	1904	1904	1904	1915	1936	1947	1947	1947	0	0	0	6592	7137	7137	6992	6853	6853	6992	6853	6853	6992	6853	6992	6992	7137	7137	7137	7287	7287	7608	7608	7608	7608	7608	7608	7608	7608	7608	7608	7608	7608	7608	7779	7779	7779	0	0	0	0	0	0	0	8550	8767	8767	8550	8550	8550	8550	8550	8550	8550	8550	8550	8343	8343	8343	8343	8343	8343	8343	8343	8343	8550	8343	8550	8550	8550	8550	8550	8343	8343	8343	8550	8343	8550	8550	8550	8550	8767	8767	8767	8767	8767	8767	8767	8767	8550	8550	8550	8343	8343	8343	8343	8343	8550	8550	8550	8550	8550	8550	8550	8343	8550	8550	8550	8550	8550	8550	8550	8550	8550	8550	8550	8550	8343	8343	8343	8550	8343	8343	8343	8343	8343	8343	8550	8550	8550	8550	8550	8550	8550	8343	8343	8550	8343	8343	8343	8343	8343	8343	8343	8343	8343	8343	8550	8550	8550	8550	8343	8550	8343	8343	8343	8146	8146	8146	8146	8146	8343	8343	8343	8550	8550	8550	8550	8550	8550	8550	8550	8550	8343	8343	8343	8343	8343	8343	8343	8343	8550	8550	8550	8550	8550	8550	8550	0	0	0	0	0	3373	3373	3373	3373	3373	3373	3373	3373	3373	3341	3373	3373	3373	3373	3341	3341	3309	3309	3277	3216	3216	3216	3216	3186	3186	3216	3216	3216	3216	3186	3186	3186	3216	3216	3216	3216	3216	3216	3186	3216	3186	3186	3186	3186	3216	3216	3216	3216	3216	3216	3216	3216	3216	3216	3216	3216	3216	3216	3246	3246	3277	3277	3309	3309	3341	3341	3373	3406	3406	3406	3406	3373	3373	3341	3341	3341	3341	3341	3309	3341	3341	3341	0	0	8995	8767	8767	8767	8767	8767	8767	8767	8767	8767	8767	8767	8767	8767	8767	8767	8767	8767	8767	8767	8767	8767	8767	8767	8550	8550	8550	8550	8550	8550	8550	8550	8550	8550	8550	8550	8550	8550	8550	8550	8767	8767	8767	8550	8550	8767	8550	8767	8550	8550	8550	8767	8550	8767	8550	8550	8550	8550	8550	8550	8550	8550	8550	8550	8550	8550	8550	8550	8550	8550	8550	8550	8550	8550	8550	8550	8550	8343	8343	8343	8343	8343	8343	8343	8550	8550	8550	8550	8550	8550	8550	8343	8343	8343	8343	8550	8550	8550	8550	8550	8767	8767	8767	8767	8767	8767	8767	8767	8767	8767	8550	8550	8550	8550	8343	8343	8343	8343	8550	8550	8550	8550	8550	8550	8550	8550	8550	8550	8550	8550	8550	8550	8550	8550	8550	8550	8550	8550	8550	8550	8550	8550	0	0	0	0	0	0	2799	2777	2777	2754	2754	2733	2711	2711	2690	2690	2669	2649	2629	2609	2609	2589	2589	2570	2570	2551	2551	2532	2532	2514	2496	2496	2478	2460	2460	2443	2443	2443	2426	2409	2409	2392	2376	2376	2359	2359	2343	2343	2343	2343	2343	2327	2327	2327	2327	2327	2312	2312	2312	2312	2297	2297	0	0	0	1519	1512	1512	1519	1519	1519	1519	1519	1519	1519	1519	1519	1519	1512	1506	1499	1499	1492	1492	1492	1492	1486	1486	1486	1480	1480	0	0	0	0	0	0	0	0	0	0	0	0	0	0	0	0	0	0	0	0	0	0	0	0	0	0	0	0	0	0	0	0	0	0	0	0	0	0	0	0
0	0	0	0	0	0	0	0	0	0	0	0	1883	1883	1894	1894	1894	1894	1894	1904	1904	1904	1894	1894	1883	1883	1883	1873	1873	1863	1863	0	0	0	0	0	0	0	0	0	0	0	0	0	0	0	0	0	0	0	0	0	0	0	0	0	0	0	0	0	0	0	0	0	0	0	0	1894	1904	1904	1904	1904	1915	1915	1904	1904	1904	1904	1904	1904	1894	1904	1904	1904	1904	1915	1936	1936	1947	1947	0	0	0	0	7137	7287	7137	6853	6853	6992	6853	6853	6853	6853	6853	6992	7137	7137	7137	7287	7287	7287	7444	7444	7444	7608	7608	7608	7608	7608	7608	7608	7779	7779	7779	7779	7779	0	0	0	0	0	0	0	8767	8767	8767	8550	8550	8767	8550	8550	8550	8550	8550	8550	8550	8343	8343	8343	8343	8343	8343	8343	8343	8343	8550	8550	8550	8550	8550	8550	8550	8550	8343	8550	8550	8550	8550	8767	8550	8767	8767	8767	8767	8767	8767	8550	8767	8550	8550	8550	8343	8550	8550	8343	8343	8550	8550	8550	8550	8550	8550	8343	8343	8343	8550	8550	8550	8550	8550	8550	8550	8550	8550	8550	8550	8550	8550	8550	8550	8343	8343	8343	8343	8343	8343	8343	8343	8343	8343	8343	8343	8343	8343	8343	8343	8343	8343	8343	8343	8343	8343	8343	8343	8343	8343	8550	8550	8550	8550	8343	8550	8550	8343	8343	8146	8343	8146	8146	8146	8343	8343	8343	8550	8550	8550	8550	8550	8550	8550	8550	8550	8550	8343	8343	8343	8343	8550	8550	8550	8550	8550	8550	8550	8550	8550	8550	0	0	0	0	3373	3373	3373	3373	3341	3341	3341	3373	3373	3373	3373	3406	3406	3406	3406	3373	3341	3309	3309	3277	3216	3216	3186	3186	3186	3186	3216	3216	3216	3216	3216	3216	3186	3216	3216	3216	3216	3216	3216	3216	3216	3186	3186	3186	3186	3216	3216	3216	3216	3216	3216	3216	3216	3216	3216	3216	3216	3216	3216	3216	3246	3277	3309	3309	3309	3341	3341	3373	3373	3406	3406	3373	3373	3373	3341	3341	3341	3341	3341	3341	3309	3341	3341	3341	0	8995	8995	8767	8767	8767	8767	8767	8767	8767	8767	8767	8767	8767	8767	8550	8550	8767	8767	8767	8767	8767	8767	8767	8767	8550	8550	8550	8550	8550	8550	8550	8550	8550	8550	8550	8550	8550	8550	8550	8550	8550	8550	8767	8550	8550	8767	8550	8767	8550	8550	8550	8767	8550	8767	8550	8767	8767	8550	8550	8550	8550	8550	8550	8550	8550	8550	8550	8550	8550	8550	8550	8550	8550	8550	8550	8550	8550	8343	8343	8343	8343	8343	8343	8343	8550	8550	8550	8550	8550	8550	8550	8343	8343	8343	8343	8550	8550	8550	8550	8550	8767	8767	8767	8767	8767	8767	8767	8767	8767	8550	8550	8550	8343	8550	8343	8343	8343	8343	8550	8550	8550	8550	8550	8550	8550	8550	8550	8550	8550	8550	8550	8550	8550	8550	8550	8550	8550	8550	8550	8550	8550	8550	0	0	0	0	0	0	2799	2799	2777	2754	2754	2733	2711	2711	2690	2690	2649	2649	2629	2629	2609	2609	2589	2570	2570	2551	2551	2532	2532	2514	2514	2496	2478	2460	2460	2443	2443	2443	2426	2409	2409	2409	2392	2376	2359	2359	2343	2343	2343	2343	2343	2327	2327	2327	2327	2327	2327	2327	2312	2312	2312	2312	2312	0	0	0	1512	1512	1519	1519	1519	1519	1519	1519	1519	1519	1519	1512	1506	1499	1499	1492	1492	1492	1492	1492	1486	1486	1486	1480	1480	0	0	0	0	0	0	0	0	0	0	0	0	0	0	0	0	0	0	0	0	0	0	0	0	0	0	0	0	0	0	0	0	0	0	0	0	0	0	0	0
0	0	0	0	0	0	0	0	0	0	0	0	1883	1894	1894	1894	1904	1904	1904	1904	1904	1915	1904	1894	1894	1894	1894	1883	1883	1863	1863	0	0	0	0	0	0	0	0	0	0	0	0	0	0	0	0	0	0	0	0	0	0	0	0	0	0	0	0	0	0	0	0	0	0	0	0	1873	1873	1904	1904	1915	1915	1915	1915	1915	1915	1915	1925	1915	1915	1915	1915	1915	1915	1925	1936	1947	1958	1958	0	0	0	0	0	7779	7287	7287	6853	6992	6853	6853	6853	6853	6992	6992	7137	7137	7137	7287	7287	7287	7287	7287	7444	7444	7444	7444	7444	7608	7608	7608	7608	7608	7779	7779	7779	7779	0	0	0	0	0	0	8767	8767	8550	8550	8550	8767	8550	8550	8550	8550	8550	8550	8550	8550	8550	8550	8550	8550	8550	8550	8343	8343	8343	8550	8550	8550	8550	8550	8550	8343	8343	8343	8343	8550	8550	8550	8550	8767	8550	8767	8767	8767	8550	8550	8550	8550	8550	8343	8343	8343	8343	8343	8343	8343	8550	8343	8550	8550	8550	8343	8343	8343	8550	8343	8550	8550	8550	8550	8550	8550	8550	8550	8550	8550	8550	8550	8550	8550	8550	8550	8550	8343	8550	8550	8343	8343	8343	8343	8343	8343	8343	8343	8343	8343	8343	8343	8343	8343	8343	8343	8343	8343	8343	8550	8550	8550	8550	8550	8550	8550	8343	8343	8146	8343	8146	8343	8343	8343	8343	8343	8343	8550	8550	8550	8550	8550	8550	8550	8550	8550	8343	8343	8343	8550	8550	8550	8550	8550	8550	8550	8550	8550	8550	8550	0	0	0	3341	3341	3341	3373	3373	3373	3373	3373	3373	3373	3373	3373	3373	3406	3373	3341	3341	3309	3309	3277	3277	3216	3186	3186	3186	3186	3186	3186	3216	3216	3216	3216	3186	3186	3216	3216	3216	3216	3216	3216	3216	3216	3186	3186	3186	3186	3186	3186	3186	3186	3216	3216	3216	3216	3216	3216	3216	3216	3216	3216	3246	3246	3277	3309	3309	3309	3341	3341	3341	3341	3406	3373	3373	3373	3373	3341	3341	3341	3341	3341	3309	3309	3341	3341	3341	0	0	8995	8767	8767	8767	8767	8767	8767	8767	8767	8767	8767	8767	8767	8550	8550	8767	8767	8767	8767	8767	8767	8767	8767	8550	8550	8550	8550	8550	8550	8550	8550	8550	8550	8550	8550	8550	8550	8550	8550	8550	8550	8550	8550	8550	8550	8550	8550	8550	8550	8550	8767	8550	8767	8550	8767	8767	8550	8550	8550	8550	8550	8550	8550	8550	8550	8550	8550	8550	8550	8550	8550	8550	8550	8550	8550	8550	8550	8550	8550	8550	8550	8550	8550	8550	8550	8550	8550	8550	8550	8550	8343	8343	8343	8343	8343	8550	8550	8550	8550	8550	8767	8767	8767	8767	8767	8767	8767	8767	8550	8550	8550	8343	8550	8550	8343	8343	8343	8550	8550	8550	8550	8550	8550	8550	8550	8767	8550	8767	8767	8550	8550	8550	8550	8550	8550	8550	8550	8550	8550	8550	8550	0	0	0	0	0	0	2799	2799	2777	2754	2733	2711	2711	2690	2690	2649	2649	2649	2629	2629	2609	2589	2589	2570	2570	2551	2532	2532	2532	2514	2514	2496	2478	2460	2460	2443	2443	2443	2426	2409	2409	2409	2392	2376	2376	2359	2343	2343	2343	2343	2343	2327	2327	2327	2327	2327	2327	2327	2312	2312	2312	2312	2312	0	0	0	1512	1519	1525	1525	1525	1519	1519	1519	1519	1519	1519	1519	1512	1506	1499	1499	1492	1492	1492	1486	1486	1486	1480	1480	1480	0	0	0	0	0	0	0	0	0	0	0	0	0	0	0	0	0	0	0	0	0	0	0	0	0	0	0	0	0	0	0	0	0	0	0	0	0	0	0	0
0	0	0	0	0	0	0	0	0	0	0	0	0	1894	1894	1894	1904	1904	1904	1915	1915	1915	1904	1904	1894	1894	1894	1894	1883	0	0	0	0	0	0	0	0	0	0	0	0	0	0	0	0	0	0	0	0	0	0	0	0	0	0	0	0	0	0	0	0	0	0	0	0	0	0	1873	1883	1883	1894	1883	1915	1925	1925	1925	1925	1925	1936	1925	1925	1915	1925	1915	1925	1925	1936	1947	1958	1958	1958	0	0	0	0	7779	7287	7779	7779	6992	6853	6853	6853	6853	6853	6992	7137	7137	7137	7137	7137	7137	7287	7287	7444	7444	7287	7287	7444	7608	7608	7608	7608	7779	7779	7779	7779	7779	0	0	0	0	0	0	0	8767	8767	8550	8550	8550	8550	8343	8343	8550	8550	8550	8550	8550	8767	8550	8550	8550	8550	8550	8343	8343	8343	8550	8550	8550	8550	8550	8343	8343	8343	8343	8343	8343	8550	8550	8550	8550	8550	8550	8550	8550	8550	8550	8550	8550	8550	8550	8343	8343	8343	8343	8343	8343	8550	8343	8550	8550	8550	8343	8343	8343	8550	8343	8343	8550	8550	8550	8550	8550	8550	8550	8550	8550	8550	8550	8550	8343	8343	8343	8343	8343	8343	8343	8343	8343	8343	8550	8343	8343	8343	8343	8343	8343	8343	8343	8343	8343	8550	8550	8550	8550	8550	8550	8550	8550	8550	8550	8550	8550	8343	8343	8343	8343	8343	8343	8343	8343	8343	8343	8343	8343	8550	8550	8550	8550	8550	8550	8550	8550	8550	8343	8343	8550	8550	8550	8550	8550	8550	8550	8550	8343	8343	8550	0	0	0	3341	3341	3341	3341	3373	3341	3373	3373	3373	3373	3373	3373	3406	3406	3373	3309	3277	3309	3246	3246	3246	3216	3216	3216	3216	3216	3216	3216	3216	3216	3186	3186	3186	3186	3216	3216	3216	3216	3186	3186	3186	3186	3186	3186	3216	3216	3186	3186	3186	3186	3186	3186	3186	3216	3216	3216	3216	3216	3216	3216	3216	3246	3246	3309	3309	3309	3309	3341	3341	3341	3373	3373	3406	3373	3373	3373	3373	3341	3341	3341	3341	3309	3341	3341	3341	0	0	8767	8767	8767	8767	8767	8767	8767	8767	8767	8767	8550	8550	8550	8550	8550	8550	8767	8767	8767	8767	8767	8767	8767	8767	8550	8550	8550	8550	8550	8550	8550	8550	8550	8550	8550	8550	8550	8550	8550	8550	8550	8550	8550	8550	8550	8550	8550	8550	8550	8550	8550	8767	8767	8767	8767	8767	8550	8550	8550	8550	8550	8550	8550	8550	8550	8550	8550	8550	8550	8343	8343	8550	8343	8343	8343	8550	8550	8550	8550	8550	8550	8550	8550	8550	8550	8550	8550	8550	8550	8550	8343	8343	8343	8343	8343	8550	8550	8550	8550	8550	8767	8767	8767	8550	8550	8767	8767	8550	8550	8550	8343	8343	8550	8343	8343	8343	8343	8550	8550	8550	8550	8550	8550	8550	8550	8550	8550	8767	8767	8550	8550	8767	8550	8550	8550	8550	8550	8550	8550	8550	8550	0	0	0	0	0	0	0	2777	2777	2754	2733	2711	2711	2690	2690	2649	2649	2629	2629	2629	2609	2589	2589	2570	2570	2551	2551	2532	2532	2514	2496	2496	2478	2460	2460	2443	2443	2443	2409	2409	2409	2392	2392	2376	2376	2359	2359	2343	2343	2343	2343	2327	2327	2327	2327	2327	2327	2327	2312	2312	2312	2312	2312	0	0	0	0	1519	1525	1525	1519	1519	1519	1519	1519	1519	1519	1519	1519	1506	1499	1499	1492	1492	1492	1492	1486	1486	1480	1480	1480	0	0	0	0	0	0	0	0	0	0	0	0	0	0	0	0	0	0	0	0	0	0	0	0	0	0	0	0	0	0	0	0	0	0	0	0	0	0	0	0
0	0	0	0	0	0	0	0	0	0	0	0	0	1904	1904	1904	1904	1915	1915	1925	1936	1936	1936	1904	1894	1894	1894	1894	0	0	0	0	0	0	0	0	0	0	0	0	0	0	0	0	0	0	0	0	0	0	0	0	0	0	0	0	0	0	0	0	0	0	0	0	0	0	0	0	1883	1883	1904	1904	1915	1925	1925	1936	1936	1936	1947	1936	1947	1925	1936	1925	1936	1936	1936	1947	1958	1969	1980	1980	1992	1992	1992	0	7287	7779	7779	6853	6853	6853	6853	6853	6992	6992	7137	7137	7137	7137	7137	7137	7137	7137	0	0	7287	7287	0	0	7608	7608	7779	7779	7779	7779	7779	7959	7959	7959	0	0	0	0	0	0	8767	8767	8550	8767	8550	8550	8550	8550	8550	8550	8550	8550	8767	8550	8550	8550	8550	8550	8343	8343	8343	8550	8550	8550	8550	8550	8343	8343	8343	8343	8343	8343	8550	8550	8550	8550	8550	8550	8550	8550	8550	8550	8550	8550	8550	8343	8343	8343	8343	8343	8343	8343	8343	8343	8550	8550	8550	8343	8343	8343	8550	8343	8343	8550	8550	8550	8550	8550	8550	8550	8550	8550	8550	8550	8550	8550	8550	8550	8343	8343	8550	8343	8343	8343	8343	8343	8343	8343	8343	8343	8343	8343	8343	8343	8343	8550	8550	8550	8550	8550	8550	8550	8550	8550	8343	8343	8343	8550	8343	8343	8343	8343	8343	8343	8550	8343	8343	8343	8343	8550	8550	8550	8550	8550	8550	8550	8550	8550	8550	8343	8550	8550	8550	8550	8550	8550	8343	8343	8343	8343	8343	0	0	0	0	3373	3373	3341	3373	3373	3341	3341	3341	3341	3373	3341	3373	3341	3373	3341	3309	3277	3277	3246	3246	3277	3216	3216	3216	3216	3216	3216	3216	3216	3216	3216	3186	3186	3186	3216	3216	3216	3216	3186	3186	3186	3186	3186	3186	3186	3186	3186	3186	3186	3186	3186	3186	3186	3216	3216	3216	3216	3216	3216	3216	3216	3246	3246	3309	3309	3309	3309	3341	3341	3341	3373	3373	3373	3373	3373	3341	3341	3341	3341	3341	3341	3341	3341	3341	3341	0	0	8767	8767	8767	8767	8767	8767	8767	8767	8550	8767	8550	8550	8550	8550	8550	8767	8767	8767	8767	8767	8767	8767	8767	8767	8767	8767	8550	8550	8550	8550	8550	8550	8550	8550	8550	8550	8550	8550	8550	8550	8550	8550	8550	8550	8550	8550	8550	8550	8550	8550	8767	8767	8767	8767	8767	8767	8550	8550	8550	8550	8550	8550	8550	8550	8550	8550	8550	8550	8550	8343	8550	8550	8343	8343	8550	8550	8550	8550	8550	8550	8550	8550	8550	8767	8550	8550	8550	8550	8550	8550	8343	8343	8343	8550	8550	8550	8550	8550	8550	8550	8550	8550	8550	8550	8550	8550	8550	8550	8550	8550	8343	8343	8343	8343	8343	8343	8343	8550	8550	8550	8550	8550	8550	8550	8550	8550	8550	8550	8550	8550	8550	8767	8550	8550	8550	8550	8550	8550	8550	8550	8767	8767	0	0	0	0	0	0	2777	2777	2754	2733	2711	2711	2690	2690	2669	2629	2629	2629	2609	2609	2609	2609	2589	2570	2551	2551	2532	2532	2514	2514	2496	2478	2478	2460	2460	2460	2443	2409	2409	2409	2392	2392	2392	2376	2376	2359	2359	2343	2343	2343	2327	2343	2343	2327	2327	2327	2327	2327	2312	2312	2297	2312	2312	0	0	0	0	1525	1525	1519	1519	1519	1519	1519	1525	1519	1519	1519	1512	1499	1499	1492	1492	1492	1492	1486	1486	1480	1480	1480	0	0	0	0	0	0	0	0	0	0	0	0	0	0	0	0	0	0	0	0	0	0	0	0	0	0	0	0	0	0	0	0	0	0	0	0	0	0	0	0
0	0	0	0	0	0	0	0	0	0	0	0	0	1904	1904	1904	1904	1915	1925	1936	1936	1936	1936	0	0	0	0	0	0	0	0	0	0	0	0	0	0	0	0	0	0	0	0	0	0	0	0	0	0	0	0	0	0	0	0	0	0	0	0	0	0	0	0	0	0	0	0	0	0	0	1904	1904	0	1925	1936	1947	1936	1947	1947	1947	1947	1947	1947	1936	1947	1947	1947	1958	1969	1980	1980	1992	1992	2003	2003	2003	2015	2015	0	6853	6853	6853	6992	6992	6992	6992	7137	7137	7137	7137	7137	7137	7287	7287	0	0	0	0	0	0	7608	7779	7779	7779	7779	7779	7779	7779	7959	8146	8146	8146	0	0	0	0	0	8767	8550	8767	8550	8550	8550	8550	8550	8550	8550	8550	8767	8550	8550	8550	8550	8550	8343	8343	8343	8550	8550	8550	8550	8550	8550	8343	8343	8343	8343	8343	8550	8550	8550	8767	8550	8550	8550	8550	8550	8550	8550	8550	8550	8343	8343	8343	8343	8343	8343	8343	8550	8343	8343	8550	8550	8343	8343	8343	8343	8343	8343	8343	8343	8550	8550	8343	8343	8343	8343	8550	8550	8550	8550	8550	8550	8550	8343	8343	8550	8343	8343	8343	8343	8343	8343	8343	8343	8343	8343	8343	8343	8343	8343	8343	8550	8343	8343	8343	8343	8550	8550	8550	8343	8343	8343	8343	8343	8343	8343	8343	8343	8343	8550	8343	8550	8550	8550	8550	8550	8550	8767	8767	8767	8550	8550	8550	8550	8550	8343	8550	8550	8550	8550	8550	8343	8343	8550	8550	0	0	0	0	3373	3341	3341	3341	3341	3341	3341	3309	3309	3341	3373	3373	3373	3341	3341	3309	3309	3277	3277	3277	3277	3277	3216	3216	3246	3216	3186	3186	3186	3186	3216	3216	3186	3186	3186	3216	3216	3216	3216	3186	3186	3186	3186	3186	3186	3186	3186	3186	3186	3186	3186	3186	3186	3186	3186	3216	3216	3216	3216	3216	3216	3216	3246	3246	3277	3309	3309	3309	3309	3309	3341	3373	3373	3373	3373	3373	3341	3341	3341	3341	3341	3309	3309	3341	3341	3341	0	0	8767	8767	8767	8767	8767	8767	8767	8767	8767	8767	8550	8550	8550	8550	8550	8550	8550	8550	8767	8767	8767	8767	8767	8767	8767	8767	8550	8550	8550	8550	8550	8550	8550	8550	8550	8550	8550	8550	8550	8550	8550	8550	8550	8550	8550	8550	8550	8550	8550	8550	8550	8550	8767	8767	8767	8767	8767	8767	8767	8550	8550	8550	8550	8550	8550	8550	8550	8550	8550	8550	8550	8550	8343	8343	8550	8550	8550	8550	8550	8767	8550	8767	8550	8767	8767	8550	8550	8550	8343	8550	8343	8550	8343	8550	8550	8550	8550	8550	8550	8550	8550	8550	8550	8550	8550	8550	8550	8550	8550	8550	8343	8343	8343	8343	8343	8343	8550	8550	8550	8550	8550	8550	8550	8550	8550	8550	8550	8550	8550	8550	8550	8767	8550	8550	8550	8550	8550	8550	8550	8550	8767	8767	0	0	0	0	0	2754	2777	2777	2754	2754	2711	2711	2711	2690	2669	2629	2629	2609	2609	2609	2589	2589	2570	2570	2551	2551	2532	2532	2532	2514	2514	2478	2478	2460	2460	2460	2443	2443	2409	2409	2392	2392	2376	2376	2359	2359	2343	2343	2343	2343	2327	2343	2343	2327	2327	2327	2327	2327	2312	2312	2312	2312	2312	0	0	0	0	0	1525	1519	1519	1519	1525	1519	1525	1519	1519	1519	1519	1512	1506	1499	1492	1492	1492	1486	1486	1480	1480	1480	0	0	0	0	0	0	0	0	0	0	0	0	0	0	0	0	0	0	0	0	0	0	0	0	0	0	0	0	0	0	0	0	0	0	0	0	0	0	0	0
0	0	0	0	0	0	0	0	0	0	0	0	0	1904	1904	1904	1904	1915	1925	1936	1936	1936	1936	0	0	0	0	0	0	0	0	0	0	0	0	0	0	0	0	0	0	0	0	0	0	0	0	0	0	0	0	0	0	0	0	0	0	0	0	0	0	0	0	0	0	0	0	0	0	0	0	0	0	0	1936	1947	1936	1947	1947	1947	1947	1947	1958	1947	1958	1958	1958	1969	1980	1980	1980	1992	1992	2003	2003	2003	2015	2015	0	0	0	0	6992	6992	6992	6992	7137	6992	7137	7137	7137	7137	7287	7287	7287	7444	7444	0	0	0	7608	7608	7608	7779	7779	7779	7779	7959	7959	8146	8146	8146	0	0	0	0	8550	8767	8550	8767	8550	8550	8550	8550	8550	8550	8550	8550	8767	8767	8550	8550	8550	8550	8343	8343	8343	8343	8550	8550	8550	8550	8550	8550	8343	8343	8343	8343	8550	8550	8550	8550	8550	8550	8550	8550	8550	8550	8550	8550	8550	8343	8343	8343	8343	8343	8343	8343	8343	8343	8343	8343	8343	8343	8343	8343	8343	8343	8343	8343	8343	8343	8550	8343	8343	8343	8343	8343	8343	8550	8550	8550	8550	8550	8343	8343	8550	8343	8343	8343	8343	8343	8343	8343	8343	8343	8343	8343	8343	8343	8343	8343	8343	8343	8343	8343	8343	8343	8343	8343	8343	8343	8343	8343	8343	8343	8343	8343	8343	8343	8550	8550	8550	8550	8550	8550	8550	8550	8767	8767	8550	8550	8550	8550	8550	8550	8343	8343	8550	8550	8550	8550	8343	8343	8343	8550	0	0	0	0	3373	3373	3341	3341	3341	3341	3309	3309	3309	3341	3341	3341	3373	3341	3341	3309	3309	3277	3277	3277	3277	3277	3216	3216	3246	3216	3216	3216	3186	3186	3216	3186	3186	3186	3157	3216	3186	3186	3186	3186	3186	3186	3186	3186	3186	3186	3186	3186	3186	3186	3186	3186	3186	3186	3186	3186	3216	3216	3216	3216	3216	3246	3246	3277	3277	3309	3309	3309	3309	3309	3309	3341	3341	3373	3373	3373	3341	3341	3341	3341	3341	3309	3309	3309	3341	3341	0	0	8767	8767	8767	8767	8767	8767	8767	8767	8550	8550	8550	8550	8550	8550	8550	8550	8550	8550	8767	8767	8767	8767	8767	8767	8767	8767	8767	8550	8550	8550	8550	8550	8550	8550	8550	8550	8767	8767	8550	8550	8550	8550	8550	8550	8550	8550	8550	8550	8550	8550	8550	8550	8767	8767	8767	8767	8767	8767	8550	8550	8550	8550	8550	8550	8550	8550	8550	8550	8550	8550	8550	8550	8550	8343	8550	8550	8550	8550	8550	8550	8550	8550	8550	8550	8550	8550	8550	8343	8343	8343	8343	8550	8550	8550	8550	8550	8550	8550	8550	8550	8550	8550	8550	8550	8550	8550	8550	8550	8550	8550	8550	8343	8343	8343	8343	8343	8550	8550	8550	8550	8550	8550	8550	8550	8550	8550	8550	8550	8550	8550	8550	8550	8550	8550	8550	8550	8550	8550	8550	8550	8767	8767	0	0	0	0	2754	2777	2777	2777	2777	2777	2733	2711	2711	2669	2649	2629	2629	2609	2609	2609	2589	2589	2570	2551	2551	2551	2532	2532	2532	2532	2514	2478	2496	2460	2460	2460	2443	2426	2409	2392	2392	2392	2376	2376	2359	2343	2343	2343	2343	2343	2327	2327	2343	2327	2343	2327	2327	2327	2327	2312	2312	2312	2281	2281	2281	0	0	0	1525	1519	1525	1519	1525	1519	1525	1519	1519	1519	1519	1512	1506	1499	1499	1499	1492	1492	1486	1480	1486	1486	0	0	0	0	0	0	0	0	0	0	0	0	0	0	0	0	0	0	0	0	0	0	0	0	0	0	0	0	0	0	0	0	0	0	0	0	0	0	0	0
0	0	0	0	0	0	0	0	0	0	0	0	0	0	0	0	0	0	1925	1936	1936	0	0	0	0	0	0	0	0	0	0	0	0	0	0	0	0	0	0	0	0	0	0	0	0	0	0	0	0	0	0	0	0	0	0	0	0	0	0	0	0	0	0	0	0	0	0	0	0	0	0	0	0	0	0	0	1936	1947	1947	1947	1947	1958	1958	1958	1969	1969	1969	1969	1980	1980	1992	1992	1992	2015	2015	2015	2027	2027	0	0	0	0	0	0	6992	6992	6992	6992	6992	6992	7137	7137	7137	7287	7444	7444	7444	0	0	0	7608	7608	7608	7608	7779	7779	7779	7959	7959	8146	8146	8146	8146	0	0	8550	8550	8550	8550	8767	8550	8550	8550	8550	8550	8550	8550	8550	8767	8767	8767	8550	8550	8550	8343	8343	8343	8343	8550	8550	8550	8550	8550	8550	8550	8343	8343	8343	8550	8550	8550	8550	8550	8550	8550	8550	8550	8550	8550	8343	8550	8343	8343	8343	8343	8343	8343	8343	8343	8343	8343	8343	8343	8343	8343	8343	8343	8343	8343	8343	8550	8550	8550	8343	8343	8343	8343	8343	8343	8343	8550	8343	8343	8343	8343	8343	8550	8343	8343	8343	8343	8343	8343	8343	8343	8343	8343	8343	8343	8343	8343	8343	8343	8343	8343	8343	8343	8343	8550	8343	8343	8550	8550	8343	8343	8343	8343	8343	8343	8550	8550	8550	8550	8550	8767	8550	8767	8550	8550	8550	8550	8550	8550	8550	8550	8550	8343	8550	8550	8550	8550	8550	8343	8343	8343	0	0	0	0	0	3341	3341	3341	3309	3309	3341	3309	3309	3309	3341	3341	3341	3373	3341	3341	3341	3309	3309	3277	3277	3277	3246	3216	3216	3246	3216	3216	3186	3186	3216	3186	3186	3186	3186	3157	3157	3186	3186	3186	3186	3186	3186	3186	3186	3186	3186	3186	3186	3186	3186	3186	3157	3186	3186	3186	3186	3216	3216	3216	3216	3216	3216	3246	3246	3246	3277	3277	3277	3309	3309	3309	3341	3341	3341	3373	3373	3341	3341	3341	3341	3341	3309	3309	3309	3309	3309	0	0	8767	8767	8767	8767	8767	8767	8767	8767	8550	8550	8550	8550	8550	8550	8550	8550	8550	8550	8767	8767	8767	8767	8767	8767	8767	8767	8767	8550	8550	8550	8550	8550	8767	8767	8767	8767	8767	8767	8767	8550	8550	8550	8550	8550	8550	8550	8550	8550	8550	8550	8550	8767	8767	8767	8767	8767	8767	8767	8550	8550	8550	8550	8550	8550	8550	8550	8550	8550	8550	8550	8550	8550	8550	8550	8550	8343	8343	8550	8550	8550	8550	8550	8550	8550	8550	8550	8550	8550	8343	8343	8343	8343	8550	8550	8767	8767	8550	8550	8550	8550	8550	8550	8550	8550	8550	8550	8550	8550	8550	8550	8343	8343	8343	8343	8343	8343	8550	8550	8550	8550	8550	8550	8550	8550	8550	8550	8550	8550	8550	8550	8550	8550	8550	8550	8550	8550	8550	8550	8550	8550	8767	8767	0	0	0	0	2754	2777	2777	2777	2754	2754	2733	2711	2690	2669	2629	2629	2629	2629	2609	2609	2589	2589	2589	2570	2551	2551	2532	2532	2532	2532	2514	2478	2496	2478	2478	2478	2460	2443	2409	2392	2392	2392	2376	2376	2359	2343	2343	2327	2327	2343	2327	2327	2343	2327	2343	2327	2327	2327	2312	2297	2297	2297	2297	2281	2281	0	0	0	0	0	1519	1519	1519	1519	1519	1519	1519	1519	1519	1512	1512	1506	1499	1499	1492	1492	1486	1480	1486	1486	0	0	0	0	0	0	0	0	0	0	0	0	0	0	0	0	0	0	0	0	0	0	0	0	0	0	0	0	0	0	0	0	0	0	0	0	0	0	0	0
0	0	0	0	0	0	0	0	0	0	0	0	0	0	0	0	0	0	0	0	0	0	0	0	0	0	0	0	0	0	0	0	0	0	0	0	0	0	0	0	0	0	0	0	0	0	0	0	0	0	0	0	0	0	0	0	0	0	0	0	0	0	0	0	0	0	0	0	0	0	0	0	0	0	0	0	0	1947	1958	1947	1958	1958	1969	1969	1980	1980	1969	1969	1980	1980	1992	1992	2003	2003	2027	2027	2027	2027	2027	0	0	0	0	0	0	6853	6853	6992	6992	7137	7137	7137	7287	7287	7444	7444	7444	0	0	0	7608	7608	7608	7608	7779	7779	7959	7959	8146	8146	8146	8146	8146	8146	8343	8343	8550	8550	8550	8550	8550	8550	8550	8550	8550	8550	8550	8550	8767	8767	8767	8767	8550	8550	8343	8343	8343	8550	8550	8550	8550	8550	8550	8550	8550	8550	8550	8550	8550	8550	8550	8550	8550	8550	8550	8550	8550	8550	8550	8343	8343	8343	8343	8343	8343	8343	8343	8343	8343	8343	8343	8343	8343	8343	8343	8343	8343	8343	8343	8343	8343	8343	8343	8343	8343	8343	8343	8343	8343	8343	8343	8343	8343	8343	8343	8343	8550	8343	8343	8343	8343	8343	8343	8343	8343	8343	8343	8343	8343	8343	8343	8343	8343	8343	8343	8343	8343	8343	8343	8343	8343	8550	8343	8343	8343	8343	8343	8343	8550	8550	8550	8550	8550	8550	8767	8550	8550	8550	8550	8550	8550	8550	8550	8550	8550	8550	8550	8343	8550	8550	8550	8550	8343	8343	8343	0	0	0	0	0	3373	3341	3341	3309	3341	3341	3309	3309	3309	3341	3341	3341	3341	3341	3341	3309	3309	3277	3277	3277	3277	3277	3246	3246	3246	3246	3216	3216	3186	3186	3186	3186	3186	3157	3157	3186	3186	3186	3186	3186	3186	3186	3186	3186	3186	3186	3186	3186	3186	3186	3186	3157	3186	3186	3186	3186	3216	3216	3216	3216	3216	3216	3246	3246	3246	3277	3277	3277	3309	3309	3309	3341	3341	3341	3373	3341	3341	3341	3341	3341	3309	3309	3309	3277	3277	3309	0	8995	8767	8767	8767	8767	8767	8767	8767	8767	8550	8550	8550	8550	8550	8550	8550	8550	8767	8767	8767	8767	8767	8767	8767	8767	8767	8767	8767	8767	8550	8550	8550	8550	8767	8767	8767	8767	8767	8767	8767	8767	8767	8550	8550	8550	8550	8550	8550	8550	8550	8550	8550	8550	8550	8550	8550	8550	8550	8550	8550	8550	8550	8550	8550	8550	8550	8550	8550	8550	8550	8550	8550	8550	8550	8550	8343	8343	8343	8550	8550	8550	8550	8550	8550	8550	8550	8550	8550	8343	8343	8550	8550	8550	8550	8550	8767	8767	8550	8550	8550	8550	8550	8550	8550	8550	8767	8550	8550	8550	8550	8550	8550	8343	8343	8550	8343	8550	8550	8550	8550	8550	8550	8550	8550	8550	8550	8550	8550	8550	8550	8550	8550	8767	8767	8767	8767	8550	8550	8550	8550	8550	8550	8767	0	0	0	0	2754	2754	2754	2777	2754	2754	2733	2711	2711	2669	2649	2629	2629	2629	2609	2609	2609	2589	2570	2570	2551	2551	2532	2532	2532	2532	2514	2496	2478	2478	2478	2460	2460	2443	2409	2392	2392	2376	2376	2359	2359	2343	2343	2327	2327	2327	2327	2327	2327	2327	2327	2327	2327	2312	2312	2297	2297	2297	2281	2297	2297	0	0	0	0	0	1519	1519	1519	1519	1519	1519	1519	1519	1519	1519	1512	1512	1512	1499	1499	1492	1492	1486	1486	1486	0	0	0	0	0	0	0	0	0	0	0	0	0	0	0	0	0	0	0	0	0	0	0	0	0	0	0	0	0	0	0	0	0	0	0	0	0	0	0	0
0	0	0	0	0	0	0	0	0	0	0	0	0	0	0	0	0	0	0	0	0	0	0	0	0	0	0	0	0	0	0	0	0	0	0	0	0	0	0	0	0	0	0	0	0	0	0	0	0	0	0	0	0	0	0	0	0	0	0	0	0	0	0	0	0	0	0	0	0	0	0	0	0	0	0	0	0	0	1958	1947	1958	1980	1992	1992	1992	1992	1992	1980	1992	1992	1992	2003	2003	2015	2027	2027	2027	2027	2027	0	0	0	0	0	0	6853	6853	6853	6992	7137	7137	7137	7137	7287	7444	7444	0	0	0	0	7608	7608	7608	7779	8343	8343	7959	7959	7959	8146	8146	8146	8146	8146	8343	8343	8550	8550	8550	8550	8550	8550	8550	8343	8550	8550	8550	8550	8550	8550	8767	8550	8550	8550	8343	8343	8343	8343	8550	8550	8550	8550	8550	8550	8550	8550	8550	8343	8550	8550	8550	8550	8550	8550	8550	8550	8550	8550	8550	8343	8343	8343	8343	8343	8343	8343	8550	8343	8343	8343	8343	8343	8343	8343	8343	8343	8343	8550	8550	8343	8343	8343	8343	8343	8343	8146	8343	8343	8343	8343	8343	8343	8343	8343	8343	8343	8343	8343	8343	8343	8343	8343	8343	8343	8343	8343	8343	8343	8343	8343	8343	8343	8343	8343	8343	8343	8343	8343	8550	8343	8343	8550	8343	8343	8550	8550	8343	8343	8550	8550	8550	8767	8767	8767	8550	8550	8550	8550	8550	8550	8550	8550	8550	8550	8550	8550	8550	8343	8343	8343	8550	8550	8343	8343	8343	0	0	0	0	0	3341	3341	3309	3309	3341	3309	3309	3309	3309	3309	3309	3341	3341	3341	3341	3309	3309	3277	3277	3277	3277	3277	3246	3246	3246	3246	3216	3186	3186	3186	3186	3157	3157	3157	3157	3186	3186	3186	3186	3186	3186	3186	3186	3186	3186	3186	3186	3186	3186	3186	3186	3157	3186	3186	3186	3186	3216	3216	3216	3216	3216	3216	3246	3246	3246	3277	3277	3277	3309	3309	3309	3309	3309	3309	3341	3341	3341	3341	3341	3309	3309	3309	3309	3309	3309	0	0	9235	8995	8995	8767	8767	8767	8767	8767	8767	8767	8550	8767	8550	8550	8550	8550	8550	8550	8550	8550	8767	8767	8767	8767	8767	8767	8767	8767	8767	8767	8767	8550	8767	8767	8767	8767	8767	8767	8767	8767	8767	8767	8767	8550	8767	8550	8767	8550	8550	8550	8550	8550	8550	8550	8550	8550	8550	8550	8550	8550	8550	8550	8550	8550	8550	8550	8550	8550	8550	8550	8550	8550	8550	8550	8343	8343	8343	8343	8343	8343	8550	8550	8550	8550	8550	8550	8550	8550	8343	8550	8550	8550	8550	8550	8550	8767	8767	8767	8550	8767	8550	8767	8767	8767	8767	8767	8767	8767	8550	8550	8550	8550	8550	8550	8550	8550	8550	8550	8550	8550	8343	8343	8550	8550	8550	8550	8550	8550	8550	8550	8550	8767	8767	8767	8767	8767	8550	8550	8550	8550	8550	8550	0	0	0	0	0	2733	2733	2733	2754	2754	2733	2733	2711	2711	2690	2649	2629	2629	2629	2609	2609	2589	2589	2570	2570	2551	2551	2532	2532	2532	2532	2514	2478	2478	2478	2478	2460	2443	2426	2409	2392	2392	2376	2376	2359	2359	2343	2343	2327	2327	2327	2312	2327	2327	2327	2327	2327	2312	2327	2327	2312	2297	2312	2297	2297	2297	2297	0	0	0	0	0	1512	1519	1519	1519	1519	1519	1519	1519	1519	1519	1519	1512	1506	1499	1492	1492	1486	1486	1486	0	0	0	0	0	0	0	0	0	0	0	0	0	0	0	0	0	0	0	0	0	0	0	0	0	0	0	0	0	0	0	0	0	0	0	0	0	0	0	0
0	0	0	0	0	0	0	0	0	0	0	0	0	0	0	0	0	0	0	0	0	0	0	0	0	0	0	0	0	0	0	0	0	0	0	0	0	0	0	0	0	0	0	0	0	0	0	0	0	0	0	0	0	0	0	0	0	0	0	0	0	0	0	0	0	0	0	0	0	0	0	0	0	0	0	0	0	0	0	0	1958	1980	1980	1980	1992	1992	1992	1992	1992	1992	2039	2039	2039	2039	2039	2039	2039	2039	2027	0	0	0	6992	6992	6853	6853	6992	6853	6992	7137	7137	7137	7137	7287	7444	7444	7444	7444	0	0	0	7608	7608	7608	8343	8343	7779	7779	7959	7959	7959	7959	7959	8146	8146	8343	8343	8343	8550	8550	8550	8550	8550	8550	8343	8550	8550	8550	8550	8550	8550	8550	8550	8550	8343	8343	8343	8550	8550	8550	8550	8550	8550	8550	8550	8550	8550	8550	8550	8550	8550	8550	8343	8343	8550	8550	8550	8550	8550	8550	8343	8550	8343	8343	8343	8343	8343	8343	8343	8343	8343	8343	8343	8343	8343	8343	8343	8550	8550	8343	8343	8343	8343	8343	8343	8343	8343	8343	8343	8343	8343	8343	8343	8343	8343	8343	8343	8343	8343	8343	8343	8343	8343	8343	8343	8343	8343	8343	8343	8343	8343	8343	8343	8343	8343	8343	8343	8343	8550	8343	8343	8343	8343	8343	8343	8343	8550	8550	8550	8767	8767	8767	8767	8550	8550	8550	8550	8550	8550	8550	8550	8550	8550	8550	8550	8550	8550	8550	8550	8550	8550	8550	8343	8343	8343	8343	0	0	0	3406	3373	3341	3309	3341	3309	3309	3309	3309	3309	3309	3309	3341	3341	3341	3309	3309	3277	3277	3277	3277	3277	3246	3246	3216	3216	3216	3186	3186	3186	3186	3186	3157	3157	3157	3157	3186	3186	3186	3186	3186	3186	3186	3186	3186	3186	3186	3186	3186	3186	3186	3186	3186	3186	3186	3186	3216	3216	3216	3216	3216	3216	3216	3246	3246	3246	3277	3277	3277	3309	3309	3309	3309	3309	3309	3309	3309	3341	3309	3341	3309	3309	3309	3309	3277	3277	0	0	9235	8995	8995	8767	8767	8767	8767	8767	8767	8767	8767	8767	8767	8550	8550	8550	8550	8550	8550	8550	8767	8767	8767	8767	8767	8767	8767	8767	8767	8767	8767	8767	8767	8767	8767	8767	8767	8767	8767	8767	8767	8767	8550	8550	8550	8550	8767	8550	8550	8550	8550	8550	8550	8550	8550	8550	8550	8767	8767	8550	8550	8550	8550	8550	8550	8550	8550	8550	8550	8550	8550	8550	8550	8550	8343	8343	8343	8343	8343	8343	8343	8343	8550	8550	8550	8550	8550	8550	8343	8550	8550	8550	8550	8550	8550	8767	8767	8767	8767	8550	8550	8767	8550	8767	8550	8767	8767	8767	8550	8550	8550	8550	8550	8550	8343	8343	8550	8550	8550	8550	8343	8550	8550	8550	8550	8550	8550	8767	8767	8767	8767	8767	8767	8767	8767	8767	8550	8550	8550	8550	8550	8550	8550	0	0	0	0	2733	2733	2733	2754	2754	2733	2733	2711	2711	2690	2649	2649	2629	2629	2629	2609	2609	2589	2570	2570	2551	2551	2532	2532	2532	2532	2514	2496	2478	2478	2478	2460	2443	2426	2409	2392	2392	2376	2376	2359	2359	2343	2327	2327	2327	2327	2312	2312	2312	2327	2327	2327	2327	2327	2327	2327	2312	2312	2297	2312	2297	2297	0	0	0	0	0	1512	1512	1519	1525	1519	1519	1519	1519	1519	1519	1519	1512	1512	1506	1499	1492	1492	1492	1492	0	0	0	0	0	0	0	0	0	0	0	0	0	0	0	0	0	0	0	0	0	0	0	0	0	0	0	0	0	0	0	0	0	0	0	0	0	0	0	0
0	0	0	0	0	0	0	0	0	0	0	0	0	0	0	0	0	0	0	0	0	0	0	0	0	0	0	0	0	0	0	0	0	0	0	0	0	0	0	0	0	0	0	0	0	0	0	0	0	0	0	0	0	0	0	0	0	0	0	0	0	0	0	0	0	0	0	0	0	0	0	0	0	0	0	0	0	0	0	0	0	0	1980	1980	1992	1992	1992	1992	0	0	6592	6592	6592	6592	6720	6720	6720	6853	6853	7137	7137	0	6992	6992	6992	6992	6992	6992	6992	7137	7137	7137	7137	7444	7444	7444	7444	7444	0	0	0	7444	7444	7608	7608	7779	7779	7959	7959	7959	7959	7959	7959	7959	8146	8146	8343	8343	8550	8550	8550	8550	8550	8550	8550	8550	8550	8550	8550	8550	8550	8550	8550	8550	8550	8550	8550	8550	8550	8550	8550	8550	8550	8550	8550	8550	8343	8343	8343	8550	8343	8343	8550	8550	8550	8550	8550	8550	8550	8550	8550	8550	8343	8343	8343	8343	8343	8343	8343	8343	8343	8343	8343	8343	8343	8343	8343	8550	8550	8343	8343	8343	8343	8343	8343	8146	8343	8343	8343	8343	8343	8343	8343	8343	8343	8343	8343	8343	8343	8343	8343	8343	8343	8343	8550	8343	8343	8343	8343	8343	8146	8343	8146	8343	8343	8343	8343	8343	8343	8550	8550	8550	8550	8550	8343	8550	8550	8550	8550	8767	8343	8550	8550	8550	8550	8343	8343	8343	8343	8343	8550	8550	8550	8550	8550	8550	8550	8550	8550	8550	8550	8343	8343	8343	8146	8146	0	0	0	3406	3373	3341	3309	3309	3309	3309	3309	3309	3309	3341	3341	3341	3341	3309	3341	3309	3309	3277	3277	3246	3246	3246	3246	3186	3186	3186	3186	3186	3186	3186	3186	3186	3186	3157	3157	3186	3186	3186	3186	3186	3186	3186	3186	3186	3186	3186	3186	3186	3186	3186	3186	3186	3186	3186	3186	3216	3216	3216	3216	3216	3216	3216	3246	3246	3277	3277	3277	3277	3277	3309	3309	3309	3309	3309	3309	3309	3309	3309	3309	3309	3309	3309	3309	3309	3309	0	0	9235	8995	8995	8767	8767	8767	8767	8767	8767	8767	8550	8767	8550	8550	8550	8550	8550	8550	8550	8550	8550	8550	8767	8767	8767	8767	8767	8767	8767	8767	8767	8767	8767	8767	8767	8767	8767	8767	8767	8767	8767	8767	8767	8767	8767	8767	8767	8550	8550	8550	8550	8550	8550	8550	8550	8550	8550	8550	8767	8550	8550	8550	8550	8550	8550	8550	8550	8550	8550	8550	8550	8550	8550	8550	8550	8343	8343	8343	8343	8343	8343	8343	8343	8550	8550	8550	8343	8550	8343	8550	8550	8550	8550	8550	8550	8550	8550	8550	8550	8550	8550	8550	8550	8550	8550	8550	8550	8767	8550	8550	8550	8550	8550	8550	8550	8343	8550	8550	8343	8343	8343	8343	8343	8550	8550	8550	8550	8550	8767	8767	8767	8767	8767	8767	8767	8767	8767	8550	8550	8550	8550	8550	8550	0	0	0	0	2777	2754	2733	2733	2733	2733	2733	2711	2711	2690	2669	2669	2629	2629	2629	2609	2589	2551	2570	2570	2551	2551	2551	2532	2532	2532	2514	2496	2478	2478	2478	2460	2443	2443	2409	2392	2392	2376	2359	2359	2359	2343	2327	2327	2327	2327	2312	2312	2327	2327	2327	2327	2312	2327	2327	2312	2312	2327	2297	2312	2297	2281	2281	0	0	0	0	1512	1512	1519	1525	1519	1519	1519	1519	1519	1519	1519	1519	1512	1506	1499	1499	1499	1492	1492	0	0	0	0	0	0	0	0	0	0	0	0	0	0	0	0	0	0	0	0	0	0	0	0	0	0	0	0	0	0	0	0	0	0	0	0	0	0	0	0
0	0	0	0	0	0	0	0	0	0	0	0	0	0	0	0	0	0	0	0	0	0	0	0	0	0	0	0	0	0	0	0	0	0	0	0	0	0	0	0	0	0	0	0	0	0	0	0	0	0	0	0	0	0	0	0	0	0	0	0	0	0	0	0	0	0	0	0	0	0	0	0	0	0	0	0	0	0	0	0	0	0	0	0	0	0	0	0	0	6468	6592	6592	6592	6592	6720	6720	6720	6853	6853	7137	7137	6992	7137	6992	6992	6992	6992	6992	6992	7137	7137	7137	7137	7287	7444	7444	7444	7444	7444	0	7444	7444	7608	7608	7608	7959	7959	7959	7959	7959	7959	7959	7959	8146	8146	8343	8343	8550	8550	8550	8550	8550	8550	8550	8550	8550	8550	8550	8550	8550	8550	8550	8550	8550	8550	8550	8550	8767	8550	8550	8550	8550	8550	8550	8550	8343	8343	8550	8550	8550	8343	8343	8343	8343	8550	8343	8343	8343	8343	8343	8550	8550	8550	8550	8343	8343	8550	8343	8343	8343	8343	8343	8343	8343	8343	8343	8343	8550	8550	8550	8550	8550	8550	8550	8343	8343	8343	8146	8146	8343	8343	8343	8343	8343	8343	8550	8343	8343	8343	8343	8343	8343	8343	8343	8343	8343	8343	8343	8343	8343	8343	8343	8146	8343	8343	8343	8343	8550	8550	8550	8550	8550	8343	8550	8343	8343	8550	8550	8550	8550	8343	8550	8550	8550	8343	8343	8343	8343	8343	8343	8343	8343	8343	8343	8550	8550	8550	8550	8550	8550	8343	8343	8343	8146	8146	8146	0	0	0	3406	3341	3246	3277	3277	3309	3309	3309	3309	3309	3309	3309	3309	3309	3309	3309	3309	3277	3246	3246	3246	3246	3246	3216	3186	3186	3186	3186	3186	3186	3186	3157	3186	3186	3157	3157	3186	3186	3186	3186	3186	3186	3186	3186	3186	3186	3186	3186	3186	3186	3186	3186	3186	3186	3186	3186	3216	3186	3216	3216	3216	3216	3216	3216	3216	3246	3246	3277	3277	3309	3309	3309	3309	3309	3309	3309	3309	3309	3309	3309	3309	3309	3309	3309	3309	3309	0	0	9235	8995	8995	8767	8767	8767	8767	8767	8767	8550	8550	8767	8767	8767	8767	8767	8767	8767	8550	8550	8550	8550	8550	8767	8767	8767	8767	8767	8767	8767	8767	8767	8767	8767	8767	8767	8767	8767	8767	8767	8767	8767	8767	8767	8767	8767	8767	8767	8767	8550	8550	8550	8550	8550	8550	8550	8550	8550	8550	8550	8550	8550	8550	8550	8550	8550	8550	8550	8550	8550	8550	8550	8550	8550	8550	8146	8343	8343	8343	8343	8343	8343	8343	8343	8550	8343	8343	8550	8343	8343	8550	8550	8550	8550	8550	8550	8550	8550	8550	8550	8550	8550	8550	8550	8550	8767	8767	8767	8550	8550	8550	8550	8550	8550	8550	8550	8343	8343	8343	8343	8343	8343	8343	8550	8550	8550	8550	8550	8550	8767	8767	8767	8767	8767	8767	8767	8767	8550	8550	8550	8550	8550	8550	0	0	0	0	2733	2754	2733	2754	2754	2733	2733	2711	2711	2690	2669	2669	2629	2629	2629	2609	2609	2551	2570	2570	2570	2551	2551	2532	2532	2532	2514	2496	2478	2478	2460	2460	2443	2426	2426	2392	2392	2376	2359	2359	2359	2343	2327	2327	2327	2327	2327	2312	2327	2327	2327	2327	2327	2327	2327	2312	2312	2327	2312	2312	2312	2297	2297	0	0	0	0	0	1512	1519	1519	1519	1519	1519	1519	1519	1519	1519	1519	1512	1506	1506	1499	1499	1499	1499	0	0	0	0	0	0	0	0	0	0	0	0	0	0	0	0	0	0	0	0	0	0	0	0	0	0	0	0	0	0	0	0	0	0	0	0	0	0	0	0
0	0	0	0	0	0	0	0	0	0	0	0	0	0	0	0	0	0	0	0	0	0	0	0	0	0	0	0	0	0	0	0	0	0	0	0	0	0	0	0	0	0	0	0	0	0	0	0	0	0	0	0	0	0	0	0	0	0	0	0	0	0	0	0	0	0	0	0	0	0	0	0	0	0	0	0	0	0	0	0	0	0	0	0	0	0	0	0	6592	6468	6592	6592	6468	6592	6592	6720	6720	6853	6853	7137	6992	6992	6992	6992	6992	6992	6992	6853	6992	7137	7137	7137	7287	7444	7444	7444	7444	7444	7444	0	7608	7444	7444	7444	7779	7779	7779	7779	7959	7959	7959	7959	7959	8146	8146	8343	8343	8343	8343	8343	8343	8343	8550	8343	8343	8550	8550	8550	8550	8550	8550	8550	8550	8550	8550	8550	8550	8550	8550	8550	8550	8550	8550	8550	8343	8343	8343	8343	8550	8550	8343	8343	8343	8343	8343	8343	8343	8343	8343	8343	8343	8550	8550	8550	8550	8550	8550	8550	8343	8343	8343	8343	8343	8343	8343	8343	8343	8550	8550	8550	8550	8550	8550	8343	8343	8343	8343	8146	8146	8343	8343	8343	8343	8343	8343	8343	8343	8343	8343	8343	8343	8343	8343	8343	8343	8343	8343	8343	8343	8343	8343	8343	8343	8343	8343	8343	8343	8343	8550	8550	8343	8550	8343	8550	8343	8343	8343	8550	8550	8550	8343	8550	8550	8550	8550	8343	8343	8343	8343	8343	8343	8343	8343	8343	8343	8343	8343	8343	8343	8550	8343	8343	8146	8343	7959	7959	0	0	0	0	3341	3309	3277	3277	3277	3277	3309	3309	3309	3309	3309	3309	3309	3309	3309	3277	3246	3246	3246	3246	3216	3216	3216	3186	3186	3186	3186	3186	3186	3186	3157	3186	3186	3157	3157	3186	3186	3186	3186	3186	3216	3216	3186	3186	3186	3186	3186	3186	3186	3186	3186	3186	3186	3186	3186	3216	3186	3216	3216	3216	3216	3216	3246	3246	3246	3277	3277	3277	3309	3309	3309	3309	3309	3309	3309	3309	3309	3309	3309	3309	3309	3309	3309	3309	3309	0	0	9235	8995	8995	8767	8767	8767	8767	8767	8767	8767	8767	8767	8767	8767	8767	8767	8767	8767	8767	8550	8550	8550	8550	8550	8550	8767	8550	8767	8767	8550	8767	8767	8767	8767	8767	8767	8767	8767	8550	8550	8550	8767	8767	8767	8767	8767	8767	8767	8767	8767	8550	8550	8550	8550	8550	8550	8767	8550	8767	8550	8550	8550	8550	8550	8550	8550	8550	8550	8550	8550	8550	8550	8550	8550	8550	8343	8343	8343	8343	8343	8343	8343	8343	8343	8550	8550	8550	8550	8343	8550	8550	8550	8550	8550	8550	8550	8550	8550	8550	8550	8550	8550	8550	8550	8550	8550	8550	8550	8550	8550	8550	8550	8550	8550	8550	8550	8550	8550	8550	8343	8343	8343	8343	8550	8550	8550	8550	8550	8550	8767	8767	8767	8767	8767	8767	8767	8767	8550	8550	8550	8550	8550	0	0	0	0	0	2733	2733	2733	2733	2733	2733	2733	2711	2711	2690	2669	2669	2629	2629	2629	2609	2589	2570	2570	2570	2551	2551	2551	2532	2532	2514	2514	2496	2478	2478	2460	2443	2426	2426	2426	2392	2392	2392	2376	2359	2359	2343	2343	2327	2327	2327	2327	2312	2327	2327	2327	2327	2327	2327	2327	2312	2312	2312	2297	2297	2297	2297	2297	0	0	0	0	1512	1512	1512	1519	1512	1512	1512	1512	1519	1519	1519	1519	1512	1506	1499	1499	1499	1499	1499	0	0	0	0	0	0	0	0	0	0	0	0	0	0	0	0	0	0	0	0	0	0	0	0	0	0	0	0	0	0	0	0	0	0	0	0	0	0	0	0
0	0	0	0	0	0	0	0	0	0	0	0	0	0	0	0	0	0	0	0	0	0	0	0	0	0	0	0	0	0	0	0	0	0	0	0	0	0	0	0	0	0	0	0	0	0	0	0	0	0	0	0	0	0	0	0	0	0	0	0	0	0	0	0	0	0	0	0	0	0	0	0	0	0	0	0	0	0	0	0	0	0	0	0	0	0	0	0	6592	6468	6468	6468	6468	6592	6592	6720	6720	6720	6853	6992	6992	6992	6992	6992	6992	6992	6992	6992	7137	7137	7137	7287	7287	7444	7444	7608	7444	7444	7444	7444	7608	7608	7608	7779	7779	7959	7779	7779	7779	7959	7959	7959	7959	8146	8146	8146	8343	8343	8343	8343	8343	8343	8550	8343	8343	8550	8550	8550	8550	8550	8550	8550	8550	8550	8550	8550	8550	8767	8550	8550	8550	8550	8550	8343	8343	8343	8343	8343	8550	8343	8343	8343	8343	8343	8343	8343	8146	8343	8343	8343	8343	8550	8550	8343	8550	8550	8550	8343	8343	8343	8550	8343	8343	8343	8343	8343	8343	8343	8343	8343	8343	8343	8343	8343	8343	8343	8343	8146	8146	8343	8343	8343	8343	8343	8550	8550	8550	8550	8343	8550	8343	8343	8343	8343	8343	8343	8343	8343	8343	8343	8343	8343	8343	8343	8343	8343	8343	8550	8550	8550	8343	8343	8343	8343	8343	8343	8343	8343	8343	8343	8550	8550	8550	8550	8343	8343	8343	8343	8343	8343	8343	8343	8343	8343	8343	8343	8343	8343	8550	8550	8343	8343	8146	8146	7959	7959	0	0	0	0	3309	3309	3277	3277	3277	3309	3309	3277	3277	3277	3277	3277	3277	3277	3277	3277	3246	3216	3216	3216	3186	3216	3216	3186	3186	3186	3186	3186	3186	3186	3186	3186	3186	3186	3157	3186	3186	3186	3186	3186	3216	3216	3186	3186	3216	3216	3186	3186	3186	3186	3186	3186	3186	3186	3186	3216	3186	3186	3216	3216	3216	3216	3246	3246	3246	3277	3277	3277	3309	3309	3341	3309	3309	3309	3309	3309	3309	3309	3309	3309	3309	3309	3309	3309	3309	0	0	8995	8995	8767	8767	8767	8767	8550	8550	8767	8767	8767	8767	8767	8767	8767	8767	8767	8767	8767	8550	8550	8550	8550	8550	8550	8767	8550	8767	8550	8550	8767	8550	8550	8767	8767	8767	8767	8767	8767	8550	8550	8767	8767	8767	8767	8767	8767	8767	8550	8550	8550	8550	8550	8550	8550	8550	8767	8550	8767	8550	8550	8767	8550	8550	8550	8550	8550	8550	8550	8550	8550	8550	8550	8343	8550	8343	8343	8146	8343	8343	8343	8343	8343	8343	8550	8550	8550	8550	8550	8550	8550	8550	8550	8550	8550	8550	8550	8550	8550	8550	8550	8550	8550	8550	8550	8550	8550	8550	8550	8550	8550	8550	8550	8550	8343	8343	8343	8343	8550	8343	8343	8550	8550	8550	8550	8550	8550	8550	8550	8550	8767	8767	8767	8767	8767	8767	8767	8550	8550	8550	8550	0	0	0	0	0	0	0	2733	2733	2733	2754	2733	2733	2711	2711	2711	2690	2669	2629	2629	2629	2609	2589	2570	2570	2570	2551	2551	2551	2532	2532	2532	2514	2496	2478	2478	2460	2443	2443	2426	2426	2409	2392	2392	2376	2376	2376	2359	2343	2327	2327	2327	2327	2312	2312	2327	2327	2327	2327	2327	2327	2327	2312	2327	2312	2312	2312	2297	2297	0	0	0	1519	1519	1519	1519	1519	1519	1512	1512	1519	1519	1519	1519	1519	1512	1512	1506	1499	1499	1499	1499	0	0	0	0	0	0	0	0	0	0	0	0	0	0	0	0	0	0	0	0	0	0	0	0	0	0	0	0	0	0	0	0	0	0	0	0	0	0	0	0
0	0	0	0	0	0	0	0	0	0	0	0	0	0	0	0	0	0	0	0	0	0	0	0	0	0	0	0	0	0	0	5125	5202	5202	5202	0	0	0	0	0	0	0	0	0	0	0	0	0	0	0	0	0	0	0	0	0	0	0	0	0	0	0	0	0	0	0	0	0	0	0	0	0	0	0	0	0	0	0	0	0	0	0	0	0	0	0	0	0	6592	6468	6592	6592	6592	6592	6592	6720	6720	6720	6720	6853	6992	6853	6992	6992	6992	6992	6992	6992	7137	7137	7137	7287	7287	7444	7444	7608	7608	7444	7444	7608	7608	7608	7608	7779	7779	7779	7779	7779	7779	7779	7959	7959	7959	8146	8146	8343	8343	8343	8343	8343	8550	8343	8550	8343	8343	8550	8550	8550	8550	8550	8550	8550	8550	8550	8550	8767	8550	8767	8550	8550	8343	8343	8343	8343	8343	8343	8343	8343	8343	8343	8343	8343	8343	8343	8343	8343	8146	8343	8343	8343	8343	8550	8550	8550	8550	8343	8550	8343	8343	8343	8343	8343	8343	8343	8343	8343	8343	8550	8550	8343	8550	8550	8550	8343	8343	8343	8343	8343	8343	8343	8343	8343	8343	8343	8550	8550	8550	8550	8550	8550	8550	8550	8550	8550	8343	8343	8550	8550	8343	8343	8343	8343	8146	8343	8343	8343	8343	8343	8343	8343	8343	8343	8343	8343	8343	8343	8343	8343	8343	8343	8550	8550	8343	8343	8343	8343	8343	8343	8343	8343	8343	8343	8343	8343	8343	8343	8343	8343	8343	8550	8343	8343	8343	8146	8146	7959	0	0	0	3309	3277	3309	3277	3277	3277	3309	3277	3277	3277	3277	3277	3277	3277	3277	3246	3246	3246	3216	3216	3216	3186	3186	3216	3186	3186	3186	3186	3186	3186	3186	3186	3157	3157	3157	3157	3157	3186	3186	3186	3186	3216	3216	3186	3186	3216	3216	3216	3186	3216	3216	3186	3186	3186	3186	3186	3186	3186	3186	3216	3216	3216	3216	3216	3246	3246	3277	3277	3277	3309	3309	3341	3309	3309	3309	3309	3309	3309	3309	3309	3309	3309	3309	3309	3277	3277	0	0	8995	8995	8767	8767	8767	8767	8767	8550	8767	8767	8550	8767	8767	8767	8767	8767	8767	8767	8550	8550	8550	8767	8550	8550	8550	8767	8550	8767	8767	8550	8550	8550	8550	8767	8767	8767	8767	8767	8550	8550	8550	8767	8767	8767	8550	8550	8550	8550	8550	8550	8550	8550	8550	8550	8550	8550	8550	8550	8550	8550	8550	8767	8550	8550	8550	8550	8550	8550	8550	8550	8550	8550	8550	8343	8550	8343	8343	8146	8343	8343	8343	8343	8343	8550	8550	8550	8550	8550	8550	8550	8550	8550	8550	8550	8550	8550	8550	8550	8550	8550	8550	8550	8550	8550	8343	8343	8550	8550	8550	8550	8550	8550	8550	8550	8343	8550	8550	8550	8550	8550	8550	8550	8550	8550	8550	8550	8550	8550	8550	8550	8550	8550	8767	8767	8767	8767	8767	8767	8550	8550	8550	0	0	0	0	0	0	0	2733	2733	2733	2733	2733	2711	2711	2690	2690	2669	2669	2649	2629	2629	2609	2589	2570	2589	2570	2551	2551	2551	2532	2532	2532	2514	2496	2478	2460	2460	2443	2426	2426	2409	2392	2409	2392	2392	2376	2376	2359	2359	2343	2343	2327	2327	2312	2327	2327	2327	2327	2327	2327	2327	2312	2312	2312	2297	2297	2297	2281	2281	0	0	1525	1519	1519	1519	1519	1519	1512	1512	1512	1519	1519	1519	1519	1519	1512	1512	1506	1499	1499	1492	1492	0	0	0	0	0	0	0	0	0	0	0	0	0	0	0	0	0	0	0	0	0	0	0	0	0	0	0	0	0	0	0	0	0	0	0	0	0	0	0	0
0	0	0	0	0	0	0	0	0	0	0	0	0	0	0	0	0	0	0	0	0	0	0	0	0	0	0	0	0	0	0	5202	5202	5202	5202	5202	5282	5282	0	0	0	0	0	0	0	0	0	0	0	0	0	0	0	0	0	0	0	0	0	0	0	0	0	0	0	0	0	0	0	0	0	0	0	0	0	0	0	0	0	0	0	0	0	0	0	0	0	0	6592	6592	6592	6592	6592	6592	6592	6592	6592	6592	6720	6853	6853	6853	6992	6992	6992	6992	7137	6992	7137	7137	7137	7137	7287	7444	7444	7444	7608	7444	7608	7608	7608	7779	7608	7608	7779	7779	7779	7779	7779	7779	7959	7959	7959	8146	8146	8146	8343	8343	8343	8343	8343	8550	8550	8343	8550	8550	8550	8550	8550	8550	8550	8550	8550	8550	8550	8550	8550	8550	8550	8550	8343	8343	8343	8343	8343	8343	8343	8343	8550	8550	8343	8343	8343	8343	8343	8343	8343	8343	8343	8343	8550	8550	8550	8343	8343	8343	8550	8343	8343	8343	8343	8343	8343	8343	8343	8343	8343	8550	8550	8550	8550	8550	8550	8343	8343	8343	8343	8146	8343	8343	8343	8343	8343	8343	8343	8550	8550	8550	8550	8550	8550	8343	8343	8343	8343	8343	8343	8343	8343	8343	8343	8343	8146	8146	8146	8146	8146	8343	8343	8343	8343	8343	8343	8343	8343	8146	8146	8343	8343	8343	8343	8343	8343	8343	8343	8343	8343	8343	8343	8343	8343	8343	8343	8343	8343	8343	8343	8343	8550	8550	8343	8343	8146	7959	7959	0	0	0	0	3309	3277	3277	3277	3277	3277	3277	3277	3277	3277	3277	3277	3277	3277	3246	3246	3246	3216	3216	3216	3216	3186	3186	3186	3186	3186	3186	3186	3186	3186	3186	3186	3186	3157	3157	3157	3157	3186	3186	3186	3186	3186	3186	3186	3186	3216	3216	3186	3186	3186	3216	3186	3186	3186	3186	3186	3186	3186	3186	3186	3216	3216	3216	3216	3246	3216	3246	3277	3309	3309	3341	3341	3341	3341	3341	3341	3309	3309	3309	3309	3309	3309	3309	3309	3277	3277	0	0	8995	8767	8767	8767	8767	8767	8767	8767	8767	8767	8550	8767	8767	8767	8767	8767	8767	8767	8767	8767	8767	8767	8767	8767	8767	8767	8767	8767	8767	8550	8550	8550	8550	8767	8767	8767	8767	8767	8550	8550	8550	8550	8767	8767	8550	8550	8767	8767	8767	8767	8550	8767	8767	8550	8550	8550	8550	8550	8550	8550	8550	8550	8550	8550	8550	8550	8550	8550	8550	8550	8550	8550	8550	8550	8550	8343	8343	8343	8343	8343	8343	8343	8343	8550	8550	8550	8550	8550	8550	8550	8550	8550	8550	8343	8343	8550	8343	8550	8550	8550	8550	8550	8550	8550	8343	8550	8550	8550	8550	8550	8550	8343	8550	8550	8550	8550	8550	8550	8550	8550	8550	8550	8550	8550	8550	8550	8550	8550	8550	8550	8550	8767	8767	8767	8767	8767	8767	8767	8550	8550	8550	8550	0	0	0	0	0	0	2754	2754	2754	2754	2733	2711	2690	2690	2690	2649	2649	2649	2629	2629	2609	2609	2570	2570	2570	2551	2551	2532	2532	2532	2514	2496	2496	2478	2460	2460	2443	2426	2426	2409	2409	2392	2392	2392	2392	2376	2359	2359	2359	2343	2327	2327	2312	2327	2327	2327	2327	2327	2327	2327	2312	2312	2312	2297	2297	2297	2281	2281	2281	0	1525	1519	1519	1519	1512	1519	1512	1512	1512	1512	1519	1519	1519	1519	1519	1512	1512	1506	1499	1499	1499	0	0	0	0	0	0	0	0	0	0	0	0	0	0	0	0	0	0	0	0	0	0	0	0	0	0	0	0	0	0	0	0	0	0	0	0	0	0	0	0
0	0	0	0	0	0	0	0	0	0	0	0	0	0	0	0	0	0	0	0	0	0	0	0	0	0	0	0	0	0	5202	5202	5202	5202	5202	5202	5282	5282	0	0	0	0	0	0	0	0	0	0	5282	5282	0	0	0	0	0	0	0	0	0	0	0	0	0	0	0	0	0	0	0	0	0	0	0	0	0	0	0	0	0	0	0	0	0	0	0	0	0	0	6592	6592	6592	6592	6592	6592	6592	6592	6592	6720	6720	6853	6992	6992	6992	6992	6992	6992	6992	6992	7137	7137	7287	7287	7287	7444	7444	7444	7444	7444	7444	7444	7608	7608	7608	7608	7608	7779	7779	7779	7779	7779	7959	7959	7959	8146	8343	8343	8343	8343	8343	8343	8343	8550	8343	8343	8550	8550	8550	8550	8550	8550	8550	8550	8550	8550	8550	8550	8550	8550	8550	8550	8343	8343	8343	8343	8343	8343	8343	8343	8550	8550	8343	8343	8343	8343	8343	8343	8343	8343	8343	8343	8550	8550	8550	8343	8343	8343	8550	8343	8343	8343	8343	8343	8343	8343	8343	8343	8343	8343	8550	8550	8550	8550	8550	8550	8343	8343	8343	8146	8146	8343	8343	8343	8343	8343	8550	8550	8343	8343	8343	8343	8550	8343	8343	8343	8343	8343	8343	8343	8343	8343	8343	8343	8146	8146	8146	8146	8146	8343	8343	8343	8343	8343	8343	8343	8343	8146	8146	8146	8343	8343	8343	8343	8343	8343	8343	8343	8343	8343	8343	8343	8343	8343	8343	8343	8343	8343	8343	8343	8550	8550	8343	8343	8343	8146	8146	0	0	0	0	3309	3277	3277	3277	3277	3277	3277	3277	3277	3277	3277	3277	3246	3246	3246	3246	3246	3216	3216	3216	3216	3186	3186	3186	3186	3186	3186	3186	3186	3186	3186	3157	3186	3157	3157	3157	3157	3186	3186	3186	3186	3216	3186	3186	3186	3186	3216	3186	3186	3216	3216	3216	3186	3186	3186	3186	3186	3186	3186	3186	3216	3216	3216	3216	3246	3246	3246	3277	3277	3309	3309	3341	3341	3341	3309	3309	3309	3309	3309	3309	3309	3309	3309	3309	3277	3277	0	0	8767	8767	8767	8767	8767	8767	8767	8550	8550	8550	8550	8550	8550	8767	8767	8767	8767	8767	8767	8767	8767	8767	8995	8767	8767	8767	8767	8767	8767	8550	8550	8550	8550	8550	8550	8767	8767	8767	8550	8550	8550	8550	8767	8767	8767	8767	8767	8767	8767	8550	8550	8550	8767	8550	8550	8550	8550	8550	8550	8550	8550	8767	8550	8550	8550	8550	8550	8550	8550	8550	8550	8550	8550	8550	8550	8550	8343	8343	8343	8343	8343	8343	8343	8550	8550	8550	8550	8550	8550	8550	8550	8343	8343	8343	8343	8550	8343	8550	8343	8343	8343	8550	8550	8550	8343	8550	8550	8550	8550	8550	8343	8343	8550	8550	8550	8550	8550	8550	8550	8550	8550	8550	8550	8550	8550	8550	8550	8550	8550	8550	8550	8550	8767	8767	8767	8767	8767	8767	8550	8767	8550	8550	0	0	0	0	0	0	2754	2754	2754	2754	2733	2711	2711	2711	2690	2690	2649	2649	2629	2629	2609	2609	2570	2570	2570	2551	2532	2532	2532	2514	2514	2496	2478	2478	2460	2460	2443	2443	2426	2409	2392	2392	2392	2392	2376	2376	2359	2359	2343	2343	2327	2327	2327	2327	2327	2327	2327	2327	2327	2327	2312	2297	2297	2281	2281	2281	2266	2252	2223	2208	2208	2208	1519	1519	1506	1512	1512	1512	1506	1512	1519	1519	1525	1519	1519	1519	1512	1506	1499	1499	1499	0	0	0	0	0	0	0	0	0	0	0	0	0	0	0	0	0	0	0	0	0	0	0	0	0	0	0	0	0	0	0	0	0	0	0	0	0	0	0	0
0	0	0	0	0	0	0	0	0	0	0	0	0	0	0	0	0	0	0	0	0	0	0	0	0	0	0	0	0	0	5282	5202	5202	5202	5202	5202	5282	5282	5282	0	0	0	0	5626	5626	5282	5282	5364	5282	5364	5364	5364	0	0	0	0	0	0	0	0	0	0	0	0	0	0	0	0	0	0	0	0	0	0	0	0	0	0	0	0	0	0	0	0	0	0	0	0	6592	6592	6592	6592	6720	6592	6592	6592	6592	6720	6720	6853	6992	6992	6992	6992	6992	6992	6992	6992	7137	7137	7137	7287	7287	7444	7444	7444	7608	7608	7608	7608	7608	7608	7608	7608	7608	7608	7608	7779	7779	7959	7959	7959	8146	8343	8343	8343	8343	8550	8343	8343	8343	8343	8343	8343	8550	8550	8550	8550	8550	8550	8550	8550	8550	8550	8550	8550	8550	8550	8550	8550	8343	8343	8343	8343	8550	8343	8550	8550	8550	8550	8550	8343	8343	8343	8343	8343	8343	8343	8343	8343	8343	8343	8550	8343	8550	8343	8343	8343	8343	8343	8343	8343	8343	8343	8343	8343	8343	8550	8550	8550	8550	8550	8550	8343	8343	8343	8343	8146	8146	8343	8343	8343	8343	8343	8550	8550	8343	8343	8343	8343	8343	8343	8343	8343	8343	8343	8343	8343	8550	8343	8343	8146	8146	8146	8146	8146	8146	8343	8343	8343	8146	8146	8146	8343	8146	8146	8146	8146	8146	8343	8146	8343	8343	8343	8343	8343	8343	8343	8343	8343	8343	8146	8343	8343	8343	8343	8343	8343	8550	8550	8343	8343	8343	8343	8343	0	0	0	0	3309	3277	3277	3277	3277	3246	3246	3246	3246	3277	3277	3277	3246	3246	3246	3246	3246	3216	3216	3186	3216	3186	3216	3186	3186	3186	3186	3186	3186	3186	3186	3157	3186	3157	3157	3157	3157	3186	3186	3186	3186	3186	3186	3186	3186	3186	3186	3186	3186	3186	3186	3186	3186	3186	3186	3186	3186	3186	3186	3186	3216	3216	3216	3216	3246	3246	3246	3277	3277	3309	3309	3309	3309	3309	3309	3309	3309	3309	3309	3309	3309	3309	3309	3309	3277	3277	0	0	8767	8767	8767	8767	8767	8767	8767	8550	8550	8767	8550	8767	8767	8767	8767	8767	8767	8767	8767	8767	8767	8767	8767	8767	8767	8767	8550	8550	8550	8550	8550	8550	8550	8550	8550	8550	8767	8767	8550	8550	8550	8550	8767	8767	8767	8767	8767	8767	8767	8767	8767	8767	8767	8550	8550	8550	8550	8550	8550	8550	8550	8550	8550	8550	8550	8550	8550	8550	8550	8550	8550	8550	8550	8550	8550	8550	8343	8343	8343	8343	8343	8343	8550	8550	8550	8550	8550	8550	8550	8550	8550	8343	8343	8343	8343	8343	8343	8343	8550	8550	8550	8550	8550	8550	8550	8550	8550	8550	8550	8550	8550	8550	8550	8550	8550	8550	8550	8550	8550	8550	8550	8550	8550	8550	8550	8550	8550	8343	8550	8550	8550	8550	8550	8550	8767	8767	8767	8767	8550	8550	8550	8550	0	0	0	0	0	0	2754	2754	2754	2754	2711	2711	2711	2711	2690	2649	2649	2649	2629	2629	2609	2589	2570	2570	2551	2551	2532	2532	2532	2514	2514	2496	2496	2478	2478	2460	2460	2443	2426	2409	2392	2392	2392	2392	2392	2376	2359	2343	2327	2327	2327	2327	2327	2327	2327	2327	2327	2327	2327	2327	2312	2297	2297	2281	2281	2281	2266	2237	2237	2208	2208	2223	2223	1506	1506	1512	1506	1512	1506	1519	1519	1525	1525	1519	1519	1519	1512	1499	1499	1499	1499	0	0	0	0	0	0	0	0	0	0	0	0	0	0	0	0	0	0	0	0	0	0	0	0	0	0	0	0	0	0	0	0	0	0	0	0	0	0	0	0
0	0	0	0	0	0	0	0	0	0	0	0	0	0	0	0	0	0	0	0	0	0	0	0	0	0	0	0	0	5282	5282	5202	5282	5282	5202	5202	5282	5282	5448	5626	5626	5626	5815	5719	5719	5364	5364	5364	5364	5364	5448	5448	5535	5535	5915	5915	0	0	0	0	0	0	0	0	0	0	0	0	0	0	0	0	0	0	0	0	0	0	0	0	0	0	0	0	0	0	0	6592	6592	6592	6592	6592	6720	6592	6592	6720	6720	6720	6720	6853	6992	6992	6992	6992	6992	6992	6992	6992	7137	7137	7287	7287	7287	7287	7287	7444	7608	7444	7444	7608	7608	7608	7444	7444	7444	7608	7608	7779	7779	7959	8146	8146	8343	8343	8343	8550	8550	8550	8343	8343	8343	8343	8343	8343	8550	8550	8550	8550	8550	8550	8550	8550	8550	8550	8550	8550	8550	8550	8550	8550	8343	8343	8343	8550	8550	8343	8550	8550	8550	8550	8550	8343	8146	8146	8146	8343	8146	8343	8343	8343	8550	8550	8550	8343	8550	8343	8343	8343	8343	8343	8343	8343	8343	8343	8343	8343	8343	8343	8550	8550	8550	8550	8550	8343	8343	8343	8343	8146	8146	8146	8146	8343	8343	8343	8343	8343	8343	8343	8343	8343	8550	8343	8343	8343	8343	8343	8343	8550	8343	8343	8343	8146	8146	8343	8146	8146	8146	8146	8146	8146	8146	8146	8146	8146	8146	8146	8146	8146	8146	8146	8146	8343	8343	8343	8343	8343	8343	8343	8343	8343	8343	8343	8343	8343	8550	8550	8550	8550	8550	8550	8343	8343	8343	8343	8343	0	0	0	0	3309	3309	3309	3277	3277	3246	3246	3246	3246	3277	3277	3246	3246	3246	3246	3246	3246	3216	3216	3216	3186	3216	3216	3216	3186	3186	3186	3186	3186	3186	3157	3186	3157	3157	3157	3157	3157	3186	3186	3186	3186	3186	3186	3186	3186	3186	3186	3186	3186	3186	3186	3186	3186	3186	3186	3186	3186	3186	3186	3186	3186	3216	3216	3246	3246	3246	3277	3277	3277	3309	3309	3309	3309	3309	3309	3309	3309	3309	3309	3309	3309	3309	3309	3309	3277	3277	0	0	8767	8767	8767	8767	8767	8767	8767	8767	8767	8767	8550	8550	8767	8767	8767	8767	8550	8767	8767	8767	8550	8767	8767	8767	8767	8550	8550	8550	8550	8550	8550	8550	8550	8550	8550	8550	8550	8767	8767	8767	8550	8767	8767	8767	8767	8767	8550	8550	8550	8550	8550	8550	8767	8550	8550	8550	8550	8550	8550	8550	8550	8550	8550	8550	8550	8550	8550	8550	8550	8550	8550	8550	8550	8550	8550	8550	8550	8343	8343	8343	8343	8343	8550	8550	8550	8550	8550	8550	8550	8550	8550	8343	8343	8343	8343	8343	8343	8343	8550	8550	8550	8550	8550	8550	8550	8550	8550	8550	8550	8550	8343	8343	8550	8550	8550	8550	8550	8550	8550	8550	8550	8550	8550	8550	8550	8550	8550	8550	8550	8550	8550	8550	8550	8550	8550	8550	8767	8767	8550	8550	8550	0	0	0	0	0	0	0	0	2754	2754	2733	2733	2711	2711	2711	2690	2649	2669	2649	2629	2629	2609	2609	2570	2570	2551	2551	2532	2532	2514	2514	2514	2496	2478	2478	2460	2460	2443	2443	2426	2409	2392	2392	2392	2392	2376	2359	2343	2343	2327	2312	2312	2312	2312	2327	2327	2327	2327	2327	2327	2312	2297	2281	2281	2281	2266	2252	2252	2223	2208	2208	2194	2223	2208	2208	1512	1512	1512	1512	1512	1512	1525	1525	1525	1519	1512	1512	1506	1499	1499	1492	1492	0	0	0	0	0	0	0	0	0	0	0	0	0	0	0	0	0	0	0	0	0	0	0	0	0	0	0	0	0	0	0	0	0	0	0	0	0	0	0	0
0	0	0	0	0	0	0	0	0	0	0	0	0	0	0	0	0	0	0	0	0	0	0	0	0	0	0	0	0	5282	5282	5202	5282	5202	5202	5202	5282	5282	5364	5448	5448	6235	6235	6018	5719	5364	5364	5364	5364	5364	5364	5448	5448	5815	5815	5815	0	0	0	0	0	0	0	0	0	0	0	0	0	0	0	0	0	0	0	0	0	0	0	0	0	0	0	0	0	0	0	6592	6592	6720	6592	6720	6720	6720	6720	6720	6720	6720	6853	6853	6992	6992	6992	6992	6992	6992	6992	6992	6992	6992	7137	7137	7137	7287	7444	7444	7608	7608	7608	7444	7608	7444	7444	7444	7444	7608	7608	7779	7779	7959	8146	8146	8343	8343	8343	8550	8550	8550	8343	8343	8343	8343	8343	8343	8550	8550	8550	8767	8767	8550	8550	8550	8550	8550	8550	8550	8550	8550	8550	8343	8343	8343	8343	8343	8550	8550	8550	8550	8550	8550	8550	8343	8343	8343	8146	8343	8343	8343	8343	8550	8550	8550	8550	8550	8343	8343	8343	8343	8343	8343	8343	8343	8343	8343	8146	8343	8343	8550	8550	8550	8550	8550	8343	8343	8343	8343	8343	8146	8146	8343	8343	8343	8343	8343	8343	8343	8343	8550	8550	8550	8550	8550	8343	8550	8343	8343	8343	8343	8343	8343	8343	8146	8146	8343	8146	8146	8146	8343	8146	8146	8146	7959	7959	8146	8146	8146	8146	8146	8343	8146	8146	8146	8343	8343	8343	8343	8343	8343	8343	8343	8343	8343	8343	8550	8550	8550	8550	8550	8550	8550	8343	8343	8343	8343	0	0	0	0	0	3309	3309	3277	3277	3277	3277	3277	3246	3216	3246	3246	3246	3246	3246	3246	3246	3246	3216	3216	3216	3216	3216	3216	3186	3186	3186	3186	3186	3186	3157	3157	3157	3157	3157	3157	3157	3157	3186	3186	3186	3186	3186	3186	3186	3186	3186	3186	3186	3186	3186	3186	3186	3186	3186	3186	3186	3186	3186	3186	3186	3216	3216	3216	3216	3246	3246	3246	3277	3277	3309	3309	3309	3309	3309	3309	3309	3309	3309	3277	3277	3277	3277	3277	3277	3277	3277	3277	0	8767	8767	8767	8767	8767	8767	8767	8550	8550	8767	8550	8550	8550	8550	8767	8767	8550	8767	8767	8767	8767	8767	8767	8767	8767	8767	8767	8550	8550	8550	8550	8550	8550	8550	8550	8550	8550	8550	8767	8550	8550	8550	8550	8550	8550	8550	8550	8550	8550	8550	8550	8767	8767	8550	8550	8550	8550	8550	8550	8550	8550	8550	8550	8550	8550	8550	8550	8550	8550	8550	8550	8550	8550	8550	8550	8550	8550	8343	8343	8343	8343	8343	8343	8550	8550	8550	8550	8550	8550	8550	8550	8343	8343	8343	8343	8343	8343	8343	8550	8550	8550	8550	8550	8550	8550	8550	8550	8550	8550	8343	8343	8343	8550	8550	8550	8550	8550	8550	8767	8550	8550	8550	8550	8550	8550	8550	8550	8550	8550	8550	8550	8550	8767	8550	8767	8767	8767	8767	8550	8550	8550	8550	0	0	0	0	0	0	0	2777	2754	2733	2733	2711	2711	2690	2669	2649	2649	2649	2629	2629	2609	2589	2570	2570	2551	2551	2532	2532	2514	2496	2496	2478	2478	2478	2460	2460	2443	2443	2426	2426	2409	2409	2409	2376	2376	2359	2343	2343	2327	2327	2312	2327	2327	2327	2327	2327	2312	2297	2297	2281	2266	2266	2252	2252	2237	2237	2223	2223	2208	2208	2194	2223	2208	2208	2194	1512	1506	1506	1506	1506	1525	1525	1525	1519	1519	1512	1506	1499	1499	1499	1499	0	0	0	0	0	0	0	0	0	0	0	0	0	0	0	0	0	0	0	0	0	0	0	0	0	0	0	0	0	0	0	0	0	0	0	0	0	0	0	0
0	0	0	0	0	0	0	0	0	0	0	0	0	0	0	0	0	0	0	0	0	0	0	0	0	0	0	0	0	5282	5282	5282	5282	5202	5202	5202	5282	5282	5282	5364	5364	6349	6235	6124	6018	5282	5364	5364	5364	5364	5448	5448	5448	5535	5626	5719	5719	5626	5626	0	0	0	0	0	0	0	0	0	0	0	0	0	0	0	0	0	0	0	0	0	0	0	0	0	0	0	0	6592	6592	6720	6592	6592	6853	6720	6720	6720	6720	6853	6853	6853	6853	6992	6992	6992	6992	6992	6992	6992	6992	6992	7137	7137	7137	7287	7444	7444	7608	7608	7444	7444	7444	7444	7444	7287	7287	7608	7608	7779	7779	0	0	0	8343	8343	8343	8550	8550	8343	8343	8343	8343	8343	8343	8343	8550	8550	8550	8550	8550	8550	8550	8550	8550	8550	8550	8550	8550	8343	8343	8343	8343	8343	8343	8343	8550	8343	8550	8550	8550	8550	8343	8343	8343	8343	8343	8343	8343	8343	8343	8550	8550	8550	8550	8343	8343	8343	8343	8343	8343	8343	8343	8343	8343	8343	8146	8343	8343	8550	8550	8550	8550	8550	8343	8343	8343	8343	8343	8146	8146	8343	8343	8343	8343	8343	8343	8343	8343	8550	8550	8550	8550	8550	8343	8550	8343	8343	8343	8343	8343	8146	8146	8146	8146	8146	8146	8146	8343	8343	8146	8146	8146	8146	7959	7959	8146	8146	8146	8146	8146	8146	8146	8146	8343	8343	8343	8343	8343	8343	8343	8343	8550	8343	8550	8550	8550	8550	8550	8550	8550	8550	8343	8343	8343	8343	0	0	0	0	0	3309	3277	3277	3246	3246	3246	3246	3216	3246	3277	3277	3277	3277	3246	3246	3216	3246	3216	3216	3216	3216	3216	3216	3186	3186	3186	3186	3186	3186	3186	3186	3186	3157	3157	3157	3157	3157	3216	3186	3186	3186	3186	3186	3186	3186	3186	3186	3186	3186	3186	3186	3186	3186	3186	3186	3186	3186	3186	3186	3186	3186	3216	3216	3216	3246	3246	3246	3277	3277	3309	3309	3309	3309	3309	3309	3309	3277	3277	3277	3277	3277	3246	3277	3277	3277	3309	3309	0	8995	8767	8767	8767	8767	8767	8767	8767	8550	8550	8550	8550	8550	8550	8550	8550	8550	8550	8550	8767	8767	8995	8995	8767	8767	8767	8767	8767	8550	8550	8550	8550	8550	8550	8550	8550	8550	8550	8767	8550	8550	8550	8550	8550	8550	8550	8550	8550	8550	8767	8767	8767	8767	8767	8550	8550	8550	8550	8550	8550	8343	8343	8343	8550	8550	8550	8550	8550	8550	8550	8550	8550	8550	8550	8550	8550	8343	8343	8343	8343	8343	8343	8343	8550	8550	8550	8550	8550	8550	8550	8550	8343	8343	8343	8343	8343	8343	8343	8550	8550	8550	8550	8550	8550	8343	8550	8550	8550	8550	8550	8550	8343	8550	8550	8550	8550	8550	8550	8767	8767	8767	8550	8550	8550	8550	8550	8550	8550	8550	8550	8550	8550	8767	8550	8767	8767	8767	8767	8550	8550	8343	8343	0	0	0	0	0	0	0	2777	2733	2733	2711	2711	2711	2690	2690	2669	2669	2649	2629	2609	2609	2589	2570	2570	2551	2551	2532	2532	2514	2496	2496	2478	2478	2460	2460	2460	2443	2443	2426	2426	2426	2409	2392	2392	2392	2343	2343	2327	2327	2312	2312	2327	2327	2327	2327	2327	2312	2297	2281	2252	2252	2252	2237	2237	2237	2223	2223	2223	2208	2194	2194	2208	2208	2194	2181	1512	1506	1506	1506	1506	1525	1525	1525	1525	1519	1519	1512	1506	1499	1499	1499	0	0	0	0	0	0	0	0	0	0	0	0	0	0	0	0	0	0	0	0	0	0	0	0	0	0	0	0	0	0	0	0	0	0	0	0	0	0	0	0
0	0	0	0	0	0	0	0	0	0	0	0	0	0	0	0	0	0	0	0	0	0	0	0	0	0	0	0	0	0	5282	5282	5202	5202	5202	5202	5202	5202	5282	5282	6349	6349	6349	6235	5364	5364	5364	5364	5364	5364	5448	5448	5448	5535	5626	5626	5719	5626	5626	0	0	0	0	0	0	0	0	0	0	0	0	0	0	0	0	0	0	0	0	0	0	0	0	0	0	0	0	6592	6720	6720	6720	6853	6853	6853	6853	6853	6720	6853	6853	6992	6992	7137	6992	7137	6992	6992	6992	7137	6992	6992	7137	7137	7137	7287	7444	7444	7444	7444	7444	7444	7444	7287	7287	7287	7287	0	0	0	0	0	0	0	0	8343	8343	8343	8343	8343	8343	8343	8343	8343	8343	8343	8550	8550	8550	8550	8550	8550	8550	8550	8550	8550	8550	8550	8343	8343	8343	8343	8343	8343	8343	8550	8550	8550	8550	8550	8550	8550	8550	8550	8343	8343	8343	8343	8343	8343	8550	8550	8550	8767	8550	8550	8550	8550	8550	8550	8343	8550	8343	8343	8343	8343	8343	8343	8343	8550	8550	8550	8550	8550	8343	8343	8343	8343	8343	8343	8343	8343	8343	8343	8343	8343	8343	8343	8550	8550	8550	8550	8550	8550	8343	8550	8343	8343	8343	8343	8343	8146	8146	8146	8146	8146	8146	8343	8343	8343	8146	8146	8146	8146	7959	7959	7959	8343	8146	8343	8343	8343	8343	8343	8343	8343	8343	8343	8343	8343	8343	8550	8550	8550	8550	8550	8550	8550	8550	8550	8550	8550	8550	8343	8343	8343	8343	0	0	0	0	0	3277	3246	3246	3246	3246	3246	3216	3277	3277	3277	3277	3277	3246	3246	3246	3246	3216	3216	3186	3186	3216	3216	3186	3186	3186	3186	3186	3186	3186	3186	3186	3157	3157	3157	3157	3157	3216	3186	3186	3186	3186	3186	3186	3186	3186	3186	3186	3186	3186	3186	3186	3186	3186	3186	3186	3186	3186	3186	3186	3186	3216	3216	3246	3246	3246	3277	3277	3277	3277	3309	3309	3309	3309	3309	3309	3277	3277	3277	3277	3277	3246	3246	3277	3277	3277	3309	9489	9489	8995	8767	8767	8767	8767	8767	8767	8767	8550	8550	8550	8550	8550	8550	8550	8550	8550	8550	8767	8995	8995	8995	8767	8767	8767	8767	8767	8767	4906	4906	4838	4838	4906	4906	4906	8550	8550	8550	8550	8550	8550	8550	8550	8343	8343	8550	8550	8550	8767	8550	8995	8767	8767	8550	8550	8550	8550	8550	8343	8343	8550	8550	8550	8550	8550	8550	8550	8550	8550	8550	8343	8343	8550	8550	8550	8343	8343	8550	5050	5050	8343	8343	8343	8343	8343	8343	8343	8343	8343	8343	8343	8343	8550	8550	8343	8343	8146	8550	8550	8550	8550	8550	8550	8550	8550	8550	8550	8550	8550	8550	8550	8550	8550	8550	8550	8550	8550	8767	8767	8767	8550	8550	8550	8550	8550	8550	8550	8550	8550	8550	8550	8767	8550	8767	8767	8767	8550	8550	8550	8550	8550	0	0	0	0	0	0	0	2711	2711	2711	2711	2711	2690	2690	2690	2669	2669	2649	2629	2609	2589	2589	2570	2570	2551	2551	2532	2532	2514	2496	2478	2478	2460	2460	2460	2460	2443	2443	2443	2443	2426	2409	2392	2392	2376	2343	2327	2327	2327	2327	2327	2327	2327	2327	2327	2327	2312	2297	2266	2237	2237	2237	2237	2223	2223	2223	2223	2208	2208	2194	2194	2208	2208	2194	2167	2153	2140	2127	2114	2114	2063	2063	2063	2063	1512	1512	1512	1506	1506	1499	1499	0	0	0	0	0	0	0	0	0	0	0	0	0	0	0	0	0	0	0	0	0	0	0	0	0	0	0	0	0	0	0	0	0	0	0	0	0	0	0	0
0	0	0	0	0	0	0	0	0	0	0	0	0	0	0	0	0	0	0	0	0	0	0	0	0	0	0	0	0	0	5282	5202	5202	5202	5202	5202	5202	5202	5282	6235	6235	6349	6349	6235	5364	5364	5364	5364	5364	5364	5448	5364	5364	5448	5535	5626	5626	5626	5626	0	0	0	0	0	0	0	0	0	0	0	0	0	0	0	0	0	0	0	0	0	0	0	0	0	0	0	6468	6468	6592	6592	6592	6592	6853	6853	6853	6720	6853	6992	6992	6992	6992	6992	6992	7137	7137	6992	6992	7137	6992	7137	7137	7137	7287	7287	7444	7444	7608	7444	7444	7287	7287	7287	7287	7287	0	0	0	0	0	0	0	0	0	0	0	8550	8550	8550	8343	8343	8343	8550	8343	8550	8550	8550	8550	8550	8550	8550	8550	8550	8550	8550	8550	8550	8343	8343	8343	8343	8343	8550	8550	8550	8550	8343	8343	8550	8343	8343	8343	8343	8343	8343	8343	8343	8343	8550	8550	8767	8767	8767	8767	8550	8550	8550	8550	8550	8550	8550	8550	8343	8343	8343	8343	8343	8343	8550	8550	8550	8550	8550	8343	8343	8343	8343	8343	8343	8343	8343	8343	8343	8343	8550	8550	8550	8550	8550	8550	8550	8550	8550	8550	8343	8550	8343	8343	8343	8343	8146	8146	8146	8146	8146	8146	8343	8343	8343	8146	8146	8146	8343	8343	8343	8146	7959	8146	8146	8146	8146	8343	8146	8343	8343	8343	8343	8343	8343	8550	8550	8550	8550	8550	8550	8550	8550	8550	8550	8550	8550	8550	8343	8343	8343	8343	8343	0	0	0	0	0	3277	3246	3246	3246	3246	3246	3277	3277	3277	3277	3277	3246	3246	3246	3246	3216	3216	3186	3186	3186	3186	3186	3186	3186	3186	3186	3186	3186	3186	3186	3157	3157	3157	3157	3157	3216	3186	3186	3186	3186	3186	3186	3186	3186	3186	3186	3186	3186	3186	3186	3186	3186	3186	3186	3186	3186	3186	3186	3186	3216	3216	3216	3246	3246	3246	3246	3246	3246	3246	3277	3277	3277	3277	3277	3277	3277	3277	3277	3277	3246	3246	3246	3246	3277	9489	9489	9489	8995	8767	8995	8995	8995	8995	8767	8767	8767	8550	8550	8550	8550	8550	8550	8343	8343	8343	8343	9235	4977	4977	9235	8767	8767	8767	4906	4906	4906	4906	4906	4906	4977	4977	4977	5050	5050	5050	5125	5125	5125	5125	5125	5125	5125	5125	5050	5050	5125	5125	5050	5125	5125	8767	8767	8767	8550	8550	8343	8343	5050	5050	5050	5050	8550	8550	8550	8343	8343	8343	8343	4977	4977	5050	5050	5050	5050	5050	5050	5050	5050	5050	8146	8146	8146	8343	8146	8146	4906	4977	4977	4977	5050	5050	5050	5125	5125	8550	8550	8550	8550	8550	8550	8550	8550	8550	8550	8550	8550	8550	8550	8550	8550	8550	8550	8550	8550	8767	8767	8767	8550	8550	8550	8550	8550	8550	8550	8550	8343	8550	8550	8550	8550	8550	8550	8767	8550	8550	8550	8343	8343	8343	0	0	0	0	0	0	2711	2711	2711	2690	2690	2690	2690	2669	2669	2669	2649	2629	2609	2589	2589	2570	2570	2551	2551	2551	2532	2532	2514	2496	2478	2478	2460	2460	2460	2460	2443	2443	2443	2409	2392	2376	2392	2376	2359	2327	2327	2327	2327	2327	2327	2327	2327	2327	2327	2312	2297	2252	2237	2237	2223	2223	2223	2223	2223	2223	2208	2194	2194	2181	2194	2181	2167	2153	2140	2127	2114	2101	2076	2063	2063	2063	1506	1506	1512	1506	1506	1506	1499	1499	0	0	0	0	0	0	0	0	0	0	0	0	0	0	0	0	0	0	0	0	0	0	0	0	0	0	0	0	0	0	0	0	0	0	0	0	0	0	0	0
0	0	0	0	0	0	0	0	0	0	0	0	0	0	0	0	0	0	0	0	0	0	0	0	0	0	0	0	0	0	5282	5202	5202	5202	5202	5202	5202	5202	6468	6592	6592	6349	6349	6349	5282	5364	5282	5282	5282	5282	5364	5364	5364	5448	5535	5535	5626	5535	5535	0	0	0	0	0	0	0	0	0	0	0	0	0	0	0	0	0	0	0	0	0	0	0	0	0	0	0	6468	6468	6592	6592	6592	6592	6720	6720	6720	6720	6720	6853	6853	6992	6992	6992	7137	7137	7137	7137	7137	7137	7137	7137	7137	7137	7137	7137	7608	7608	7608	7444	7444	7444	7444	7444	7287	7287	0	0	0	0	0	0	0	0	0	0	0	8550	8550	8550	8550	8550	8550	8550	8550	8550	8550	8550	8550	8550	8550	8550	8550	8550	8550	8550	8550	8550	8550	8343	8343	8550	8343	8343	8343	8343	8343	8343	8343	8343	8343	8343	8343	8343	8343	8343	8343	8343	8343	8550	8550	8767	8550	8767	8550	8550	8550	8550	8550	8550	8343	8343	8343	8343	8343	8343	8343	8343	8343	8343	8343	8343	8343	8343	8343	8343	8343	8343	8343	8343	8343	8343	8343	8343	8343	8343	8343	8550	8550	8550	8343	8550	8343	8550	8550	8343	8343	8343	8343	8343	8343	8343	8146	8146	8146	8146	8146	8343	8343	8343	8343	8343	8343	8343	8343	8146	8146	8146	8146	8343	8343	8343	8343	8343	8343	8343	8343	8343	8343	8343	8550	8550	8550	8550	8550	8550	8550	8550	8550	8550	8550	8550	8550	8343	8343	8343	8343	8343	0	0	0	0	3277	3277	3246	3216	3216	3216	3216	3246	3277	3277	3277	3277	3277	3246	3216	3216	3216	3186	3186	3186	3186	3186	3186	3186	3186	3186	3186	3186	3186	3186	3186	3157	3157	3157	3157	3157	3186	3186	3186	3186	3186	3186	3186	3186	3186	3186	3186	3186	3186	3186	3186	3186	3186	3186	3186	3186	3186	3186	3216	3216	3216	3216	3216	3216	3246	3246	3246	3246	3277	3277	3277	3277	3277	3277	3277	3277	3277	3277	3277	3277	3246	3246	3246	3246	9489	9489	9489	5050	5050	5050	4977	4977	4977	4977	5050	5050	5050	5050	5050	5125	5125	5050	5125	5050	5050	5050	4977	5050	4977	4977	4977	4977	4977	4977	4906	4977	4977	4977	4977	4977	4977	5050	5050	5050	5050	5050	5050	5125	5050	5050	5050	5050	5050	5050	5050	5050	5050	5050	5050	5050	5125	5125	5125	5050	5125	5125	5125	5125	5050	5125	5050	5050	5050	4977	4977	4977	4906	4906	4906	4906	4977	4977	4977	5050	5050	5050	5050	5050	5050	5050	4977	4977	8146	4906	4838	4838	4838	4906	4906	4906	4977	4977	5050	5050	5050	5050	5050	8343	8343	8343	8550	8550	8550	8550	8550	8550	8550	8550	8550	8550	8550	8550	8550	8550	8550	8550	8767	8767	8550	8550	8550	8550	8550	8550	8343	8343	8343	8343	8343	8550	8550	8550	8550	8550	8550	8550	8550	8343	8550	8550	0	0	0	0	0	0	2711	2711	2711	2690	2690	2690	2690	2690	2669	2649	2649	2609	2609	2589	2589	2570	2570	2551	2551	2551	2532	2532	2514	2496	2478	2478	2460	2460	2460	2443	2443	2426	2409	2409	2392	2376	2359	2359	2343	2327	2327	2327	2327	2327	2327	2327	2327	2327	2327	2312	2297	2266	2237	2223	2223	2223	2223	2208	2208	2208	2208	2194	2181	2167	2181	2153	2153	2127	2114	2101	2088	2088	2051	2051	2039	2027	1486	1499	1480	1480	1499	1499	1499	1499	0	0	0	0	0	0	0	0	0	0	0	0	0	0	0	0	0	0	0	0	0	0	0	0	0	0	0	0	0	0	0	0	0	0	0	0	0	0	0	0
0	0	0	0	0	0	0	0	0	0	0	0	0	0	0	0	0	0	0	0	0	0	0	0	0	0	0	0	0	0	5125	5125	5125	5125	5125	5125	5202	5202	6468	6468	6468	6349	6349	6349	5282	5364	5364	5282	5282	5282	5364	5282	5202	5282	5282	5535	5535	5364	5364	0	0	0	0	0	0	0	0	0	0	0	0	0	0	0	0	0	0	0	0	0	0	0	0	0	0	0	0	0	6592	6592	5050	4977	4977	4977	4977	5050	5050	5050	5050	6992	6992	6992	6992	7137	7137	7137	7137	7137	7137	7287	7287	7287	7287	7137	7608	4977	4977	4977	4977	4977	7444	7444	0	0	0	0	0	0	0	0	0	0	0	0	0	0	8550	8550	8550	8550	8550	8550	8550	8550	8550	8550	8550	8550	8550	8550	8550	8550	8550	8550	8550	8550	8550	8550	8550	8550	8343	8343	8343	8343	8343	8343	8343	8343	8343	8343	8343	8343	8343	8343	8343	8343	8343	8550	8550	8767	8767	8767	8550	8550	8550	8550	8550	8550	8343	8550	8343	8343	8343	8343	8343	8343	8343	8343	8343	8343	8343	8343	8343	8343	8343	8343	8343	8343	8343	8343	8343	8343	8343	8343	8343	8343	8550	8550	8550	8550	8550	8550	8550	8550	8550	8343	8343	8343	8343	8343	8343	8146	8343	8343	8343	8343	8343	8343	8343	8343	8343	8343	8343	8146	8146	8146	8146	8146	8343	8343	8343	8343	8343	8343	8343	8343	8343	8343	8343	8550	8550	8550	8550	8550	8550	8550	8550	8550	8550	8550	8343	8343	8343	8343	8343	8343	0	0	0	0	3277	3277	3246	3216	3216	3216	3216	3186	3216	3277	3277	3277	3246	3246	3216	3216	3216	3186	3186	3186	3186	3186	3186	3186	3186	3186	3186	3186	3186	3186	3186	3157	3157	3157	3157	3157	3216	3186	3186	3186	3186	3186	3186	3186	3186	3186	3186	3186	3186	3186	3186	3186	3186	3186	3186	3186	3186	3186	3186	3186	3186	3216	3216	3246	3216	3246	3246	3246	3246	3246	3246	3246	3277	3277	3277	3246	3277	3277	3246	3277	3246	3216	3216	0	9489	9489	9489	4977	4977	4977	4977	4977	4977	4977	5050	4977	4977	4977	5050	5050	5050	5050	5050	5050	5050	5050	5050	5050	4977	4977	4977	4977	4977	4977	4977	4977	5050	4977	5050	5050	5050	5050	5050	5050	5050	5050	5050	5050	5050	5050	5050	5050	5050	5050	5050	5050	5050	5050	5050	5050	5050	5050	5050	5050	5125	5125	5050	5050	5050	5125	5050	5050	5050	5050	4977	4977	4906	4906	4906	4977	4977	4977	4977	5050	5050	5050	5050	5050	5050	5050	4977	4977	4977	4906	4906	4838	4838	4906	4906	4906	4906	4977	4977	5050	5050	5050	4977	4977	8343	8343	8343	8550	8550	8550	8550	8550	8550	8550	8550	8550	8550	8550	8550	8550	8550	8550	8767	8767	8767	8550	8550	8550	8550	8343	8343	8343	8343	8343	8343	8550	8550	8550	8550	8550	8550	8550	8343	8343	8550	8550	0	0	0	0	0	0	0	2711	2690	2690	2690	2690	2690	2690	2669	2649	2649	2649	2609	2589	2589	2570	2570	2551	2551	2551	2551	2532	2514	2514	2496	2478	2460	2460	2460	2443	2443	2426	2426	2409	2392	2376	2359	2359	2343	2343	2327	2327	2327	2327	2327	2327	2327	2327	2327	2312	2281	2266	2223	2223	2223	2223	2223	2208	2208	2208	2194	2167	2153	2127	2140	2127	2114	2101	2088	2076	2076	2076	2051	2051	2039	2027	1480	1480	1480	1480	1499	1499	1499	1499	0	0	0	0	0	0	0	0	0	0	0	0	0	0	0	0	0	0	0	0	0	0	0	0	0	0	0	0	0	0	0	0	0	0	0	0	0	0	0	0
0	0	0	0	0	0	0	0	0	0	0	0	0	0	0	0	0	0	0	0	0	0	0	0	0	0	0	0	0	0	5050	5050	5050	5050	5050	5125	5125	5125	0	6468	6468	6349	6349	0	0	5364	5364	5282	5202	5202	5282	5282	5125	5125	5125	5282	5364	5202	5125	5125	5050	5050	0	0	0	0	0	0	0	0	0	0	0	0	0	0	0	0	0	0	0	0	0	0	0	0	0	0	0	5050	5050	4977	4977	4977	4977	5050	5050	5050	4977	5050	4977	4977	4977	4977	7137	7137	4977	4977	4977	4977	4977	4977	4977	5050	5050	4977	4977	4977	4977	4906	4771	4771	0	0	0	0	0	0	0	0	0	0	0	0	0	0	8343	8550	8550	8550	8343	8550	8550	8550	8550	8550	8550	8550	8550	8550	8550	8550	8550	8550	8550	8550	8550	8550	8550	8550	8343	8343	8343	8343	8343	8343	8343	8343	8343	8343	8343	8343	8343	8343	8343	8343	8343	8550	8767	8767	8767	8767	8550	8550	8550	8550	8550	8550	8343	8550	8343	8343	8343	8343	8343	8343	8343	8343	8343	8343	8343	8343	8343	8343	8343	8343	8343	8343	8343	8343	8343	8343	8343	8343	8343	8343	8343	8550	8343	8550	8343	8343	8343	8343	8343	8343	8343	8343	8343	8343	8343	8146	8343	8343	8343	8343	8343	8146	8343	8343	8343	8343	8343	8146	8343	8146	8146	8343	8343	8343	8343	8343	8343	8343	8146	8343	8343	8343	8550	8550	8550	8550	8550	8550	8550	8550	8550	8550	8550	8550	8343	8343	8343	8343	8343	0	0	0	0	0	3277	3246	3216	3216	3216	3216	3216	3186	3186	3216	3246	3246	3246	3246	3216	3216	3216	3186	3186	3186	3186	3186	3186	3186	3186	3186	3186	3186	3186	3186	3186	3157	3157	3157	3157	3157	3186	3186	3186	3186	3186	3186	3186	3186	3186	3186	3186	3186	3186	3186	3186	3186	3186	3186	3186	3186	3186	3216	3216	3216	3216	3216	3216	3216	3216	3216	3246	3246	3246	3246	3246	3246	3246	3246	3246	3246	3246	3246	3246	3246	3246	3246	3246	0	9489	4838	4906	4906	4977	4977	4977	4977	4977	4977	4977	4977	4977	4977	4977	4977	5050	5050	5050	5050	5050	5050	4977	4977	4977	4977	4977	4977	4977	4977	4977	4977	5050	4977	5050	5050	5050	5050	5050	5050	5050	5050	4977	4977	4977	4977	4977	4977	5050	5050	5050	5050	5050	5050	5050	5050	5050	5050	5050	5050	5050	5125	5050	5050	5050	5125	5050	5050	5050	5050	4977	4977	4906	4977	4977	4977	4977	4977	4977	5050	5050	5050	5050	5050	5050	5050	4977	4977	4977	4906	4906	4838	4838	4906	4906	4906	4977	4977	4977	5050	5050	5050	4977	4977	8146	8343	8343	8343	8550	8550	8550	8550	8550	8550	8550	8550	8550	8550	8550	8550	8550	8550	8767	8767	8767	8550	8550	8550	8550	8343	8343	8343	8146	8146	8343	8343	8550	8550	8550	8550	8550	8550	8343	8343	8343	8343	0	0	0	0	0	0	0	2711	2690	2690	2690	2690	2690	2669	2669	2649	2649	2649	2609	2589	2589	2551	2570	2551	2551	2551	2532	2532	2532	2496	2478	2478	2460	2443	2443	2443	2443	2426	2426	2409	2376	2359	2359	2343	2343	2343	2327	2343	2327	2327	2327	2327	2327	2327	2327	2312	2281	2266	2223	2223	2223	2223	2208	2208	2194	2194	2181	2153	2127	2114	2127	2127	2114	2088	2076	2076	2076	2063	2051	2027	2027	2027	2015	1473	1473	1480	1506	1499	1492	1492	0	0	0	0	0	0	0	0	0	0	0	0	0	0	0	0	0	0	0	0	0	0	0	0	0	0	0	0	0	0	0	0	0	0	0	0	0	0	0	0
0	0	0	0	0	0	0	0	0	0	0	0	0	0	0	0	0	0	0	0	0	0	0	0	0	0	0	0	0	0	5050	4977	4977	4977	4977	4977	4977	5125	0	0	0	0	0	0	0	0	5282	5282	5125	5125	5282	5202	5125	5125	5125	5125	5125	5125	5050	5050	4977	4977	4977	4977	0	0	0	0	0	0	0	0	0	0	0	0	0	0	0	0	0	0	0	0	0	0	0	0	0	5050	5050	5050	5050	5050	5050	5050	5050	4977	4977	5050	4977	4977	5050	4977	4977	4977	4977	4977	4977	4977	4977	4977	4977	5050	5050	4977	4977	4977	4977	4977	4838	4838	4838	0	0	0	0	0	0	0	0	0	0	0	0	0	8343	8343	8550	8343	8343	8550	8343	8343	8343	8343	8343	8343	8343	8343	8550	8550	8550	8550	8550	8550	8550	8550	8550	8550	8550	8550	8343	8343	8343	8343	8343	8343	8343	8343	8343	8343	8343	8343	8343	8343	8550	8343	8550	8550	8550	8767	8550	8550	8550	8550	8550	8550	8550	8343	8343	8343	8343	8343	8343	8343	8146	8146	8146	8343	8343	8343	8343	8343	8343	8343	8343	8343	8343	8343	8343	8343	8343	8343	8343	8343	8343	8343	8343	8343	8343	8343	8343	8343	8343	8343	8343	8343	8343	8343	8343	8343	8343	8343	8343	8146	8146	8146	8343	8343	8343	8343	8343	8343	8343	8146	8146	8146	8343	8343	8343	8146	8343	8343	8146	8343	8343	8343	8550	8550	8550	8550	8550	8550	8550	8550	8550	8550	8550	8550	8343	8343	8343	8343	8343	0	0	0	0	0	0	3186	3186	3216	3216	3216	3216	3216	3216	3246	3246	3246	3246	3246	3216	3216	3186	3186	3216	3186	3186	3186	3186	3186	3186	3186	3186	3186	3186	3186	3186	3157	3157	3157	3157	3157	3186	3186	3186	3186	3186	3186	3186	3186	3186	3186	3186	3186	3186	3186	3186	3186	3186	3216	3216	3216	3216	3216	3216	3216	3216	3216	3216	3216	3216	3216	3216	3216	3216	3216	3246	3246	3246	3246	3246	3216	3216	3246	3246	3246	3246	3216	3216	0	4838	4838	4906	4906	4906	4906	4906	4906	4977	4977	4977	4977	4977	4977	4977	4977	4977	4977	5050	5050	5050	5050	5050	5050	4977	4977	4977	4977	4977	4977	4977	5050	5050	5050	5050	5050	5050	5050	5050	5050	5050	5050	4977	4977	5050	4977	4977	4977	5050	5050	5050	5050	5050	5050	4977	4977	5050	5050	5050	5050	5050	5050	5050	5050	5050	5050	5050	5050	5050	5050	4977	4977	4977	4977	4977	4977	4977	4977	4977	5050	5050	5050	5050	5050	5050	5050	4977	4977	4977	4906	4906	4906	4906	4906	4906	4906	4977	4977	4977	5050	4977	5050	4977	4977	8146	8343	8343	8343	8343	8550	8550	8550	8550	8550	8550	8550	8550	8550	8550	8550	8550	8550	8767	8767	8767	8550	8550	8550	8550	8343	8343	8343	8343	8343	8343	8343	8550	8550	8550	8550	8343	8550	8550	8550	8767	8767	0	0	0	0	0	0	0	2711	2711	2690	2690	2690	2690	2669	2669	2649	2649	2649	2609	2589	2589	2551	2551	2551	2551	2551	2532	2532	2514	2496	2496	2478	2460	2460	2460	2443	2443	2409	2409	2409	2376	2376	2359	2359	2343	2343	2327	2327	2327	2327	2327	2327	2327	2327	2327	2312	2281	2266	2223	2223	2223	2223	2208	2194	2194	2167	2153	2140	2127	2101	2114	2127	2114	2076	2076	2063	2051	2051	2039	2027	2015	2003	2003	1992	2003	2003	1492	1492	1492	1492	0	0	0	0	0	0	0	0	0	0	0	0	0	0	0	0	0	0	0	0	0	0	0	0	0	0	0	0	0	0	0	0	0	0	0	0	0	0	0	0
0	0	0	0	0	0	0	0	0	0	0	0	0	0	0	0	0	0	0	0	0	0	0	0	0	0	0	0	0	0	4977	4977	4977	4977	4977	4906	4906	0	0	0	0	0	0	0	0	0	5282	5202	5050	5050	5125	5125	5050	5050	5050	5050	5050	5050	5050	4977	4977	4977	4977	4977	0	0	0	0	0	0	0	0	0	0	0	0	0	0	0	0	0	0	0	0	0	0	0	0	0	5050	5050	5050	4977	4977	4977	4977	4977	4977	4977	4977	4977	5050	5050	5050	5050	4977	4977	5050	4977	5050	4977	4977	5050	5050	5050	4977	4977	4977	4977	4977	4977	4906	4906	0	0	0	0	0	0	0	0	0	0	0	0	0	0	8343	8343	8343	8343	8343	8343	8343	8343	8343	8343	8343	8343	8343	8550	8550	8550	8550	8550	8550	8550	8550	8550	8550	8550	8550	8343	8343	8343	8343	8343	8343	8343	8343	8343	8343	8343	8343	8343	8343	8550	8343	8550	8550	8550	8550	8550	8550	8550	8550	8550	8550	8550	8343	8343	8343	8343	8343	8343	8343	8343	8343	8343	8343	8343	8343	8343	8550	8343	8343	8343	8343	8343	8343	8343	8343	8343	8343	8343	8343	8343	8550	8343	8343	8343	8343	8343	8343	8343	8343	8343	8343	8343	8343	8343	8343	8343	8343	8343	8343	8146	8146	8343	8343	8343	8343	8343	8343	8343	8343	8343	8343	8343	8343	8343	8146	8146	8343	8146	8146	8343	8343	8343	8343	8550	8550	8550	8550	8550	8550	8550	8550	8550	8550	8343	8343	8343	8343	8146	8146	0	0	0	0	0	3186	3246	3216	3216	3216	3216	3246	3216	3216	3246	3246	3216	3216	3186	3216	3186	3186	3186	3186	3186	3186	3186	3186	3186	3186	3186	3186	3186	3186	3157	3157	3157	3157	3157	3157	3186	3186	3186	3216	3186	3186	3186	3186	3186	3186	3186	3186	3186	3186	3186	3186	3186	3186	3186	3216	3216	3216	3216	3216	3216	3216	3216	3216	3216	3216	3216	3216	3216	3216	3216	3216	3216	3216	3216	3246	3246	3246	3216	3216	3216	3216	3216	4838	4838	4838	4838	4838	4906	4906	4906	4906	4906	4977	4977	4977	4977	4977	4977	4977	4977	5050	5050	5050	5050	5050	5050	5050	4977	4977	4977	4977	4977	5050	4977	5050	5050	5050	5050	5050	5050	5050	5050	5050	4977	5050	4977	5050	5050	4977	4977	4977	4977	5050	5050	5050	5050	5050	4977	4977	4977	4977	5050	4977	4977	5050	5050	5050	5050	5050	5050	4977	5050	5050	4977	4977	4977	4977	4977	4977	4977	4977	4977	4977	4977	5050	5050	5050	5050	4977	4977	4977	4977	4977	4906	4906	4906	4906	4977	4906	4977	4977	4977	4977	4977	4977	4977	4906	4906	8343	8343	8343	8550	8550	8550	8550	8550	8550	8550	8550	8550	8550	8550	8550	8550	8550	8550	8550	8550	8550	8550	8550	8550	8343	8343	8343	8343	8343	8343	8343	8550	8550	8550	8343	8550	8550	8550	8767	8767	8767	0	0	0	0	0	2777	2754	2733	2711	2711	2690	2690	2669	2669	2649	2649	2649	2649	2609	2609	2589	2570	2570	2551	2551	2551	2532	2532	2514	2496	2496	2478	2478	2460	2443	2443	2409	2409	2409	2392	2392	2376	2376	2359	2343	2343	2327	2327	2327	2327	2327	2327	2327	2312	2312	2312	2281	2266	2223	2223	2223	2208	2208	2194	2181	2153	2140	2127	2114	2101	2114	2127	2101	2076	2076	2063	2039	2039	2027	2027	2015	2015	2003	2003	2003	1992	1980	1492	1492	1492	0	0	0	0	0	0	0	0	0	0	0	0	0	0	0	0	0	0	0	0	0	0	0	0	0	0	0	0	0	0	0	0	0	0	0	0	0	0	0	0
0	0	0	0	0	0	0	0	0	0	0	0	0	0	0	0	0	0	0	0	0	0	0	0	0	0	0	0	0	4977	4977	4977	4977	4977	4977	4977	4977	0	0	0	0	0	0	0	0	5050	5125	5125	5050	5050	5125	5125	5050	5050	5050	5050	5050	5050	5050	4977	4977	4977	4977	4977	0	0	0	0	0	0	0	0	0	0	0	0	0	0	0	0	0	0	0	0	0	0	0	4977	4977	4977	5050	5050	4977	4977	4977	4977	4977	4977	4977	5050	4977	5050	5050	5050	5050	4977	4977	5050	5050	5050	4977	4977	5050	5050	5050	4977	5050	4977	5050	4977	4977	4977	4977	4977	0	0	0	0	0	0	0	0	0	0	0	0	0	8343	8343	8343	8343	8343	8343	8343	8343	8343	8343	8343	8343	8550	8550	8343	8550	8550	8550	8550	8550	8550	8550	8550	8550	8550	8343	8343	8343	8343	8343	8343	8343	8343	8343	8343	8343	8343	8343	8343	8343	8343	8343	8550	8550	8550	8550	8550	8550	8550	8550	8343	8343	8343	8343	8343	8343	8343	8343	8343	8343	8146	8146	8146	8343	8343	8550	8343	8343	8343	8343	8343	8343	8343	8343	8343	8343	8343	8343	8343	8343	8343	8343	8343	8343	8343	8343	8343	8343	8343	8343	8343	8343	8343	8343	8343	8343	8343	8343	8343	8146	8146	8146	8146	8343	8343	8343	8146	8343	8343	8343	8343	8343	8343	8343	8343	8343	8343	8146	8343	8343	8343	8343	8343	8343	8550	8550	8550	8550	8343	8343	8343	8343	8343	8343	8343	8343	8343	8343	8343	0	0	0	0	0	3277	3246	3216	3246	3216	3216	3216	3216	3216	3216	3216	3216	3186	3186	3186	3216	3216	3186	3186	3186	3186	3186	3186	3186	3186	3186	3186	3186	3186	3157	3157	3157	3157	3157	3157	3186	3186	3186	3186	3186	3186	3186	3186	3186	3186	3186	3186	3186	3186	3186	3186	3186	3186	3186	3216	3216	3216	3216	3216	3216	3216	3216	3216	3216	3216	3186	3216	3216	3216	3216	3216	3216	3216	3216	3216	3246	3246	3246	3246	3246	3246	4838	4838	4838	4838	4838	4838	4838	4838	4838	4906	4838	4838	4838	4906	4977	4906	4906	4977	5050	5050	5050	5050	5050	5050	5050	5050	5050	4977	4977	4977	4977	5050	5050	5050	5050	5050	5050	5050	5050	5050	5050	5050	5050	5050	5050	5050	4977	4977	4977	4977	4977	4977	5050	5050	5050	5050	4977	4977	4977	4977	4977	4977	5050	5050	5050	5050	5050	5050	5050	5050	5050	4977	4977	4977	4977	4977	4977	4977	4906	4977	4977	4977	4977	4977	4977	5050	5050	4977	4977	4977	4977	4977	4977	4906	4906	4906	4906	4906	4977	4977	4977	4977	4977	4977	4977	4906	4906	8146	8343	8343	8343	8343	8343	8343	8550	8550	8343	8343	8343	8550	8550	8550	8550	8550	8550	8550	8550	8550	8550	8550	8550	8343	8343	8343	8343	8343	8343	8343	8343	8550	8550	8343	8343	8343	8550	8550	8550	8550	0	0	0	0	2777	2777	2777	2777	2733	2711	2690	2690	2669	2669	2649	2649	2629	2629	2609	2609	2589	2570	2551	2551	2551	2532	2532	2532	2514	2514	2496	2478	2478	2460	2443	2460	2409	2409	2409	2392	2392	2376	2376	2359	2359	2343	2327	2327	2327	2327	2327	2327	2327	2312	2312	2297	2281	2252	2223	2208	2208	2208	2208	2194	2167	2140	2127	2114	2114	2101	2114	2088	2088	2076	2063	2039	2039	2039	2027	2027	2015	2015	2003	1992	2003	1980	1980	1492	1492	1492	0	0	0	0	0	0	0	0	0	0	0	0	0	0	0	0	0	0	0	0	0	0	0	0	0	0	0	0	0	0	0	0	0	0	0	0	0	0	0	0
0	0	0	0	0	0	0	0	0	0	0	0	0	0	0	0	0	0	0	0	0	0	0	0	0	0	0	0	0	4977	4977	4977	4977	4906	4906	4906	4977	4977	0	0	0	0	0	4977	4906	4977	5050	5050	4977	4977	5050	5050	5050	5050	5050	5050	5050	5050	5050	4977	4977	4977	4977	4977	0	0	0	0	0	0	0	0	0	0	0	0	0	0	0	0	0	0	0	0	0	0	0	4977	4977	4977	4977	5050	4977	4977	4977	4977	4977	4977	4977	4977	4977	5050	5050	5050	5050	4977	4977	5050	4977	4977	4977	4977	5050	5050	5050	5050	5050	5050	5050	4977	4977	4977	4977	4906	4906	0	0	0	0	0	0	0	0	0	0	0	0	0	8343	8343	8343	8343	8343	8343	8343	8343	8343	8343	8343	8343	8343	8343	8343	8343	8343	8343	8550	8550	8550	8550	8550	8550	8343	8343	8343	8343	8343	8343	8343	8343	8343	8343	8343	8343	8343	8343	8343	8343	8343	8550	8550	8550	8550	8550	8550	8550	8343	8343	8343	8343	8343	8343	8146	8146	8146	8146	8146	8146	8146	8146	8146	8343	8343	8343	8343	8343	8343	8343	8343	8343	8343	8343	8343	8343	8343	8343	8343	8343	8343	8343	8343	8343	8343	8343	8343	8343	8343	8343	8343	8343	8343	8343	8343	8343	8343	8343	8343	8146	8146	8146	8343	8343	8343	8343	8343	8343	8343	8343	8343	8343	8343	8146	8343	8146	8146	8343	8343	8343	8343	8343	8343	8343	8343	8343	8343	8343	8550	8550	8343	8343	8343	8343	8343	8343	8343	8343	0	0	0	0	0	3277	3246	3216	3216	3216	3216	3216	3186	3186	3216	3216	3186	3186	3216	3186	3216	3216	3186	3186	3186	3186	3186	3186	3186	3186	3186	3186	3186	3186	3157	3157	3157	3157	3157	3157	3157	3186	3186	3186	3186	3186	3186	3186	3186	3186	3186	3186	3186	3186	3186	3186	3186	3186	3216	3216	3216	3216	3216	3216	3216	3216	3216	3216	3216	3216	3186	3216	3216	3216	3216	3216	3216	3216	3216	3216	3216	3246	3246	3246	3246	3246	4838	4838	4838	4838	4838	4838	4771	4771	4771	4771	4771	4771	4771	4838	4838	4906	4906	4977	5050	5050	5050	5050	5050	5050	5050	5050	5050	4977	5050	5050	5050	5050	5050	5050	5050	5050	5050	5050	5050	5050	5050	5050	4977	5050	5050	4977	4977	4977	4977	4977	4977	4977	4977	5050	4977	4977	4906	4906	4977	4977	4977	4977	4977	5050	5050	5050	4977	5050	5050	4977	4977	4977	4977	4977	4977	4977	4977	4977	4906	4977	4977	4977	4977	4977	5050	5050	5050	5050	5050	4977	4977	4977	4906	4906	4906	4906	4906	4906	4977	4977	4977	4977	4977	4977	4977	4977	8146	8146	8146	8146	8343	8343	8343	8343	8343	8343	8343	8343	8343	8343	8550	8550	8550	8550	8550	8550	8550	8550	8550	8550	8550	8343	8343	8343	8343	8343	8343	8343	8343	8550	8550	8343	8343	8146	8146	8146	8343	8550	0	0	0	0	2777	2777	2777	2754	2733	2733	2711	2690	2669	2669	2649	2649	2629	2649	2609	2609	2589	2570	2551	2551	2551	2532	2532	2514	2514	2514	2496	2478	2460	2460	2443	2460	2426	2426	2409	2392	2392	2376	2376	2359	2359	2343	2327	2327	2327	2327	2327	2327	2312	2297	2297	2297	2266	2223	2208	2208	2194	2194	2194	2181	2167	2127	2127	2114	2101	2101	2101	2088	2076	2063	2063	2039	2039	2039	2027	2027	2027	2015	2003	1992	1992	1980	1969	1499	1499	1499	0	0	0	0	0	0	0	0	0	0	0	0	0	0	0	0	0	0	0	0	0	0	0	0	0	0	0	0	0	0	0	0	0	0	0	0	0	0	0	0
0	0	0	0	0	0	0	0	0	0	0	0	0	0	0	0	0	0	0	0	0	0	0	0	0	0	0	0	0	4977	4977	4977	4977	4906	4906	4906	4977	4977	0	0	0	0	0	4906	4906	4906	4977	4977	4977	4977	5050	5050	5050	5050	5050	5050	5050	5050	5050	4977	4977	4977	4977	4977	0	0	0	0	0	0	0	0	0	0	0	0	0	0	0	0	0	0	0	0	0	0	4977	4977	5050	4977	4977	5050	4977	4977	4977	4977	4977	4977	4977	5050	5050	5050	5050	5050	5050	4977	4977	4977	4977	4977	4977	4977	4977	5050	5050	4977	4977	4977	4977	4977	4977	4977	4977	4977	4977	0	0	0	0	0	0	0	0	0	0	0	0	0	0	8343	8343	8343	8343	8343	8343	8343	8343	8343	8343	8343	8343	8343	8550	8550	8550	8550	8550	8550	8550	8550	8550	8550	8343	8343	8343	8343	8343	8343	8343	8343	8343	8343	8343	8343	8343	8343	8343	8343	8343	8550	8550	8550	8550	8550	8550	8343	8343	8343	8343	8343	8343	8146	8146	8146	8146	8146	8146	8146	8146	8343	8343	8343	8343	8343	8343	8343	8343	8343	8343	8343	8343	8343	8343	8343	8343	8343	8343	8343	8343	8343	8343	8343	8343	8343	8343	8343	8343	8343	8343	8343	8343	8343	8343	8343	8343	8343	8343	8343	8343	8146	8343	8343	8343	8146	8146	8343	8146	8343	8343	8343	8343	8343	8146	8343	8343	8343	8343	8343	8343	8343	8343	8343	8343	8343	8343	8343	8343	8550	8343	8343	8343	8343	8343	8343	8343	8343	0	0	0	0	0	0	3246	3216	3216	3216	3216	3186	3186	3186	3186	3186	3186	3216	3216	3216	3216	3216	3216	3186	3186	3186	3186	3186	3186	3186	3186	3186	3186	3157	3157	3157	3157	3157	3157	3157	3186	3186	3186	3186	3186	3186	3186	3186	3186	3186	3186	3186	3186	3186	3186	3186	3186	3186	3186	3186	3186	3216	3216	3216	3186	3216	3186	3216	3186	3186	3186	3216	3216	3186	3186	3216	3186	3216	3216	3216	3216	3246	3246	3246	3246	3246	4838	4838	4838	4838	4771	4771	4771	4771	4771	4771	4771	4771	4771	4838	4838	4906	4906	4977	5050	5050	5050	5050	5050	5050	5050	5050	4977	4977	4977	5050	5050	5050	5050	5050	5050	5050	5050	5050	4977	4977	5050	5050	5050	5050	5050	5050	4977	4977	4977	4977	4977	4977	4977	4977	4977	4977	4906	4977	4977	4977	4977	4977	4977	5050	5050	4977	4977	5050	5050	4977	4977	4977	4977	4977	4977	4977	4977	4977	4977	4977	4977	4977	4977	4977	4977	5050	5050	5050	5050	5050	4977	4977	4906	4838	4906	4906	4906	4977	4977	4977	4977	4977	4977	4977	4977	4906	4906	8146	8146	8343	8146	8343	8343	8343	8343	8343	8343	8343	8343	8550	8550	8550	8550	8550	8550	8550	8550	8550	8343	8550	8550	8343	8343	8343	8343	8343	8343	8343	8343	8343	8343	8343	8146	8146	8146	8146	8343	0	0	0	0	0	2777	2777	2754	2754	2733	2711	2711	2690	2669	2669	2669	2649	2649	2649	2629	2609	2589	2570	2570	2551	2551	2551	2532	2532	2514	2514	2478	2478	2460	2460	2443	2443	2443	2426	2409	2409	2392	2376	2376	2359	2359	2343	2327	2327	2327	2312	2312	2327	2312	2281	2266	2266	2237	2223	2194	2194	2181	2167	2167	2167	2127	2127	2114	2114	2101	2088	2088	2076	2063	2063	2051	2039	2039	2039	2027	2027	2015	2015	2003	1992	1992	1980	1969	1980	1499	1499	1969	0	0	0	0	0	0	0	0	0	0	0	0	0	0	0	0	0	0	0	0	0	0	0	0	0	0	0	0	0	0	0	0	0	0	0	0	0	0	0
0	0	0	0	0	0	0	0	0	0	0	0	0	0	0	0	0	0	0	0	0	0	0	0	0	0	0	0	0	4977	5050	5050	4977	4977	4906	4977	4977	4977	0	0	0	0	4906	4906	4838	4906	4977	4977	4977	4977	5050	5050	5050	5050	5050	5050	5050	5050	5050	4977	4977	4977	4977	0	0	0	0	0	0	0	0	0	0	0	0	0	0	0	0	0	0	0	0	0	0	0	4977	4977	5050	5050	4977	4977	4977	4977	4977	4977	4977	4977	4977	4977	4977	5050	5050	5050	5050	4977	4977	4977	4977	4977	4977	4977	4977	4977	4977	4977	4977	4977	4977	5050	5050	5050	5050	4977	4977	0	0	0	0	0	0	0	0	0	0	0	0	0	0	8146	8343	8343	8343	8343	8343	8343	8343	8343	8343	8343	8343	8343	8550	8550	8550	8550	8550	8550	8550	8550	8550	8550	8550	8343	8343	8343	8343	8343	8343	8343	8343	8343	8550	8343	8343	8343	8343	8343	8343	8550	8550	8550	8550	8550	8550	8343	8343	8343	8343	8146	8146	8146	8146	8146	8146	8343	8146	8146	8146	8146	8343	8343	8343	8343	8343	8343	8343	8343	8343	8343	8343	8343	8343	8343	8343	8343	8343	8343	8343	8343	8146	8343	8146	8343	8343	8343	8343	8343	8146	8343	8343	8343	8343	8343	8343	8343	8343	8343	8343	8343	8343	8343	8146	8146	8146	8343	8146	8343	8343	8343	8343	8343	8343	8343	8343	8343	8343	8343	8343	8343	8550	8343	8343	8343	8343	8550	8343	8550	8550	8550	8550	8550	8343	8343	8343	8343	8343	0	0	0	0	0	3216	3186	3216	3216	3216	3216	3186	3186	3186	3186	3186	3186	3186	3186	3186	3186	3186	3186	3186	3186	3186	3186	3186	3186	3186	3157	3157	3157	3157	3157	3157	3157	3157	3157	3186	3186	3186	3186	3186	3186	3186	3186	3186	3186	3186	3186	3186	3186	3186	3186	3186	3216	3216	3216	3216	3186	3216	3216	3186	3186	3186	3186	3186	3186	3186	3186	3186	3186	3216	3186	3186	3216	3216	3216	3216	3246	3246	3246	3246	3277	4838	4838	4838	4838	4771	4771	4771	4771	4771	4771	4771	4771	4771	4838	4838	4906	4906	4977	5050	5050	5050	5050	5050	5050	5050	5050	5050	5050	5050	5050	5050	5050	5050	5050	5050	5050	5050	5050	4977	4977	5050	5050	5050	4977	4977	5050	4977	4977	4977	5050	5050	5050	4977	5050	4977	4977	4977	4977	4977	5050	4977	4977	4977	5050	5050	4977	4977	4977	5050	4977	4977	4977	4977	4977	4977	4977	4977	4977	4977	4977	4977	4977	4977	4906	4977	4977	5050	5050	5050	5050	4977	4977	4977	4977	4906	4977	4977	4977	4977	5050	4977	4977	4977	4977	4906	4906	4838	4838	8146	8343	8146	8343	8343	8343	8343	8343	8343	8343	8343	8343	8550	8550	8550	8550	8550	8550	8550	8343	8550	8550	8550	8343	8343	8343	8343	8343	8343	8343	8146	8550	8343	8343	8146	8146	8146	8146	0	0	0	0	0	0	2777	2777	2777	2754	2733	2733	2690	2690	2669	2669	2669	2649	2649	2649	2629	2609	2609	2589	2570	2551	2551	2551	2532	2514	2496	2496	2478	2460	2460	2460	2443	2443	2443	2426	2426	2409	2392	2392	2376	2376	2359	2343	2343	2327	2312	2312	2312	2312	2312	2252	2252	2223	2208	2208	2181	2194	2167	2153	2167	2127	2127	2114	2114	2114	2101	2088	2088	2076	2076	2051	2051	2039	2039	2027	2027	2027	2015	2015	2003	1992	1992	1980	1969	1969	1969	1969	1969	1969	0	0	0	0	0	0	0	0	0	0	0	0	0	0	0	0	0	0	0	0	0	0	0	0	0	0	0	0	0	0	0	0	0	0	0	0	0	0
