0	0	0	0	0	0	0	0	0	0	1402	1413	1425	1413	1413	1455	1413	1443	1431	1425	1425	1425	1431	1431	1437	1431	1437	1443	1443	1449	1449	1455	1455	1467	1473	1473	1480	1480	1480	1506	1512	1519	1519	1525	1532	1532	1539	1546	1546	1553	1553	1553	1567	1947	1958	1958	1958	1958	1969	1958	1969	1969	1969	1992	1992	1992	0	0	0	0	0	0	0	0	0	0	0	0	0	0	0	0	0	0	0	0	0	0	0	0	0	0	0	1936	1936	1947	1947	1936	1947	1947	1958	1958	1958	1958	1958	1969	1969	1969	1969	1980	1992	1992	2003	2003	2003	0	0	0	0	7137	7137	7137	7137	7137	7137	7287	7287	7287	7444	7444	7444	7608	7608	7608	7608	7608	7608	7608	7608	7608	7608	7779	7779	7779	7779	7959	8146	8146	8146	8146	8343	8343	8343	8343	8343	8550	8550	8550	9235	9235	0	8995	8767	8767	8767	8767	8767	8767	8767	8995	8767	8767	8767	8767	8767	8767	8767	8767	8767	8995	8995	8767	8767	8767	8767	8767	8767	8995	8995	8995	8995	8995	8995	8995	8767	8550	8550	8550	8550	8550	8550	8550	8550	8550	8550	8550	8550	8550	8767	8767	8550	8550	8550	8550	8550	8550	8550	8550	8550	8767	8767	8767	8550	8550	8550	8550	8550	8550	8550	8550	8767	8767	8767	8767	8550	8550	8550	8550	8550	8550	8550	8550	8550	8550	8550	8550	8550	8550	8550	8550	8550	8767	8767	8550	8550	8767	8550	8550	8550	8550	8550	8767	8767	8767	8767	8767	8767	8767	8767	8767	8767	8767	8995	8995	8995	8995	8995	8995	8767	8767	8767	8767	8550	8550	8767	8767	8767	8767	8767	8767	8767	8767	8767	8767	8550	8550	8550	8550	8343	8343	0	0	0	3546	3510	3510	3546	3546	3546	3510	3475	3475	3510	3510	3510	3510	3510	3475	3475	3440	3440	3440	3440	3440	3440	3440	3440	3440	3440	3440	3406	3406	3406	3440	3406	3406	3406	3406	3406	3406	3406	3406	3406	3406	3440	3440	3406	3406	3373	3373	3406	3440	3440	3440	3440	3440	3440	3440	3475	3475	3475	3475	3475	3475	3475	3475	3475	3475	3475	3475	3475	3475	3475	3475	3475	0	8995	8995	8995	8995	8995	8995	8995	8995	9235	8995	8995	9235	8995	8995	8995	8995	8767	8767	8995	8995	8995	8995	8995	8995	8995	8995	8995	8995	8995	8995	8995	8995	8767	8767	8767	8767	8767	8767	8767	8767	8767	8767	8767	8767	8550	8767	8550	8767	8550	8767	8767	8767	8767	8767	8767	8767	8767	8767	8767	8767	8767	8767	8767	8550	8550	8767	8767	8767	8550	8767	8767	8767	8767	8767	8767	8767	8767	8767	8767	8767	8767	8767	8550	8767	8767	8550	8767	8767	8767	8767	8767	8767	8767	8767	8550	8550	8550	8550	8550	8550	8550	8767	8767	8767	8767	8767	8767	8767	8767	8767	8767	8767	8767	8767	8767	8767	8767	8767	8767	8767	8767	8767	8550	8550	8550	8767	8767	8767	8767	8995	8995	8995	8767	8767	8767	8767	0	0	0	0	2967	2967	2967	2993	2993	2942	2917	2917	2917	2893	2893	2893	2893	2869	2869	2845	2822	2822	2799	2777	2777	2754	2733	2711	2690	2669	2669	2669	2649	2649	2649	2629	2629	2629	2629	2609	2589	2589	2589	2570	2551	2551	2570	2570	2570	2570	2570	2570	2570	2570	2551	2570	2551	2551	2551	2532	2496	2496	2496	2496	2496	0	1698	1690	1698	1690	1690	1690	1698	1698	1698	1698	1698	1698	1698	1698	1698	1706	1698	1698	1698	1690	1690	1690	1690	0	0	0	0	0	0	0	0	0	0	0	0	0	0	0	0	0	0	0	0	0	0	0	0	0	0	0	0	0	0	0	0	0	0	0	0	0	0	0
0	0	0	0	0	0	0	0	0	0	1407	1419	1437	1449	1455	1449	1455	1443	1443	1437	1431	1431	1431	1431	1437	1431	1437	1437	1455	1455	1461	1467	1473	1473	1473	1473	1480	1480	1499	1499	1512	1512	1519	1525	1532	1532	1532	1539	1546	1546	1546	1546	0	1958	1969	1969	1969	1969	1969	1969	1980	1980	1980	1992	1992	1992	1992	0	0	0	0	0	0	0	0	0	0	0	0	0	0	0	0	0	0	0	0	0	0	0	0	0	0	1936	1947	1947	1947	1947	1958	1969	1969	1969	1969	1969	1969	1980	1980	1969	1980	1992	1992	1992	2003	2003	2003	0	0	0	0	7137	7137	7137	7137	7137	7287	7287	7287	7287	7287	7444	7444	7444	7608	7608	7608	7608	7608	7608	7608	7608	7608	7608	7608	7779	7779	7959	7959	8146	8146	8146	8343	8343	8343	8343	8550	8550	8767	8995	9235	9235	8995	8995	8995	8767	8767	8767	8767	8767	8767	8995	8767	8767	8767	8767	8767	8767	8767	8767	8767	8767	8995	8995	8767	8767	8767	8767	8767	8995	8995	8995	8995	8995	8995	8995	8767	8550	8767	8767	8550	8550	8550	8550	8550	8550	8550	8550	8550	8550	8550	8767	8550	8550	8550	8550	8550	8550	8550	8550	8767	8767	8767	8767	8550	8550	8550	8550	8550	8550	8550	8550	8550	8550	8550	8550	8550	8550	8550	8550	8550	8767	8550	8767	8767	8550	8550	8550	8550	8550	8550	8550	8550	8550	8767	8550	8550	8550	8550	8550	8550	8550	8550	8767	8767	8767	8767	8767	8767	8767	8995	8995	8995	8995	8995	8995	8767	8767	8767	8767	8767	8550	8767	8767	8767	8767	8550	8767	8767	8767	8767	8767	8550	8550	8550	8550	8550	8550	8550	8550	8550	8550	0	0	0	3510	3510	3510	3510	3510	3510	3510	3510	3510	3510	3510	3510	3510	3510	3475	3475	3440	3440	3440	3440	3440	3440	3440	3440	3440	3440	3440	3440	3440	3440	3440	3406	3406	3406	3406	3406	3406	3373	3406	3406	3406	3406	3440	3406	3406	3373	3406	3406	3440	3440	3406	3406	3406	3440	3440	3475	3475	3475	3475	3475	3475	3475	3475	3475	3475	3475	3475	3475	3475	3475	3475	3475	3475	8995	8995	8995	8995	8767	8995	8995	8995	8995	8995	8995	8995	8995	8767	8767	8767	8767	8767	8995	8995	8767	8995	8995	8995	8995	8995	8995	8995	8995	9235	8995	8995	8767	8767	8767	8767	8767	8767	8767	8767	8550	8767	8767	8767	8767	8767	8550	8767	8767	8767	8767	8767	8767	8767	8767	8767	8767	8767	8767	8767	8767	8767	8767	8550	8767	8767	8767	8767	8767	8767	8767	8767	8767	8767	8767	8767	8767	8767	8767	8767	8767	8550	8550	8550	8550	8550	8550	8550	8767	8767	8767	8550	8550	8550	8550	8550	8550	8550	8767	8550	8767	8767	8767	8767	8767	8767	8767	8767	8767	8767	8767	8767	8767	8767	8767	8767	8767	8767	8767	8767	8550	8550	8550	8550	8550	8767	8767	8767	8767	8995	8995	8767	8767	8767	8767	8767	0	0	0	0	2967	2993	2967	2993	2993	2942	2917	2917	2917	2917	2893	2893	2893	2869	2869	2845	2822	2822	2799	2777	2754	2733	2733	2711	2711	2669	2669	2669	2649	2649	2649	2649	2629	2629	2609	2609	2589	2589	2570	2570	2551	2551	2570	2570	2570	2570	2570	2570	2570	2570	2570	2570	2551	2551	2551	2532	2496	2496	2478	2478	2478	0	1698	1690	1690	1690	1690	1690	1698	1698	1698	1698	1698	1698	1698	1698	1698	1698	1698	1690	1690	1690	1690	1690	1690	0	0	0	0	0	0	0	0	0	0	0	0	0	0	0	0	0	0	0	0	0	0	0	0	0	0	0	0	0	0	0	0	0	0	0	0	0	0	0
0	0	0	0	0	0	0	0	0	0	1385	1419	1419	1437	1443	1443	1449	1449	1449	1443	1443	1437	1437	1437	1437	1437	1437	1461	1467	1467	1467	1473	1473	1473	1473	1473	1480	1480	1480	1480	1512	1512	1519	1525	1532	1532	1532	1539	1546	1553	1546	1553	1553	1958	1980	1980	1980	1980	1992	1992	2003	1992	2015	2003	2003	2003	2015	2015	2015	2015	0	0	0	0	0	0	0	0	0	0	0	0	0	0	0	0	0	0	0	0	0	0	0	0	1947	1947	1947	1947	1958	1969	1980	1980	1980	1980	1992	1992	2003	2003	2003	2003	2003	2003	2003	2015	2015	2063	2063	2063	2063	7287	7137	7137	7137	7137	7287	7287	7287	7444	7444	7444	7444	7444	7608	7608	7608	7608	7608	7608	7608	7608	7608	7608	7608	7608	7779	7779	7959	7959	7959	8146	8146	8146	8343	8343	8343	8550	8767	8767	9235	9235	8995	8995	9235	8767	8550	8550	8550	8767	8550	8767	8767	8767	8767	8767	8767	8767	8767	8767	8767	8995	8995	8995	8995	8995	8995	8995	8995	8995	8995	8995	8995	8995	8767	8767	8767	8767	8767	8767	8550	8550	8767	8767	8767	8767	8767	8767	8550	8550	8767	8767	8550	8550	8550	8550	8767	8767	8767	8767	8767	8767	8767	8767	8767	8550	8767	8767	8767	8767	8550	8550	8550	8550	8550	8550	8550	8767	8550	8550	8550	8550	8550	8767	8767	8767	8550	8550	8550	8343	8343	8343	8343	8343	8550	8550	8550	8550	8550	8550	8550	8550	8550	8767	8550	8767	8767	8767	8767	8767	8767	8995	8995	8995	8767	8767	8767	8767	8767	8767	8550	8550	8767	8767	8767	8767	8767	8767	8767	8767	8767	8767	8767	8550	8550	8767	8550	8550	8550	8550	8550	8550	0	0	0	3510	3510	3510	3510	3510	3510	3510	3510	3510	3510	3475	3510	3510	3510	3475	3475	3440	3440	3440	3440	3440	3440	3440	3440	3440	3440	3440	3440	3440	3440	3440	3406	3406	3406	3406	3373	3373	3373	3373	3406	3406	3406	3406	3406	3406	3406	3440	3406	3440	3440	3406	3406	3406	3440	3440	3475	3475	3475	3475	3475	3475	3475	3475	3475	3510	3475	3475	3475	3475	3475	3475	3440	3440	3440	8995	8767	8995	8995	8995	8995	8995	8995	8995	8767	8995	8995	8767	8767	8767	8767	8767	8995	8767	8767	8767	8995	8995	8995	8995	8995	8995	8995	8995	8995	8767	8767	8767	8767	8767	8767	8767	8767	8767	8767	8767	8767	8767	8767	8767	8767	8767	8767	8767	8767	8550	8767	8767	8767	8767	8767	8767	8767	8767	8767	8767	8767	8550	8767	8767	8767	8767	8767	8550	8767	8767	8767	8767	8767	8767	8767	8767	8767	8767	8550	8550	8550	8550	8550	8550	8550	8550	8550	8767	8767	8550	8767	8767	8550	8550	8550	8767	8767	8767	8767	8767	8767	8767	8767	8767	8767	8767	8767	8767	8767	8767	8767	8767	8767	8767	8767	8767	8767	8767	8550	8550	8550	8550	8550	8767	8767	8767	8767	8767	8995	8767	8995	8767	8767	8767	0	0	0	0	0	2993	2967	2993	2993	2942	2917	2917	2917	2917	2893	2893	2893	2869	2869	2845	2822	2822	2799	2777	2733	2733	2733	2711	2711	2669	2669	2669	2649	2649	2649	2649	2629	2629	2609	2609	2589	2570	2570	2570	2551	2551	2551	2570	2570	2551	2551	2570	2570	2570	2570	2570	2551	2551	2551	2532	2496	2496	2478	2478	2478	0	1698	1690	1698	1698	1698	1698	1698	1698	1698	1698	1698	1698	1698	1698	1698	1698	1690	1690	1690	1690	1690	1681	1681	0	0	0	0	0	0	0	0	0	0	0	0	0	0	0	0	0	0	0	0	0	0	0	0	0	0	0	0	0	0	0	0	0	0	0	0	0	0	0
0	0	0	0	0	0	0	0	0	0	1385	1407	1431	1431	1443	1449	1449	1449	1449	1449	1449	1443	1443	1443	1443	1443	1443	1467	1467	1467	1473	1473	1473	1473	1480	1480	1480	1480	1486	1486	1512	1519	1512	1525	1532	1539	1539	1546	1553	1553	1546	1553	1553	0	1980	1980	1980	1992	2003	2003	2003	2015	2015	2015	2015	2003	2015	2015	2015	2015	2015	0	0	0	0	0	0	0	0	0	0	0	0	0	0	0	0	0	0	0	0	0	0	0	0	1947	1947	1947	1958	1969	1980	1980	1980	1992	1992	2003	2015	2015	2015	2015	2015	2015	2027	2027	2051	2076	2076	2076	2088	2088	2088	2088	7137	7137	7287	7287	7444	7444	7608	7608	7608	7608	7608	7608	7608	7608	7608	7608	7608	7608	7608	7608	7608	7608	7608	7779	7959	7959	7959	7959	8146	8146	8343	8343	8343	8550	8767	8767	9235	9235	9235	8995	9235	8767	8767	8550	8550	8767	8767	8767	8767	8767	8767	8767	8550	8550	8767	8767	8767	8995	8995	8995	8995	8995	8995	8995	8995	8767	8995	8995	8995	8995	8767	8767	8767	8767	8767	8767	8550	8767	8767	8767	8767	8995	8995	8995	8767	8767	8767	8767	8550	8550	8550	8767	8767	8767	8767	8767	8767	8767	8767	8767	8767	8767	8767	8767	8767	8767	8550	8550	8550	8550	8550	8550	8550	8767	8550	8550	8550	8550	8550	8767	8767	8550	8550	8550	8550	8550	8343	8343	8343	8343	8550	8343	8343	8550	8550	8550	8550	8550	8550	8550	8550	8550	8550	8550	8767	8767	8767	8995	8767	8995	8995	8767	8767	8767	8767	8767	8767	8550	8550	8550	8767	8767	8550	8767	8767	8767	8767	8767	8550	8550	8550	8550	8550	8550	8550	8550	8550	8550	0	0	0	3510	3475	3475	3510	3510	3510	3510	3510	3510	3510	3510	3510	3510	3510	3475	3475	3440	3440	3440	3440	3440	3440	3440	3440	3440	3440	3440	3406	3440	3440	3440	3406	3406	3406	3373	3373	3373	3373	3406	3406	3406	3406	3406	3406	3440	3406	3440	3440	3440	3440	3406	3406	3406	3440	3440	3440	3475	3475	3475	3475	3475	3475	3475	3475	3510	3475	3475	3475	3475	3475	3475	3440	3440	3440	0	8767	8995	8995	8995	8995	8995	8995	8995	8767	8767	8767	8767	8767	8767	8767	8767	8995	8767	8767	8767	8995	8995	8995	8995	8995	8767	8767	8767	8767	8767	8767	8767	8767	8767	8767	8550	8550	8550	8550	8550	8767	8767	8767	8767	8767	8767	8767	8767	8767	8550	8550	8550	8767	8767	8767	8550	8767	8767	8767	8767	8767	8550	8767	8767	8767	8767	8767	8767	8767	8767	8767	8767	8767	8767	8767	8767	8767	8767	8550	8550	8550	8550	8550	8767	8550	8550	8767	8767	8767	8767	8767	8767	8767	8550	8550	8767	8767	8550	8550	8767	8767	8767	8767	8767	8767	8550	8767	8767	8767	8767	8767	8767	8767	8767	8767	8767	8767	8550	8550	8550	8550	8550	8550	8550	8767	8767	8767	8767	8767	8767	8767	8767	8767	8767	0	0	0	0	0	0	2993	2993	2993	2942	2942	2942	2917	2917	2917	2893	2893	2869	2845	2845	2822	2799	2799	2777	2754	2733	2733	2733	2711	2711	2669	2649	2649	2649	2649	2649	2629	2629	2609	2589	2570	2570	2570	2570	2551	2551	2551	2551	2551	2551	2551	2551	2570	2570	2570	2551	2551	2551	2551	2532	2514	2514	2496	2496	2478	0	1690	1690	1698	1698	1698	1698	1698	1698	1698	1698	1698	1698	1698	1698	1690	1690	1690	1690	1690	1690	1690	1690	1690	0	0	0	0	0	0	0	0	0	0	0	0	0	0	0	0	0	0	0	0	0	0	0	0	0	0	0	0	0	0	0	0	0	0	0	0	0	0	0
0	0	0	0	0	0	0	0	0	0	1385	1396	1431	1431	1443	1449	1449	1449	1455	1449	1449	1455	1449	1455	1455	1455	1461	1480	1480	1480	1486	1486	1480	1480	1480	1480	1499	1492	1486	1506	1512	1519	1519	1525	1539	1539	1539	1546	1553	1553	1546	1553	1553	0	1980	1992	1992	1992	2015	2015	2015	2027	2039	2027	2027	2015	2015	2027	2015	2015	2027	2027	0	0	0	0	0	0	0	0	0	0	0	0	0	0	0	0	0	0	0	0	0	0	0	0	0	0	0	0	1980	1980	1992	2003	2003	2015	2027	2027	2027	2027	2039	2039	2039	2051	2063	2076	2076	2088	2088	2088	2088	2101	2101	0	0	0	7444	7444	7608	7608	7608	7608	7608	7608	7608	7608	7608	7608	7608	7608	7608	7608	7608	7608	7779	7779	7959	7959	7779	7959	8146	8146	8146	8343	8343	8343	8343	8767	9235	9235	9235	8995	8995	8767	8767	8767	8550	8767	8767	8767	8767	8767	8550	8550	8550	8550	8767	8550	8550	8995	8995	8995	8767	8767	8767	8995	8550	8550	8767	8767	8995	8767	8767	8767	8767	8550	8550	8550	8550	8767	8767	8767	8995	8995	8995	8995	8767	8767	8767	8767	8767	8550	8550	8550	8550	8550	8767	8767	8767	8767	8767	8767	8767	8767	8767	8767	8767	8767	8550	8550	8550	8550	8550	8343	8343	8550	8550	8343	8767	8550	8550	8550	8767	8550	8550	8343	8343	8550	8550	8343	8343	8550	8550	8343	8343	8343	8550	8550	8550	8550	8550	8550	8550	8550	8550	8550	8550	8767	8767	8767	8767	8767	8995	8767	8767	8767	8767	8767	8767	8767	8767	8550	8767	8767	8550	8767	8767	8767	8767	8767	8550	8550	8550	8550	8550	8550	8550	8550	8550	8550	0	0	0	3475	3475	3475	3475	3510	3510	3510	3510	3510	3510	3475	3510	3475	3475	3475	3475	3475	3440	3440	3440	3440	3440	3440	3440	3440	3440	3440	3406	3406	3406	3440	3406	3406	3406	3373	3373	3373	3373	3373	3373	3406	3406	3406	3406	3440	3440	3440	3440	3440	3440	3406	3406	3406	3440	3440	3440	3475	3475	3475	3475	3475	3510	3510	3475	3475	3475	3475	3475	3475	3475	3475	3440	3440	3440	3440	8767	8767	8767	8767	8767	8995	8995	8995	8995	8995	8995	8995	8995	8995	8767	8995	8995	8767	8767	8767	8767	8767	8767	8767	8767	8767	8767	8995	8767	8767	8767	8767	8767	8767	8767	8767	8767	8767	8550	8550	8767	8767	8767	8767	8767	8767	8767	8767	8767	8767	8767	8767	8767	8767	8767	8550	8767	8767	8550	8767	8550	8550	8550	8767	8767	8767	8767	8767	8767	8767	8767	8767	8767	8767	8767	8767	8550	8550	8550	8550	8550	8550	8550	8767	8550	8550	8767	8767	8767	8767	8767	8767	8767	8550	8550	8767	8767	8767	8550	8767	8767	8767	8767	8767	8550	8550	8550	8550	8550	8767	8767	8767	8767	8767	8767	8767	8550	8550	8550	8550	8550	8550	8550	8767	8550	8767	8767	8767	8767	8767	8767	8767	8767	8767	0	0	0	0	0	0	2993	3019	2993	2967	2942	2942	2917	2917	2917	2893	2893	2869	2845	2845	2822	2799	2799	2754	2754	2754	2754	2733	2711	2711	2669	2649	2649	2649	2649	2649	2629	2629	2609	2589	2570	2570	2551	2570	2551	2551	2551	2551	2551	2551	2551	2551	2570	2551	2551	2551	2551	2551	2551	2514	2514	2514	2514	2514	0	0	1690	1690	1698	1698	1698	1698	1698	1698	1698	1698	1698	1698	1698	1698	1698	1690	1690	1690	1690	1690	1690	1690	1690	0	0	0	0	0	0	0	0	0	0	0	0	0	0	0	0	0	0	0	0	0	0	0	0	0	0	0	0	0	0	0	0	0	0	0	0	0	0	0
0	0	0	0	0	0	0	0	0	0	1379	1390	1402	1402	1443	1449	1449	1455	1455	1455	1455	1455	1455	1461	1461	1467	1473	1492	1486	1486	1492	1492	1499	1492	1499	1499	1506	1499	1506	1506	1512	1519	1519	1532	1532	1539	1539	1546	1546	1546	1546	1546	1546	1546	1980	1992	1992	2003	2015	2015	2027	2039	2039	2039	2039	2027	2027	2027	2015	2015	2027	2027	2027	0	0	0	0	0	0	0	0	0	0	0	0	0	0	0	0	0	0	0	0	0	0	0	0	0	0	0	0	0	1992	2003	2003	2027	2039	2039	2027	2027	2039	2039	2039	2051	2063	2063	2076	2088	2088	2101	2101	2101	2101	0	0	0	0	7608	7779	7779	7608	7608	7608	7608	7608	7608	7608	7608	7608	7608	7608	7608	7608	7608	7608	7779	7779	7779	7779	7959	7959	7959	7959	7959	8343	8343	8343	0	0	0	0	8995	8995	8767	8767	8767	8550	8550	8550	8767	8767	8767	8550	8767	8767	8767	8767	8767	8550	8767	8767	8767	8767	8767	8550	8550	8550	8767	8767	8767	8995	8767	8767	8767	8767	8550	8550	8550	8550	8550	8767	8767	8767	8767	8767	8767	8767	8767	8767	8767	8767	8550	8767	8767	8767	8767	8767	8767	8767	8767	8767	8767	8767	8767	8767	8767	8767	8767	8550	8550	8550	8550	8550	8550	8550	8550	8550	8550	8550	8550	8550	8767	8767	8550	8550	8343	8550	8550	8550	8550	8550	8550	8550	8550	8550	8550	8550	8550	8550	8550	8550	8550	8550	8550	8550	8550	8550	8767	8550	8767	8767	8767	8767	8767	8550	8550	8767	8995	8767	8767	8767	8767	8767	8767	8767	8767	8767	8767	8767	8995	8995	8767	8767	8767	8550	8550	8550	8550	8550	0	0	0	0	3440	3440	3475	3475	3510	3510	3510	3510	3510	3510	3510	3510	3510	3510	3475	3475	3475	3440	3440	3440	3406	3406	3406	3406	3406	3406	3406	3406	3406	3406	3406	3406	3406	3406	3406	3373	3373	3373	3373	3373	3406	3406	3406	3406	3406	3440	3440	3440	3440	3440	3406	3406	3406	3406	3406	3406	3440	3475	3475	3475	3475	3510	3510	3475	3475	3475	3475	3475	3475	3475	3440	3440	3440	3440	3440	3440	8767	8767	8767	8767	8995	8767	8995	8767	8767	8995	8995	8995	8995	8995	8995	8995	8767	8767	8767	8767	8767	8767	8767	8767	8767	8767	8995	8767	8767	8767	8767	8767	8767	8767	8767	8767	8550	8550	8550	8767	8767	8767	8767	8767	8767	8767	8767	8767	8550	8550	8550	8767	8550	8767	8550	8550	8550	8550	8767	8550	8550	8767	8767	8767	8767	8767	8767	8767	8767	8767	8767	8550	8550	8550	8550	8550	8550	8550	8550	8550	8550	8550	8767	8767	8767	8767	8767	8767	8767	8767	8767	8767	8550	8550	8767	8550	8550	8550	8767	8767	8767	8767	8767	8550	8550	8550	8550	8550	8767	8767	8767	8767	8767	8767	8767	8550	8550	8550	8550	8550	8550	8550	8767	8767	8767	8550	8550	8767	8767	8550	8767	8550	8550	0	0	0	0	0	0	2993	3019	2993	2917	2917	2917	2917	2942	2917	2893	2869	2845	2845	2822	2845	2799	2799	2777	2777	2754	2733	2733	2711	2711	2669	2649	2669	2649	2649	2649	2629	2629	2609	2589	2570	2570	2570	2551	2551	2551	2551	2551	2551	2551	2551	2551	2551	2551	2551	2551	2551	2551	2551	2514	2496	2496	2496	2478	2478	0	0	0	1698	1690	1698	1698	1698	1698	1698	1698	1690	1698	1698	1698	1690	1690	1681	1681	1681	1681	1681	1681	1681	0	0	0	0	0	0	0	0	0	0	0	0	0	0	0	0	0	0	0	0	0	0	0	0	0	0	0	0	0	0	0	0	0	0	0	0	0	0	0
0	0	0	0	0	0	0	0	0	0	1379	1385	1390	1390	1443	1443	1449	1449	1455	1455	1455	1455	1455	1461	1467	1473	1480	1492	1492	1492	1499	1499	1499	1499	1506	1506	1506	1506	1499	1499	1506	1512	1512	1519	1532	1539	1539	1546	1546	1546	1532	1532	1532	1546	1992	2003	2003	2015	2027	2027	2039	2039	2051	2039	2039	2039	2039	2039	2027	2027	2039	2039	2051	2051	0	0	0	0	0	0	0	0	0	0	0	0	0	0	0	0	0	0	0	0	0	0	0	0	0	0	0	0	0	0	0	2039	2039	2039	2039	2039	2051	2051	2051	2051	2063	2076	2076	2088	2088	2101	2101	2101	2114	2127	2127	0	0	7608	7779	7779	7608	7608	7608	7608	7608	7444	7444	7444	7444	7444	7608	7608	7608	7608	7608	7779	7779	7779	7779	7779	7959	7959	7959	7959	0	0	0	0	0	0	0	0	0	8767	8767	8767	8767	8767	8767	8767	8767	8995	8767	8767	8767	8767	8767	8767	8550	8550	8995	8995	8767	8767	8550	8767	8767	8767	8767	8767	8995	8767	8767	8767	8767	8550	8550	8550	8550	8550	8550	8767	8767	8767	8995	8767	8767	8767	8767	8767	8995	8550	8767	8767	8550	8550	8550	8550	8550	8767	8767	8767	8767	8767	8767	8767	8767	8767	8550	8550	8550	8550	8550	8550	8550	8550	8550	8550	8550	8550	8550	8550	8550	8550	8343	8343	8343	8550	8550	8550	8550	8550	8550	8550	8550	8550	8550	8550	8550	8767	8550	8550	8550	8550	8550	8550	8550	8767	8767	8767	8550	8767	8767	8767	8550	8550	8767	8995	8767	8767	8767	8995	8995	8767	8767	8995	8995	8767	8767	8995	8995	8767	8767	8767	8550	8550	8767	8767	8767	0	0	0	0	3475	3475	3510	3510	3510	3510	3510	3510	3510	3510	3510	3510	3510	3510	3475	3475	3475	3440	3440	3406	3406	3440	3440	3406	3406	3440	3406	3406	3406	3373	3406	3373	3373	3373	3373	3373	3341	3373	3373	3373	3406	3406	3406	3406	3406	3406	3406	3406	3406	3406	3406	3406	3406	3406	3406	3440	3440	3475	3475	3475	3475	3475	3510	3475	3475	3475	3475	3475	3475	3475	3440	3440	3440	3440	3440	3440	8767	8767	8767	8767	8767	8767	8767	8767	8767	8767	8995	8995	8995	8995	8995	8995	8767	8767	8767	8767	8767	8767	8767	8767	8995	8767	8767	8767	8767	8767	8767	8767	8767	8767	8767	8767	8767	8550	8767	8767	8767	8767	8767	8767	8767	8550	8550	8550	8550	8550	8550	8550	8550	8767	8550	8550	8767	8767	8767	8767	8767	8767	8767	8767	8767	8767	8767	8767	8767	8767	8767	8550	8550	8550	8550	8550	8550	8550	8550	8550	8550	8550	8767	8767	8767	8767	8767	8767	8767	8767	8767	8767	8550	8767	8767	8767	8767	8550	8767	8767	8767	8767	8767	8767	8767	8550	8767	8550	8767	8767	8767	8550	8550	8550	8550	8550	8550	8550	8550	8550	8550	8550	8767	8767	8767	8550	8550	8550	8767	8767	8767	8767	8550	0	0	0	0	0	0	2993	3019	3019	2993	2967	2967	2942	2917	2917	2893	2869	2845	2845	2822	2822	2799	2799	2777	2777	2733	2733	2733	2711	2711	2669	2649	2649	2649	2649	2649	2629	2629	2609	2589	2570	2570	2570	2551	2551	2551	2551	2551	2551	2551	2570	2570	2551	2551	2551	2551	2551	2532	2532	2496	2496	2496	2496	2478	2460	2460	0	1698	1698	1690	1690	1690	1698	1698	1698	1698	1690	1698	1698	1698	1681	1681	1681	1673	1673	1673	1673	1673	1673	0	0	0	0	0	0	0	0	0	0	0	0	0	0	0	0	0	0	0	0	0	0	0	0	0	0	0	0	0	0	0	0	0	0	0	0	0	0	0
0	0	0	0	0	0	0	0	0	0	1379	1385	1390	1390	1390	1443	1443	1449	1455	1455	1455	1455	1455	1467	1467	1473	1486	1492	1492	1499	1499	1499	1506	1506	1506	1506	1506	1506	1506	1506	1506	1512	1512	1519	1532	1539	1539	1539	1539	1539	1532	1532	1532	0	2039	2015	2039	2039	2051	2051	2039	2039	2063	2051	2051	2051	2051	2039	2039	2039	2039	2051	2051	2051	2051	0	0	0	0	0	0	0	0	0	0	0	0	0	0	0	0	0	0	0	0	0	0	0	0	0	0	0	0	0	0	2039	2039	2051	2039	2051	2051	2063	2051	2063	2076	2076	2076	2088	2088	2101	2101	2114	2127	2140	2140	2140	0	0	0	7779	7608	7608	7608	7444	7444	7444	7608	7608	7608	7444	7608	7608	7608	7608	7608	7779	7779	7779	7779	7779	7959	7959	7959	7959	0	0	0	0	0	0	0	0	0	0	8767	8995	8995	8995	8995	8767	8767	8995	8767	8767	8767	8767	8767	8550	8550	8995	8995	8995	8767	8767	8767	8995	8767	8767	8767	8767	8995	8767	8550	8767	8550	8550	8343	8343	8550	8550	8550	8767	8767	8995	8995	8995	8767	8767	8767	8767	8767	8767	8767	8767	8767	8767	8767	8550	8767	8550	8550	8767	8550	8550	8767	8767	8767	8550	8550	8550	8550	8550	8550	8550	8550	8550	8550	8550	8550	8550	8550	8550	8767	8343	8550	8550	8550	8550	8550	8550	8550	8550	8550	8550	8550	8550	8550	8550	8550	8550	8767	8767	8767	8767	8550	8550	8767	8767	8767	8767	8550	8550	8550	8550	8550	8550	8995	9235	8995	8995	8995	8995	8995	8767	8767	8767	8767	8767	8767	8767	8767	8767	8767	8767	8767	8767	8550	8550	8767	0	0	0	3440	3475	3475	3510	3510	3510	3510	3510	3510	3510	3510	3510	3510	3510	3510	3475	3475	3475	3440	3440	3406	3440	3440	3406	3406	3406	3406	3406	3406	3406	3373	3406	3373	3373	3373	3373	3373	3341	3373	3373	3373	3406	3373	3406	3406	3406	3406	3406	3373	3406	3406	3406	3373	3406	3406	3406	3440	3440	3440	3475	3475	3475	3475	3475	3475	3475	3475	3475	3475	3475	3475	3440	3440	3440	3440	3440	0	8767	8767	8767	8767	8767	8767	8767	8767	8767	8767	8767	8995	8995	8767	8767	8995	8767	8767	8767	8767	8767	8995	8995	8995	8995	8767	8767	8767	8767	8767	8767	8767	8767	8767	8767	8767	8767	8767	8767	8767	8767	8767	8767	8767	8767	8767	8767	8767	8550	8550	8550	8550	8550	8767	8550	8550	8767	8767	8767	8767	8767	8767	8767	8767	8767	8767	8767	8767	8767	8767	8767	8550	8767	8550	8550	8550	8550	8550	8550	8550	8550	8550	8767	8767	8550	8767	8550	8767	8550	8767	8550	8550	8767	8767	8767	8767	8767	8767	8767	8767	8767	8767	8767	8767	8767	8550	8767	8767	8767	8550	8550	8550	8550	8550	8550	8550	8550	8550	8550	8550	8550	8550	8767	8767	8767	8550	8550	8550	8550	8550	8550	8550	0	0	0	0	0	0	2993	2993	3019	3019	2993	2993	2942	2942	2917	2893	2869	2869	2845	2845	2822	2822	2799	2799	2777	2777	2754	2733	2733	2711	2711	2669	2649	2649	2649	2649	2649	2629	2629	2609	2589	2570	2570	2570	2551	2551	2551	2551	2551	2551	2551	2570	2570	2551	2551	2551	2551	2532	2551	2551	2496	2478	2478	2478	2460	2443	2443	0	1698	1698	1690	1690	1698	1698	1698	1698	1698	1698	1698	1698	1690	1681	1681	1681	1681	1681	1681	1673	1673	1673	0	0	0	0	0	0	0	0	0	0	0	0	0	0	0	0	0	0	0	0	0	0	0	0	0	0	0	0	0	0	0	0	0	0	0	0	0	0	0
0	0	0	0	0	0	0	0	0	0	1379	1385	1390	1407	1431	1431	1443	1449	1449	1449	1449	1455	1455	1467	1467	1473	1480	1486	1492	1499	1499	1499	1506	1506	1506	1506	1506	1506	1512	1506	1506	1512	1512	1519	1532	1532	1532	1539	1539	1532	1532	1532	1532	2051	2051	2063	2063	2063	2063	2063	2076	2076	2076	2076	2063	2063	2063	2063	2051	2051	2051	2076	2076	2076	2088	2114	2101	2101	0	0	0	0	0	0	0	0	0	0	0	0	0	0	0	0	0	0	0	0	0	0	0	0	0	0	0	0	2051	2051	2051	2051	2063	2063	2063	2076	2076	2088	2088	2101	2101	2114	2114	2127	2127	2140	2140	2140	0	0	0	0	7444	7444	7444	7444	7608	7608	7608	7608	7608	7608	7608	7608	7608	7608	7608	7779	7779	7779	7779	7779	7959	7959	7959	7959	0	0	0	0	0	0	0	0	0	0	0	8995	8995	8995	8995	8767	8995	9235	8995	8995	8767	8767	8767	8550	8550	8767	8767	8767	8767	8767	8767	8995	8995	8767	8767	8767	8767	8767	8550	8767	8550	8550	8343	8343	8343	8550	8550	8550	8767	8767	8767	8767	8767	8767	8767	8767	8767	8767	8550	8767	8767	8767	8767	8343	8550	8767	8767	8550	8550	8550	8767	8767	8767	8550	8550	8550	8550	8550	8550	8550	8550	8550	8550	8550	8550	8550	8550	8343	8550	8343	8550	8550	8550	8550	8550	8550	8550	8550	8550	8550	8550	8550	8550	8550	8550	8550	8550	8767	8767	8767	8767	8550	8767	8767	8767	8767	8550	8550	8550	8550	8550	8550	8995	8995	8995	8767	8767	8767	8767	8767	8767	8767	8767	8767	8767	8550	8550	8767	8767	8767	8767	8767	8550	8550	0	0	0	0	3440	3475	3475	3510	3510	3510	3510	3510	3475	3475	3475	3440	3475	3475	3475	3475	3475	3440	3440	3406	3406	3406	3406	3406	3406	3406	3406	3406	3406	3406	3373	3373	3373	3373	3373	3373	3373	3341	3373	3373	3406	3373	3373	3373	3406	3406	3373	3373	3373	3373	3373	3373	3373	3406	3406	3406	3440	3440	3440	3440	3475	3475	3475	3475	3475	3475	3475	3475	3475	3475	3440	3440	3440	3440	3440	3440	0	8767	8995	8767	8767	8767	8767	8767	8767	8767	8767	8767	8995	8995	8995	8995	8995	8767	8767	8767	8767	8767	8995	8767	8767	8767	8767	8767	8767	8767	8767	8767	8767	8767	8767	8767	8767	8767	8767	8767	8767	8767	8767	8767	8767	8767	8767	8550	8550	8550	8550	8550	8550	8550	8550	8550	8550	8767	8767	8767	8767	8767	8767	8767	8767	8767	8767	8767	8767	8767	8767	8767	8550	8550	8550	8550	8550	8550	8550	8550	8550	8767	8767	8767	8767	8767	8767	8767	8767	8767	8767	8767	8767	8767	8767	8767	8767	8767	8767	8767	8767	8767	8767	8767	8767	8767	8767	8550	8550	8550	8550	8550	8550	8550	8550	8550	8550	8550	8550	8550	8550	8550	8550	8767	8767	8767	8550	8550	8550	8550	8550	8550	8550	0	0	0	0	0	0	2993	2993	3019	3019	2993	2967	2942	2917	2917	2917	2893	2869	2845	2845	2822	2822	2799	2799	2777	2754	2754	2733	2733	2711	2711	2690	2669	2649	2649	2649	2629	2629	2609	2589	2570	2570	2570	2570	2551	2551	2551	2551	2551	2551	2551	2551	2551	2551	2551	2551	2532	2532	2532	2532	2496	2478	2496	2478	2460	2460	2460	2460	0	1698	1690	1690	1690	1690	1698	1698	1698	1698	1698	1698	1690	1681	1681	1681	1681	1681	1681	1681	1690	1690	0	0	0	0	0	0	0	0	0	0	0	0	0	0	0	0	0	0	0	0	0	0	0	0	0	0	0	0	0	0	0	0	0	0	0	0	0	0	0
0	0	0	0	0	0	0	0	0	0	1385	1390	1396	1407	1413	1407	1437	1443	1449	1443	1449	1455	1455	1461	1467	1473	1486	1486	1492	1499	1499	1499	1506	1506	1512	1506	1512	1506	1512	1512	1512	1519	1519	1525	1532	1532	1532	1539	1539	1532	1532	1532	0	2051	2063	2076	2076	2076	2088	2076	2088	2088	2088	2076	2076	2076	2076	2076	2063	2063	2076	2088	2101	2101	2114	2114	2101	2114	2114	0	0	0	0	0	0	0	0	0	0	0	0	0	0	0	0	0	0	0	0	0	0	0	0	0	0	0	2051	2051	2051	2051	2088	2088	2076	2076	2088	2101	2101	2101	2101	2114	2127	2140	2140	2140	2140	2167	2167	2167	2167	2167	7444	7444	7444	7444	7608	7608	7608	7608	7608	7608	7608	7608	7608	7608	7608	7608	7779	7779	7779	7779	7779	7959	7779	7779	7779	7779	7779	0	0	0	0	0	0	0	0	8995	8995	8995	8995	8995	8995	8995	8767	8767	8550	8550	8767	8550	8550	8550	8550	8550	8550	8767	8767	8767	8767	8995	8767	8995	8995	8767	8767	8767	8767	8550	8343	8343	8343	8343	8550	8550	8767	8767	8767	8767	8767	8767	8767	8767	8767	8767	8550	8767	8767	8550	8550	8550	8343	8767	8767	8550	8767	8550	8767	8767	8767	8550	8550	8550	8550	8550	8550	8550	8550	8550	8550	8550	8550	8550	8550	8343	8550	8343	8550	8550	8550	8550	8550	8550	8767	8767	8550	8550	8550	8550	8550	8550	8550	8767	8550	8767	8767	8767	8550	8550	8550	8550	8550	8550	8550	8550	8550	8550	8550	8550	8995	8995	8995	8995	8767	8767	8767	8767	8767	8767	8767	8767	8767	8550	8550	8767	8767	8767	8767	8767	8550	8550	0	0	0	3440	3440	3475	3475	3475	3475	3510	3475	3510	3475	3475	3440	3440	3475	3475	3440	3440	3440	3440	3440	3406	3406	3406	3406	3406	3406	3406	3406	3406	3406	3406	3373	3373	3341	3341	3373	3373	3373	3341	3341	3373	3373	3373	3373	3373	3406	3406	3373	3406	3373	3406	3373	3406	3373	3406	3406	3406	3440	3440	3440	3440	3475	3475	3475	3475	3475	3475	3475	3475	3475	3440	3440	3440	3440	3440	3440	3440	8767	8767	8995	8767	8767	8767	8767	8767	8767	8767	8767	8767	8767	8995	8995	8995	8995	8995	8995	8767	8995	8995	8995	8767	8767	8767	8767	8767	8767	8767	8767	8767	8767	8767	8767	8767	8767	8767	8767	8767	8767	8767	8767	8767	8767	8767	8767	8550	8550	8550	8550	8550	8550	8550	8550	8550	8550	8767	8767	8767	8767	8767	8767	8767	8767	8767	8767	8767	8767	8767	8767	8767	8767	8767	8550	8550	8550	8550	8550	8550	8550	8550	8767	8767	8767	8767	8767	8550	8767	8550	8767	8767	8767	8767	8767	8767	8767	8767	8767	8767	8767	8767	8767	8767	8767	8767	8767	8550	8550	8550	8550	8550	8343	8550	8550	8550	8550	8550	8550	8550	8550	8550	8550	8550	8767	8767	8550	8550	8550	8767	8767	8767	8767	0	0	0	0	0	0	2993	2993	2993	3019	2993	2967	2942	2917	2917	2917	2869	2869	2845	2845	2822	2822	2799	2799	2777	2777	2754	2733	2733	2711	2711	2690	2669	2649	2649	2649	2629	2629	2609	2589	2589	2570	2570	2570	2551	2551	2551	2551	2551	2551	2551	2570	2570	2551	2551	2551	2551	2532	2532	2514	2496	2478	2496	2496	2478	2460	2460	2460	2460	1690	1690	1690	1690	1698	1698	1698	1698	1698	1698	1698	1698	1690	1690	1681	1690	1690	1690	1690	1690	1690	0	0	0	0	0	0	0	0	0	0	0	0	0	0	0	0	0	0	0	0	0	0	0	0	0	0	0	0	0	0	0	0	0	0	0	0	0	0	0
0	0	0	0	0	0	0	0	0	0	1385	1390	1396	1402	1413	1413	1419	1431	1437	1431	1443	1449	1449	1455	1467	1473	1480	1486	1492	1499	1499	1499	1506	1506	1512	1512	1519	1519	1519	1519	1519	1519	1525	1525	1532	1532	1532	1539	1532	1532	1525	1525	0	0	2076	2076	2076	2088	2101	2088	2088	2088	2101	2088	2088	2101	2101	2114	2101	2114	2114	2114	2114	2114	2114	2127	2114	2114	2114	2114	0	0	0	0	0	0	0	0	0	0	0	0	0	0	0	0	0	0	0	0	0	0	0	0	0	0	0	0	0	0	2088	2101	2088	2101	2101	2101	2114	2114	2114	2127	2140	2140	2140	2153	2153	2167	2167	2167	2181	2181	0	0	0	0	0	7608	7608	7608	7608	7608	7608	7608	7608	7608	7608	7779	7779	7959	7959	7959	7959	7959	7779	7779	7779	7779	7779	7779	0	0	0	0	0	0	0	0	8995	8995	8995	8995	8995	8995	8995	8767	8767	8550	8550	8550	8550	8550	8550	8550	8550	8550	8550	8767	8767	8550	8767	8767	8767	8767	8767	8767	8767	8550	8550	8550	8550	8550	8550	8550	8767	8767	8767	8767	8767	8767	8995	8995	8995	8767	8767	8767	8550	8550	8550	8550	8550	8550	8767	8550	8550	8550	8550	8550	8550	8550	8550	8550	8550	8550	8550	8550	8550	8550	8550	8550	8550	8550	8343	8343	8343	8343	8550	8550	8550	8550	8550	8767	8767	8767	8550	8550	8550	8550	8550	8767	8767	8767	8767	8767	8767	8767	8767	8550	8767	8767	8550	8550	8550	8550	8550	8550	8550	8550	8995	8995	8995	8995	8767	8767	8767	8767	8550	8767	8767	8550	8550	8550	8767	8767	8767	8767	8767	8767	8550	8550	0	0	0	3440	3440	3475	3475	3475	3475	3510	3510	3510	3475	3475	3475	3440	3475	3475	3440	3440	3440	3440	3440	3440	3440	3440	3440	3406	3406	3406	3406	3406	3406	3406	3373	3373	3373	3341	3341	3341	3341	3341	3341	3373	3373	3373	3373	3373	3373	3406	3373	3373	3373	3373	3373	3373	3373	3406	3406	3440	3440	3440	3440	3475	3475	3475	3475	3475	3475	3475	3475	3475	3475	3440	3440	3440	3440	3440	3440	0	8550	8767	8767	8767	8767	8767	8767	8767	8767	8767	8767	8767	8995	8995	8995	8995	8995	8767	8767	8767	8767	8995	8995	8767	8767	8767	8767	8767	8767	8767	8767	8767	8767	8767	8767	8767	8767	8767	8767	8767	8767	8767	8767	8767	8767	8767	8767	8767	8767	8550	8550	8550	8767	8767	8767	8767	8550	8550	8550	8767	8767	8767	8767	8767	8767	8767	8767	8767	8767	8767	8767	8767	8767	8550	8550	8550	8550	8343	8343	8343	8550	8550	8767	8767	8767	8550	8767	8550	8767	8767	8767	8767	8767	8767	8767	8767	8767	8550	8767	8767	8767	8767	8767	8767	8767	8767	8767	8550	8550	8550	8550	8550	8550	8550	8550	8550	8550	8550	8550	8550	8550	8550	8550	8550	8767	8550	8550	8550	8550	8767	8767	8767	8767	0	0	0	0	0	0	2993	2993	3019	2993	2967	2967	2942	2917	2917	2893	2869	2869	2845	2845	2822	2822	2799	2799	2799	2777	2754	2733	2733	2711	2711	2690	2669	2649	2649	2629	2629	2629	2609	2589	2589	2570	2570	2570	2551	2551	2551	2570	2551	2551	2551	2570	2570	2551	2551	2551	2551	2532	2532	2532	2496	2478	2478	2478	2478	2460	2460	2460	2460	1690	1690	1690	1690	1698	1698	1698	1698	1698	1698	1698	1698	1690	1698	1690	1690	1690	1690	1690	1690	1690	0	0	0	0	0	0	0	0	0	0	0	0	0	0	0	0	0	0	0	0	0	0	0	0	0	0	0	0	0	0	0	0	0	0	0	0	0	0	0
0	0	0	0	0	0	0	0	0	0	1385	1390	1396	1402	1407	1407	1413	1425	1431	1431	1431	1443	1443	1449	1455	1461	1473	1473	1486	1499	1492	1499	1506	1506	1519	1512	1519	1519	1525	1519	1525	1525	1525	1525	1532	1532	1532	1532	1532	1525	1525	1525	0	2088	2076	2088	2088	2101	2127	2127	2127	2127	2127	2127	2127	2127	2127	2127	2127	2140	2140	2140	2127	2127	2127	2127	2127	2127	2127	2127	2127	2127	2127	2127	2127	0	0	0	0	0	0	0	0	0	0	0	0	0	0	0	0	0	0	0	0	0	0	0	0	0	0	2101	2088	2101	2114	2127	2127	2140	2140	2127	2153	2153	2153	2153	2167	2181	2167	2181	2181	2208	2208	0	0	2223	2223	0	7608	7608	7608	7608	7779	7779	7779	7779	7779	7779	7779	7779	7959	7779	7959	7779	7779	7779	7779	7779	7779	7959	7959	8146	8146	0	0	0	0	0	0	0	8995	8995	8995	8995	8767	8767	8767	8550	8767	8767	8550	8550	8550	8550	8550	8550	8550	8767	8767	8550	8550	8767	8767	8995	8767	8767	8767	8550	8550	8550	8550	8550	8550	8550	8767	8767	8767	8767	8767	8767	8995	8995	8995	8995	8767	8995	8767	8550	8550	8550	8550	8550	8550	8767	8767	8767	8550	8550	8550	8550	8550	8550	8550	8550	8550	8550	8550	8550	8550	8550	8550	8550	8343	8343	8343	8343	8550	8550	8550	8550	8550	8767	8767	8767	8550	8550	8550	8550	8550	8767	8767	8767	8767	8767	8767	8767	8767	8767	8767	8767	8550	8550	8550	8550	8550	8550	8550	8550	8767	8767	8767	8767	8767	8767	8767	8767	8767	8767	8767	8767	8767	8550	8767	8767	8767	8767	8767	8767	8767	8550	0	0	3475	3475	3440	3475	3475	3475	3475	3510	3510	3510	3475	3475	3475	3440	3475	3475	3440	3440	3440	3440	3440	3440	3440	3440	3406	3406	3406	3406	3406	3406	3406	3406	3373	3373	3341	3341	3341	3373	3341	3341	3341	3373	3373	3373	3373	3373	3373	3373	3373	3373	3373	3373	3373	3373	3373	3373	3406	3406	3440	3440	3440	3440	3475	3475	3475	3475	3475	3440	3475	3440	3440	3440	3440	3440	3440	3475	3475	0	8550	8767	8995	8767	8767	8767	8767	8767	8767	8767	8767	8767	8767	8995	8767	8550	8550	8767	8767	8767	8767	8767	8767	8767	8767	8767	8995	8767	8767	8767	8767	8767	8767	8767	8767	8767	8767	8767	8767	8767	8767	8767	8767	8767	8767	8767	8767	8550	8767	8550	8550	8550	8550	8550	8550	8550	8550	8767	8767	8767	8767	8767	8767	8767	8550	8550	8767	8767	8767	8767	8767	8767	8767	8550	8550	8550	8550	8550	8550	8550	8550	8550	8767	8550	8550	8550	8767	8550	8767	8550	8767	8767	8550	8550	8550	8767	8767	8767	8767	8767	8767	8767	8767	8767	8767	8767	8767	8550	8550	8550	8550	8343	8343	8550	8550	8550	8550	8550	8550	8767	8550	8767	8767	8767	8767	8767	8550	8767	8767	8767	8767	8767	8767	0	0	0	0	0	0	2993	2993	3019	3019	2967	2967	2942	2917	2917	2893	2869	2869	2845	2822	2822	2822	2777	2777	2777	2777	2754	2733	2733	2733	2711	2690	2669	2649	2649	2649	2629	2629	2609	2609	2589	2589	2570	2570	2570	2551	2551	2551	2551	2551	2551	2551	2570	2551	2551	2551	2551	2532	2532	2514	2514	2478	2478	2478	2460	2460	2460	2443	2443	0	1690	1690	1690	1698	1698	1698	1698	1698	1698	1698	1698	1698	1698	1690	1690	1690	1690	1690	1681	1681	0	0	0	0	0	0	0	0	0	0	0	0	0	0	0	0	0	0	0	0	0	0	0	0	0	0	0	0	0	0	0	0	0	0	0	0	0	0	0
0	0	0	0	0	0	0	0	0	0	1385	1390	1396	1402	1407	1407	1413	1419	1425	1425	1431	1443	1443	1449	1449	1455	1461	1467	1473	1492	1492	1492	1506	1512	1512	1512	1519	1519	1525	1519	1525	1525	1532	1525	1532	1532	1532	1532	1532	1532	1532	0	0	2101	2101	2101	2114	2127	2127	2127	2140	2140	2140	2127	2153	2153	2140	2140	2140	2153	2153	2153	2140	2127	2140	2140	2140	2140	2140	2127	2127	2127	2127	2127	2127	0	0	0	0	0	0	0	0	0	0	0	0	0	0	0	0	0	0	0	0	0	0	0	0	0	0	0	0	0	2114	2153	2153	2153	2153	2153	2167	2167	2167	2167	2181	2194	2181	2194	2208	2208	2208	2223	2223	2223	2252	2252	0	0	7779	7779	7779	7779	7779	7779	7779	7779	7779	7779	7779	7779	7959	7779	7779	7779	7779	7959	7959	8146	8146	8146	8146	8146	8146	0	0	0	0	0	0	0	8767	8767	8767	8550	8550	8550	8767	8550	8550	8550	8550	8767	8767	8767	8767	8550	8767	8550	8550	8550	8550	8995	8767	8767	8767	8550	8550	8550	8550	8550	8550	8550	8550	8767	8767	8767	8767	8995	8995	8995	8995	8767	8767	8767	8767	8767	8767	8767	8767	8550	8550	8550	8767	8767	8550	8550	8550	8550	8550	8550	8550	8550	8550	8550	8550	8550	8550	8550	8550	8550	8343	8343	8343	8343	8550	8550	8550	8550	8550	8767	8767	8767	8550	8550	8550	8550	8550	8550	8550	8767	8767	8767	8767	8767	8767	8767	8767	8767	8767	8550	8550	8550	8550	8550	8550	8550	8767	8767	8767	8767	8767	8767	8767	8767	8767	8767	8767	8767	8767	8550	8767	8767	8767	8767	8767	8995	9235	9235	0	0	3475	3475	3475	3475	3475	3475	3475	3510	3510	3510	3475	3475	3475	3440	3475	3440	3440	3440	3440	3440	3440	3440	3440	3406	3406	3406	3406	3406	3406	3406	3406	3406	3406	3373	3341	3341	3341	3341	3341	3341	3341	3341	3373	3373	3373	3373	3373	3373	3373	3373	3373	3373	3373	3373	3373	3373	3406	3406	3406	3406	3440	3440	3440	3440	3475	3475	3475	3440	3475	3440	3440	3440	3475	3475	3475	3475	3475	3475	8550	8767	8767	8767	8767	8767	8767	8767	8767	8767	8767	8767	8767	8995	8767	8550	8550	8767	8767	8550	8767	8767	8767	8767	8767	8767	8767	8767	8767	8767	8767	8767	8767	8767	8767	8767	8767	8767	8767	8767	8767	8767	8767	8767	8767	8767	8767	8550	8767	8550	8767	8550	8550	8550	8550	8550	8550	8550	8767	8550	8550	8550	8767	8550	8550	8550	8550	8550	8550	8767	8767	8767	8767	8550	8550	8550	8550	8550	8550	8550	8550	8550	8767	8550	8767	8767	8767	8550	8767	8550	8550	8550	8550	8550	8550	8550	8550	8550	8767	8767	8767	8767	8767	8767	8767	8767	8767	8550	8550	8550	8550	8550	8550	8550	8550	8550	8550	8550	8550	8767	8767	8767	8767	8767	8767	8767	8550	8550	8767	8767	8767	8767	8767	0	0	0	0	0	0	2993	2993	3019	2993	2967	2942	2917	2917	2917	2893	2869	2869	2845	2822	2822	2822	2799	2777	2777	2754	2754	2754	2733	2733	2711	2711	2669	2649	2649	2629	2629	2609	2609	2589	2589	2570	2570	2570	2570	2570	2551	2551	2551	2551	2551	2570	2551	2551	2551	2551	2551	2532	2532	2514	2496	2478	2478	2478	2460	2426	2426	2426	2426	2426	0	1690	1690	1690	1698	1698	1698	1706	1706	1698	1698	1698	1698	1690	1690	1690	1690	1681	1681	1681	0	0	0	0	0	0	0	0	0	0	0	0	0	0	0	0	0	0	0	0	0	0	0	0	0	0	0	0	0	0	0	0	0	0	0	0	0	0	0
0	0	0	0	0	0	0	0	0	0	1385	1396	1402	1407	1407	1407	1413	1419	1419	1425	1431	1443	1443	1449	1455	1455	1461	1461	1473	1480	1486	1486	1492	1499	1506	1512	1512	1519	1519	1525	1525	1532	1532	1532	1532	1539	1532	1539	1539	1539	1539	0	0	2127	2076	2076	2140	2127	2140	2140	2140	2140	2140	2153	2167	2167	2167	2167	2167	2167	2167	2167	2153	2153	2153	2140	2153	2153	2153	2140	2140	2140	2140	2140	2127	0	0	0	0	0	0	0	0	0	0	0	0	0	0	0	0	0	0	0	0	0	0	0	0	0	0	0	0	0	0	2153	2153	2167	2153	2167	2167	2181	2181	2181	2194	2194	2194	2194	2208	2208	2208	2208	2223	2237	2252	2252	2252	0	7779	7779	7959	7779	7779	7779	7779	7779	7779	7779	7779	7779	7779	7779	7779	7959	7779	7959	7959	7959	7959	7959	7959	7959	8146	0	0	0	0	0	0	0	8550	8550	8550	8343	8550	8343	8550	8550	8550	8550	8550	8550	8767	8550	8550	8550	8767	8550	8550	8767	8767	8767	8767	8550	8767	8550	8550	8550	8550	8550	8767	8550	8767	8767	8767	8767	8767	8767	8767	8995	8995	8767	8767	8767	8995	8767	8767	8767	8767	8550	8550	8550	8767	8767	8550	8767	8550	8550	8550	8550	8550	8550	8550	8550	8550	8550	8550	8550	8550	8550	8550	8550	8550	8550	8550	8550	8550	8550	8550	8550	8550	8550	8550	8550	8550	8550	8550	8550	8550	8767	8767	8767	8767	8767	8767	8767	8767	8767	8767	8767	8550	8550	8550	8550	8550	8550	8767	8767	8767	8767	8767	8767	8767	8767	8767	8767	8767	8767	8767	8550	8767	8767	8767	8767	8767	8995	8995	9235	0	0	3475	3475	3475	3475	3475	3475	3475	3510	3510	3510	3475	3475	3475	3440	3475	3475	3440	3440	3440	3440	3440	3440	3440	3440	3406	3406	3440	3406	3406	3406	3406	3406	3406	3373	3373	3373	3373	3373	3373	3341	3341	3373	3373	3373	3373	3373	3373	3373	3373	3373	3373	3373	3373	3406	3373	3406	3406	3406	3440	3406	3440	3440	3440	3440	3475	3475	3475	3440	3475	3475	3475	3475	3475	3475	3475	3475	3475	3475	0	8995	8995	8995	8767	8767	8767	8767	8767	8767	8767	8767	8767	8767	8767	8550	8550	8550	8767	8550	8550	8767	8767	8767	8767	8767	8767	8767	8767	8767	8767	8767	8767	8767	8767	8767	8767	8767	8767	8767	8767	8767	8767	8767	8767	8767	8767	8767	8767	8767	8767	8550	8767	8550	8550	8550	8550	8767	8767	8767	8550	8767	8767	8767	8550	8550	8550	8550	8767	8767	8767	8767	8767	8767	8550	8550	8550	8550	8550	8550	8550	8550	8767	8767	8767	8767	8767	8767	8767	8550	8550	8550	8550	8550	8550	8550	8550	8550	8767	8767	8767	8767	8767	8767	8767	8767	8767	8550	8550	8550	8550	8550	8550	8550	8550	8550	8550	8550	8550	8767	8767	8767	8767	8767	8767	8550	8550	8767	8767	8767	8767	8767	8767	0	0	0	0	0	0	2993	2993	2993	2993	2967	2917	2917	2917	2917	2893	2869	2845	2845	2822	2822	2799	2799	2777	2777	2754	2754	2754	2733	2733	2711	2711	2669	2649	2649	2629	2629	2609	2589	2589	2589	2570	2570	2570	2570	2570	2551	2551	2551	2551	2551	2551	2551	2551	2551	2551	2551	2532	2514	2496	2496	2478	2478	2460	2460	2426	2426	2426	2426	2409	2409	0	1690	1698	1698	1706	1698	1706	1706	1698	1698	1698	1698	1690	1690	1690	1690	1673	1681	1681	0	0	0	0	0	0	0	0	0	0	0	0	0	0	0	0	0	0	0	0	0	0	0	0	0	0	0	0	0	0	0	0	0	0	0	0	0	0	0
0	0	0	0	0	0	0	0	0	0	0	1396	1402	1402	1407	1407	1413	1413	1419	1425	1431	1437	1449	1449	1449	1449	1455	1455	1461	1467	1473	1473	1486	1492	1492	1499	1506	1512	1519	1525	1525	1532	1532	1532	1532	1539	1539	1539	1539	1539	1539	0	0	2140	2076	2153	2153	2153	2153	2140	2140	2140	2153	2153	2167	2181	2167	2167	2167	2181	2181	2181	2167	2167	2167	2153	2167	2167	2153	2153	2153	2153	2140	2127	2127	0	0	0	0	0	0	0	0	0	0	0	0	0	0	0	0	0	0	0	0	0	0	0	0	0	0	0	0	0	0	2153	2153	2181	2181	2181	2181	2181	2194	2194	2194	2208	2208	2223	2223	2223	2223	2223	2223	2252	2252	2252	2252	0	0	0	7959	7779	7779	7779	7779	7779	7779	7779	7779	7779	7959	7959	7959	7959	7959	7959	7959	7959	7959	7959	7959	8146	8146	0	0	0	0	0	0	0	8550	8550	8550	8550	8550	8550	8550	8550	8550	8550	8550	8550	8550	8550	8550	8767	8767	8550	8550	8550	8767	8767	8767	8550	8767	8550	8550	8550	8550	8550	8550	8550	8550	8767	8767	8767	8767	8767	8767	8767	8995	8767	8767	8767	8767	8767	8767	8767	8767	8550	8550	8550	8767	8767	8767	8767	8767	8550	8550	8550	8550	8550	8550	8550	8550	8550	8550	8550	8550	8550	8550	8550	8550	8550	8550	8550	8550	8550	8550	8550	8550	8550	8550	8550	8550	8550	8550	8550	8550	8550	8550	8550	8550	8767	8767	8767	8767	8767	8767	8550	8550	8550	8550	8550	8550	8550	8550	8550	8767	8767	8767	8550	8550	8550	8767	8767	8767	8767	8767	8767	8767	8767	8767	8767	8767	8995	8995	0	0	0	3475	3475	3475	3475	3475	3475	3475	3510	3475	3510	3475	3440	3440	3440	3475	3440	3440	3440	3440	3440	3440	3440	3440	3406	3406	3406	3440	3406	3406	3406	3406	3406	3406	3373	3373	3373	3373	3373	3373	3341	3341	3373	3373	3373	3373	3373	3373	3373	3373	3373	3373	3373	3373	3373	3373	3406	3406	3406	3406	3440	3440	3440	3440	3440	3475	3475	3440	3440	3440	3440	3440	3475	3475	3440	3475	3475	3475	3475	7779	7959	8146	8767	8767	8767	8767	8767	8767	8767	8767	8995	8995	8995	8767	8767	8550	8550	8550	8550	8550	8767	8767	8767	8767	8767	8767	8767	8767	8767	8767	8767	8767	8767	8767	8767	8767	8767	8767	8767	8767	8767	8550	8550	8767	8767	8767	8550	8767	8550	8550	8550	8550	8550	8550	8550	8550	8767	8767	8550	8550	8550	8550	8550	8550	8550	8550	8550	8767	8767	8767	8767	8767	8767	8550	8550	8550	8550	8550	8550	8550	8550	8767	8767	8767	8550	8550	8550	8767	8550	8550	8550	8550	8550	8550	8550	8550	8550	8550	8767	8767	8767	8767	8767	8767	8767	8767	8550	8550	8550	8550	8550	8550	8550	8550	8550	8550	8550	8550	8767	8767	8767	8767	8767	8767	8767	8767	8767	8767	8767	8767	8767	8767	0	0	0	0	0	0	0	2993	2993	2993	2967	2942	2917	2917	2917	2893	2869	2845	2845	2822	2822	2799	2799	2777	2777	2754	2754	2754	2733	2733	2711	2711	2669	2649	2649	2629	2629	2609	2589	2589	2570	2570	2570	2570	2570	2551	2551	2551	2551	2551	2551	2551	2551	2551	2551	2551	2551	2551	2514	2496	2496	2478	2478	2460	2460	2460	2443	2426	2426	2409	2426	2426	2426	1706	1706	1706	1698	1706	1706	1706	1698	1698	1698	1698	1690	1690	1690	1673	1673	1673	0	0	0	0	0	0	0	0	0	0	0	0	0	0	0	0	0	0	0	0	0	0	0	0	0	0	0	0	0	0	0	0	0	0	0	0	0	0	0
0	0	0	0	0	0	0	0	0	0	0	1396	1396	1402	1407	1407	1413	1413	1419	1425	1431	1437	1443	1443	1449	1455	1455	1455	1455	1461	1467	1473	1480	1486	1486	1499	1506	1512	1519	1525	1525	1532	1532	1532	1532	1539	1539	1546	1546	1546	1553	1553	0	2167	2167	2167	2167	2167	2167	2167	2153	2153	2167	2167	2167	2181	2181	2181	2181	2181	2181	2181	2194	2181	2167	2167	2167	2167	2167	2153	2167	2153	2140	2140	2140	0	0	0	0	0	0	0	0	0	0	0	0	0	0	0	0	0	0	0	0	0	0	0	0	0	0	0	0	0	0	0	0	2194	2194	2208	2208	2208	2208	2208	2208	2208	2223	2223	2237	2237	2237	2252	2252	2252	2252	2237	2237	0	0	0	7959	7959	7779	7779	7779	7779	7779	7959	7779	7779	7959	7959	8146	7959	7959	7959	7959	8146	8146	8146	8146	8343	8343	8550	8550	0	0	0	0	8550	8550	8550	8550	8550	8550	8767	8550	8550	8550	8550	8550	8550	8550	8550	8550	8550	8550	8550	8550	8550	8767	8767	8550	8550	8550	8767	8767	8550	8550	8550	8767	8550	8550	8767	8767	8767	8767	8767	8767	8767	8995	8767	8767	8995	8767	8767	8767	8767	8550	8550	8550	8550	8767	8767	8767	8767	8767	8550	8550	8550	8550	8550	8550	8550	8550	8550	8550	8550	8550	8550	8343	8550	8550	8550	8550	8550	8550	8550	8550	8550	8767	8767	8767	8550	8550	8550	8550	8550	8550	8550	8550	8550	8767	8767	8767	8767	8767	8767	8550	8550	8550	8550	8550	8550	8550	8550	8550	8767	8767	8767	8767	8550	8550	8767	8767	8767	8767	8767	8767	8767	8767	8767	8767	8995	8767	8995	8995	0	0	0	3475	3475	3475	3475	3475	3475	3475	3440	3440	3475	3475	3440	3440	3406	3440	3440	3440	3440	3440	3440	3440	3440	3406	3406	3373	3406	3406	3406	3406	3406	3406	3406	3406	3373	3373	3373	3341	3341	3341	3341	3341	3341	3373	3373	3373	3373	3373	3373	3373	3373	3373	3373	3373	3373	3373	3406	3406	3406	3440	3440	3440	3440	3440	3440	3440	3440	3440	3440	3440	3440	3475	3475	3475	3440	3475	3475	3475	3475	7779	7959	8146	8550	8767	8767	8767	8767	8767	8767	8995	8995	8995	8995	8767	8767	8767	8550	8550	8550	8550	8767	8767	8767	8767	8767	8767	8767	8767	8767	8767	8995	8767	8767	8767	8767	8767	8767	8767	8767	8767	8767	8767	8767	8767	8767	8767	8767	8767	8767	8767	8550	8550	8550	8550	8550	8550	8550	8550	8550	8550	8550	8550	8550	8550	8550	8550	8550	8767	8767	8767	8767	8767	8767	8767	8550	8550	8550	8550	8550	8550	8550	8550	8767	8550	8550	8767	8550	8767	8550	8550	8550	8550	8550	8550	8550	8550	8550	8550	8767	8767	8767	8767	8767	8767	8767	8767	8550	8550	8550	8550	8550	8550	8550	8550	8550	8550	8550	8767	8767	8767	8767	8767	8767	8767	8767	8767	8767	8767	8767	8767	8767	8767	0	0	0	0	0	0	0	0	2993	2942	2942	2917	2917	2917	2917	2893	2893	2869	2845	2822	2822	2822	2799	2777	2777	2777	2754	2754	2733	2733	2711	2669	2669	2649	2649	2629	2629	2609	2589	2589	2589	2570	2570	2570	2570	2570	2570	2551	2551	2551	2551	2551	2551	2551	2551	2551	2551	2551	2514	2496	2478	2478	2460	2460	2460	2443	2443	2426	2426	2426	2426	2426	2426	1706	1715	1706	1706	1706	1706	1706	1706	1698	1698	1698	1698	1698	1673	1673	1673	1673	0	0	0	0	0	0	0	0	0	0	0	0	0	0	0	0	0	0	0	0	0	0	0	0	0	0	0	0	0	0	0	0	0	0	0	0	0	0	0
0	0	0	0	0	0	0	0	0	0	0	1390	1390	1390	1402	1402	1413	1413	1413	1425	1437	1443	1449	1449	1449	1455	1455	1455	1455	1455	1467	1473	1480	1486	1486	1499	1506	1506	1519	1525	1525	1532	1532	1539	1532	1532	1539	1546	1546	1553	1553	1553	0	2181	2181	2181	2181	2181	2181	2181	2167	2181	2167	2167	2181	2181	2181	2181	2181	2194	2194	2194	2194	2194	2181	2181	2181	2181	2167	2153	2181	2153	2140	2127	2127	0	0	0	0	0	0	0	0	0	0	0	0	0	0	0	0	0	0	0	0	0	0	0	0	0	0	0	0	0	0	0	0	2194	2194	2208	2208	2208	2208	2208	2208	2223	2223	2237	2237	2252	2252	2252	2266	2266	2252	2252	2252	2252	0	0	7959	7959	7959	7959	7779	7779	7779	7959	7779	7779	7779	7779	8146	8146	8146	8146	8146	8146	8146	8146	8146	8343	8550	8550	8550	8550	8550	8550	8343	8550	8550	8550	8550	8550	8550	8767	8550	8550	8550	8550	8550	8550	8550	8550	8550	8550	8550	8550	8550	8550	8550	8550	8343	8343	8550	8550	8550	8550	8550	8550	8767	8550	8550	8550	8767	8767	8767	8767	8767	8767	8995	8767	8767	8767	8767	8767	8767	8767	8550	8550	8550	8550	8550	8767	8767	8767	8767	8767	8767	8550	8550	8550	8550	8550	8550	8550	8550	8550	8550	8550	8343	8343	8343	8343	8550	8550	8550	8550	8767	8767	8767	8767	8767	8550	8550	8550	8550	8550	8550	8550	8550	8550	8767	8767	8767	8767	8767	8767	8767	8550	8550	8550	8550	8550	8550	8550	8550	8550	8767	8767	8767	8767	8767	8767	8767	8767	8767	8767	8767	8767	8767	8767	8767	8995	8767	8767	8995	0	0	0	3475	3475	3475	3475	3475	3475	3475	3440	3440	3440	3440	3440	3440	3406	3440	3440	3475	3440	3440	3440	3440	3440	3406	3406	3373	3373	3373	3373	3373	3406	3406	3406	3406	3373	3373	3373	3373	3341	3341	3341	3341	3373	3373	3373	3341	3406	3406	3406	3373	3373	3373	3373	3373	3373	3406	3406	3406	3406	3440	3440	3440	3440	3440	3440	3440	3475	3440	3475	3440	3475	3475	3475	3475	3440	3475	3475	3475	3475	3475	7959	8343	8550	8767	8767	8767	8767	8767	8767	8995	8995	8995	8767	8767	8767	8550	8550	8550	8550	8550	8550	8767	8767	8767	8767	8767	8767	8767	8767	8767	8767	8767	8767	8767	8767	8767	8767	8767	8767	8767	8767	8767	8767	8767	8767	8767	8550	8767	8767	8767	8550	8550	8550	8550	8550	8550	8550	8550	8550	8550	8550	8550	8550	8550	8550	8550	8550	8767	8767	8767	8767	8767	8767	8767	8767	8550	8550	8550	8550	8550	8550	8767	8767	8767	8550	8767	8767	8767	8767	8550	8550	8550	8550	8550	8550	8550	8550	8550	8767	8767	8767	8550	8550	8767	8767	8767	8550	8550	8550	8550	8550	8550	8550	8550	8550	8550	8550	8767	8767	8767	8550	8550	8767	8767	8550	8550	8550	8767	8767	8767	8767	8767	0	0	0	0	0	0	0	0	2942	2917	2917	2917	2917	2917	2917	2893	2893	2869	2869	2845	2845	2822	2822	2799	2777	2754	2754	2754	2733	2733	2690	2669	2669	2649	2649	2629	2629	2609	2589	2589	2589	2570	2570	2570	2570	2570	2570	2570	2551	2551	2551	2551	2551	2551	2551	2551	2551	2532	2514	2496	2478	2478	2460	2460	2443	2443	2426	2443	2426	2426	2426	2426	2426	0	1715	1706	1706	1706	1706	1706	1706	1698	1698	1698	1698	1681	1673	1673	1673	1673	0	0	0	0	0	0	0	0	0	0	0	0	0	0	0	0	0	0	0	0	0	0	0	0	0	0	0	0	0	0	0	0	0	0	0	0	0	0	0
0	0	0	0	0	0	0	0	0	0	0	1390	1390	1396	1402	1407	1407	1413	1413	1425	1443	1443	1449	1449	1449	1455	1455	1455	1455	1455	1461	1473	1480	1486	1492	1499	1499	1506	1512	1519	1525	1532	1532	1539	1539	1546	1546	1546	1553	1553	1560	1560	0	2194	2194	2181	2194	2194	2181	2181	2181	2181	2181	2181	2181	2194	2181	2194	2194	2194	2194	2194	2194	2194	2194	2194	2194	2194	2181	2194	2194	2140	2127	2114	2114	0	0	0	0	0	0	0	0	0	0	0	0	0	0	0	0	0	0	0	0	0	0	0	0	0	0	0	0	0	0	0	0	0	0	0	2208	2208	2208	2208	2208	2223	2237	2252	2252	2252	2266	2266	2266	2266	2266	2252	2252	2252	0	0	0	7959	7959	7959	7779	7779	7779	7779	7779	7779	7779	7779	8146	8146	7959	8146	7959	8146	8146	8343	8146	8343	8343	8550	8550	8550	8550	8550	8550	8550	8550	8550	8550	8550	8550	8767	8550	8550	8550	8550	8550	8550	8550	8550	8550	8550	8550	8550	8550	8550	8550	8550	8343	8343	8550	8550	8550	8767	8550	8767	8767	8995	8550	8550	8550	8767	8767	8767	8767	8767	8767	8767	8767	8767	8767	8767	8767	8767	8767	8550	8550	8550	8550	8767	8767	8767	8767	8767	8767	8550	8550	8550	8550	8550	8550	8550	8550	8550	8550	8550	8343	8343	8550	8550	8550	8550	8550	8550	8550	8767	8767	8767	8767	8767	8767	8767	8767	8550	8550	8550	8550	8550	8767	8767	8767	8550	8767	8767	8767	8550	8550	8550	8550	8550	8550	8550	8550	8550	8767	8767	8550	8767	8550	8767	8767	8767	8767	8767	8767	8767	8767	8767	8767	8995	8767	8767	0	0	0	0	3475	3475	3475	3475	3475	3475	3440	3440	3440	3440	3440	3440	3440	3406	3440	3440	3475	3440	3440	3440	3440	3440	3373	3373	3373	3373	3373	3373	3373	3373	3373	3373	3406	3373	3373	3373	3341	3341	3341	3341	3341	3373	3373	3373	3341	3406	3373	3373	3373	3373	3373	3373	3373	3373	3373	3373	3373	3406	3440	3440	3440	3440	3440	3475	3475	3475	3440	3440	3440	3440	3440	3440	3440	3440	3475	3475	3475	3475	3475	3475	8343	8550	8767	8767	8767	8767	8767	8995	8767	8995	8995	8767	8767	8767	8767	8550	8550	8550	8550	8550	8767	8767	8767	8767	8767	8767	8767	8767	8767	8767	8767	8767	8767	8767	8767	8767	8767	8767	8767	8767	8767	8767	8767	8767	8767	8767	8767	8767	8767	8550	8550	8550	8550	8550	8550	8550	8550	8550	8550	8550	8550	8550	8550	8550	8550	8767	8767	8767	8767	8767	8767	8767	8767	8767	8550	8550	8550	8550	8550	8550	8550	8550	8767	8767	8767	8767	8767	8767	8550	8550	8550	8550	8550	8550	8550	8550	8550	8767	8767	8767	8767	8550	8550	8767	8550	8767	8550	8550	8550	8767	8550	8767	8550	8550	8550	8550	8550	8550	8767	8550	8550	8767	8550	8550	8550	8550	8767	8767	8767	8767	8550	8550	0	0	0	0	0	0	0	2942	2917	2917	2917	2917	2917	2917	2893	2893	2893	2869	2845	2845	2822	2799	2777	2777	2754	2777	2754	2733	2711	2690	2690	2669	2649	2649	2649	2629	2609	2589	2589	2570	2570	2570	2570	2570	2570	2570	2551	2551	2551	2551	2551	2551	2551	2551	2551	2551	2532	2532	2496	2478	2460	2460	2460	2460	2460	2443	2443	2426	2443	2443	2443	2426	0	0	1706	1706	1706	1706	1706	1706	1698	1698	1698	1690	1681	1673	1673	1673	1673	0	0	0	0	0	0	0	0	0	0	0	0	0	0	0	0	0	0	0	0	0	0	0	0	0	0	0	0	0	0	0	0	0	0	0	0	0	0	0
0	0	0	0	0	0	0	0	0	0	0	1390	1390	1390	1402	1402	1407	1419	1425	1431	1431	1443	1449	1449	1449	1455	1455	1455	1455	1461	1467	1473	1480	1486	1492	1499	1499	1499	1506	1512	1519	1525	1532	1532	1532	1539	1539	1546	1553	1553	1553	1553	1553	2194	2181	2181	2194	2194	2194	2194	2181	2181	2181	2181	2181	2181	2181	2194	2208	2194	2194	2194	2208	2194	2194	2194	2194	2194	2194	2194	2194	2194	2127	2114	2114	0	0	0	0	0	0	0	0	0	0	0	0	0	0	0	0	0	0	0	0	0	0	0	0	0	0	0	0	0	0	0	0	0	0	0	2208	2223	2223	2223	2223	2223	2252	2237	2252	2266	2266	2266	2266	2266	2266	2266	2252	2252	0	0	0	0	0	7959	7608	7608	7608	7779	7779	7779	7779	7779	7779	7959	7959	7959	7959	7959	7959	8343	8343	8550	8550	8767	8550	8767	8550	8550	8550	8343	8550	8343	8550	8343	8550	8550	8550	8550	8550	8550	8550	8550	8550	8550	8767	8767	8767	8767	8550	8550	8550	8550	8550	8550	8550	8550	8550	8767	8550	8767	8767	8995	8550	8550	8767	8767	8767	8767	8550	8767	8767	8550	8550	8550	8550	8550	8550	8550	8550	8550	8550	8550	8550	8550	8767	8767	8767	8767	8767	8550	8550	8550	8550	8550	8550	8550	8550	8550	8550	8343	8343	8550	8550	8550	8550	8550	8550	8550	8767	8767	8767	8767	8767	8767	8767	8767	8767	8767	8550	8550	8550	8550	8550	8550	8767	8767	8767	8550	8767	8550	8550	8550	8767	8767	8767	8767	8995	8995	8995	8995	8767	8767	8767	8767	8767	8767	8995	8995	8995	8995	8995	8995	8995	8995	8767	8767	8767	0	0	0	3546	3475	3475	3475	3475	3475	3440	3440	3440	3440	3440	3440	3406	3406	3440	3440	3475	3440	3440	3440	3440	3373	3373	3373	3373	3373	3373	3373	3373	3406	3406	3373	3406	3373	3373	3373	3341	3341	3341	3341	3341	3341	3341	3341	3341	3406	3406	3373	3373	3373	3373	3373	3373	3373	3406	3406	3406	3406	3440	3440	3440	3440	3440	3475	3440	3475	3440	3440	3440	3440	3440	3440	3440	3440	3475	3475	3475	3475	3475	3475	8550	8550	8550	8550	8767	8767	8767	8767	8767	8995	8995	8995	8767	8767	8767	8767	8767	8767	8767	8767	8767	8767	8767	8767	8767	8767	8767	8767	8767	8767	8767	8767	8767	8767	8767	8767	8767	8767	8767	8767	8767	8767	8767	8767	8767	8767	8767	8767	8767	8767	8550	8767	8550	8550	8550	8550	8550	8550	8550	8550	8550	8550	8550	8550	8550	8550	8550	8550	8550	8767	8767	8767	8550	8550	8550	8550	8550	8550	8550	8550	8550	8550	8767	8767	8767	8767	8767	8767	8550	8550	8550	8550	8550	8550	8550	8550	8550	8550	8767	8767	8767	8550	8767	8767	8767	8767	8550	8550	8550	8767	8550	8550	8550	8550	8550	8550	8550	8550	8550	8550	8550	8550	8550	8550	8550	8550	8550	8550	8550	8550	8550	8550	0	0	0	0	0	0	0	0	2917	2917	2917	2893	2917	2917	2893	2893	2869	2845	2845	2822	2822	2822	2799	2777	2777	2777	2754	2733	2711	2690	2690	2669	2649	2649	2629	2609	2609	2589	2589	2570	2570	2570	2570	2570	2570	2570	2551	2551	2551	2570	2570	2570	2551	2551	2551	2551	2532	2514	2496	2478	2460	2460	2460	2460	2460	2443	2443	2443	2443	2443	2426	2426	0	0	0	1706	1706	1706	1706	1706	1698	1698	1698	1690	1681	1673	1673	1673	1673	0	0	0	0	0	0	0	0	0	0	0	0	0	0	0	0	0	0	0	0	0	0	0	0	0	0	0	0	0	0	0	0	0	0	0	0	0	0	0
0	0	0	0	0	0	0	0	0	0	0	1385	1390	1390	1396	1396	1407	1419	1419	1425	1425	1443	1449	1449	1449	1455	1455	1455	1455	1461	1467	1473	1480	1486	1486	1492	1492	1499	1506	1512	1519	1525	1532	1532	1532	1539	1539	1539	1546	1553	1553	1553	1553	0	2181	2194	2194	2194	2208	2208	2181	2181	2167	2167	2194	2194	2194	2237	2237	2237	2208	2208	2223	2208	2194	2194	2194	2194	2194	2194	2194	2194	0	0	0	0	0	0	0	0	0	0	0	0	0	0	0	0	0	0	0	0	0	0	0	0	0	0	0	0	0	0	0	0	0	0	0	0	0	0	0	2223	2223	2237	2223	2237	2252	2252	2266	2266	2266	2266	2266	2266	2266	2266	2266	2252	0	0	0	0	0	0	7608	7608	7608	7779	7779	7779	7779	7779	7779	7779	7779	7959	7959	7959	7959	8343	8343	8550	8550	8767	8767	8767	8767	8767	8550	8550	8550	8550	8550	8550	8550	8550	8550	8550	8550	8550	8550	8550	8550	8550	8550	8550	8550	8550	8550	8550	8550	8550	8550	8550	8550	8550	8550	8767	8767	8767	8767	8995	8550	8550	8767	8550	8550	8550	8550	8550	8550	8550	8550	8550	8550	8550	8550	8550	8550	8550	8550	8550	8550	8550	8550	8550	8550	8550	8767	8550	8550	8550	8550	8550	8550	8550	8343	8343	8343	8343	8343	8343	8550	8550	8550	8550	8550	8550	8767	8767	8767	8767	8767	8767	8767	8767	8767	8767	8550	8550	8550	8550	8767	8550	8767	8767	8767	8550	8550	8550	8550	8550	8550	8550	8767	8767	8995	8995	8995	8995	8767	8995	8995	8995	8767	8767	8767	8767	8767	8767	8767	8767	8767	8550	8550	8550	8550	8550	0	0	3510	3475	3475	3475	3475	3475	3440	3440	3440	3440	3440	3406	3406	3406	3440	3440	3440	3440	3440	3440	3440	3406	3373	3373	3373	3373	3373	3373	3373	3406	3406	3373	3406	3373	3373	3373	3341	3341	3341	3341	3341	3373	3373	3341	3341	3406	3406	3373	3373	3373	3373	3373	3373	3373	3406	3406	3406	3406	3440	3440	3440	3440	3440	3475	3440	3475	3440	3440	3440	3440	3440	3440	3440	3440	3475	3440	3475	3475	3475	0	8767	8767	8767	8767	8767	8767	8767	8767	8767	8995	8995	8995	8767	8767	8767	8767	8767	8767	8767	8767	8767	8767	8767	8767	8767	8767	8767	8767	8767	8767	8767	8767	8767	8767	8767	8767	8767	8767	8767	8767	8767	8767	8767	8767	8767	8767	8767	8767	8767	8767	8550	8767	8767	8550	8550	8550	8550	8550	8550	8550	8550	8550	8550	8550	8550	8550	8550	8550	8550	8767	8550	8767	8550	8550	8550	8550	8550	8550	8550	8550	8550	8767	8767	8767	8767	8767	8767	8767	8767	8767	8550	8550	8550	8550	8550	8343	8550	8550	8550	8767	8550	8550	8767	8767	8767	8550	8550	8550	8550	8550	8550	8767	8550	8550	8550	8550	8550	8550	8550	8550	8550	8550	8550	8550	8550	8550	8550	8550	8550	8550	8550	8343	8343	0	0	0	0	0	0	0	2893	2917	2893	2893	2893	2917	2893	2893	2893	2869	2845	2845	2822	2822	2799	2799	2777	2777	2754	2733	2690	2669	2669	2649	2649	2649	2629	2609	2589	2589	2589	2570	2570	2570	2570	2570	2570	2551	2551	2551	2551	2570	2570	2570	2570	2551	2551	2551	2514	2496	2496	2478	2478	2478	2460	2460	2460	2443	2443	2426	2443	2426	2426	2426	0	0	0	0	1706	1706	1706	1706	1698	1698	1698	1698	1681	1673	1673	1673	1673	0	0	0	0	0	0	0	0	0	0	0	0	0	0	0	0	0	0	0	0	0	0	0	0	0	0	0	0	0	0	0	0	0	0	0	0	0	0	0
0	0	0	0	0	0	0	0	0	0	0	1385	1385	1390	1390	1402	1402	1407	1419	1425	1425	1443	1443	1449	1449	1449	1455	1455	1455	1461	1467	1473	1473	1480	1486	1492	1492	1499	1506	1512	1512	1525	1525	1532	1532	1532	1532	1532	1539	1553	1553	1553	1539	1539	0	2194	2194	2194	2181	2181	2181	2181	2181	2181	2181	2194	2194	2237	2237	5535	5535	2208	2223	2208	2208	2208	2208	2208	2194	2194	2194	0	0	0	0	0	0	0	0	0	0	0	0	0	0	0	0	0	0	0	0	0	0	0	0	0	0	0	0	0	0	0	0	0	0	0	0	0	0	0	0	0	0	2237	2223	2237	2252	2266	2281	2266	2281	2266	2266	2266	2266	2266	2266	0	0	0	0	0	0	0	0	7608	7608	7779	7779	7779	7779	7959	7959	7959	7959	7959	7959	7959	7959	0	0	0	8550	8550	8550	8767	8550	8550	8550	8550	8550	8550	8550	8550	8550	8767	8767	8550	8550	8550	8550	8550	8550	8550	8550	8550	8550	8550	8550	8550	8550	8550	8550	8550	8550	8550	8767	8767	8550	8550	8550	8550	8550	8550	8550	8550	8550	8767	8550	8767	8550	8550	8550	8550	8550	8550	8550	8550	8550	8550	8550	8550	8550	8550	8550	8550	8550	8550	8767	8550	8550	8550	8343	8343	8550	8550	8343	8550	8550	8550	8550	8550	8550	8550	8550	8550	8550	8550	8550	8550	8550	8767	8767	8767	8767	8767	8767	8767	8767	8550	8767	8550	8767	8550	8550	8550	8550	8550	8550	8550	8550	8550	8550	8550	8767	8995	8995	8995	8995	8995	8767	8995	8995	8767	8767	8767	8767	8767	8767	8767	8767	8550	8550	8550	8550	8550	8550	8550	0	0	3510	3475	3475	3475	3475	3440	3440	3440	3440	3440	3440	3440	3406	3406	3440	3440	3440	3440	3440	3440	3440	3406	3406	3373	3373	3373	3373	3373	3373	3373	3406	3373	3406	3373	3373	3373	3373	3373	3373	3373	3341	3341	3341	3341	3341	3373	3373	3373	3373	3373	3373	3373	3341	3341	3341	3373	3406	3406	3440	3440	3440	3440	3440	3475	3440	3475	3440	3475	3440	3440	3440	3440	3440	3440	3440	3440	3440	3440	3475	8995	8767	8767	8767	8767	8767	8767	8767	8767	8767	8767	8995	8767	8767	8767	8767	8767	8767	8767	8767	8767	8767	8767	8767	8767	8767	8767	8767	8767	8767	8767	8767	8767	8767	8767	8767	8767	8767	8767	8767	8767	8767	8767	8767	8767	8767	8767	8767	8767	8767	8767	8767	8767	8767	8767	8550	8550	8550	8550	8550	8767	8550	8550	8550	8550	8550	8550	8550	8550	8550	8550	8550	8550	8550	8550	8550	8767	8550	8550	8767	8767	8550	8550	8767	8767	8767	8767	8767	8767	8767	8767	8767	8767	8767	8550	8550	8550	8550	8550	8550	8550	8550	8550	8550	8767	8550	8550	8550	8550	8550	8550	8550	8550	8550	8767	8550	8550	8550	8550	8550	8550	8550	8550	8550	8550	8550	8550	8550	8550	8550	8550	8343	8146	8146	8146	0	0	0	0	0	0	2967	2967	2942	2917	2893	2893	2893	2893	2893	2893	2845	2822	2822	2799	2799	2777	2754	2754	2733	2711	2690	2669	2669	2649	2649	2649	2629	2609	2589	2589	2589	2570	2570	2570	2570	2570	2570	2570	2570	2551	2570	2570	2570	2570	2570	2551	2532	2532	2496	2496	2478	2478	2460	2460	2460	2460	2460	2460	2460	2426	2443	2426	2426	2426	2426	0	0	0	1698	1698	1706	1706	1698	1698	1698	1698	1681	1673	1673	1673	1673	0	0	0	0	0	0	0	0	0	0	0	0	0	0	0	0	0	0	0	0	0	0	0	0	0	0	0	0	0	0	0	0	0	0	0	0	0	0	0
0	0	0	0	0	0	0	0	0	0	0	1385	1385	1385	1390	1390	1402	1402	1419	1431	1431	1443	1443	1443	1449	1449	1455	1455	1455	1461	1467	1473	1473	1480	1480	1486	1486	1492	1499	1512	1519	1519	1525	1532	1532	1532	1532	1532	1532	1539	1539	1539	1539	1539	0	0	0	0	2181	2181	2181	2181	2181	5282	5282	5282	5535	5535	5535	5535	5535	5535	5535	2208	2208	2208	2208	2208	0	0	0	0	0	0	0	0	0	0	0	0	0	0	0	0	0	0	0	0	0	0	0	0	0	0	0	0	0	0	0	0	0	0	0	0	0	0	0	0	0	0	0	0	0	0	0	0	0	2266	2297	2281	2281	2297	2297	2281	2281	2281	2266	0	0	0	0	0	0	0	0	0	0	0	0	0	0	7959	7959	7959	7959	7959	7959	7959	0	0	0	0	8550	8767	8767	8767	8767	8767	8550	8550	8550	8550	8550	8550	8550	8550	8550	8550	8550	8550	8550	8550	8550	8550	8550	8550	8550	8550	8550	8550	8550	8550	8550	8550	8550	8767	8767	8767	8550	8550	8550	8767	8550	8550	8550	8550	8550	8550	8550	8767	8550	8550	8550	8550	8550	8550	8550	8550	8550	8550	8550	8550	8550	8550	8550	8550	8550	8550	8550	8550	8550	8550	8343	8550	8550	8550	8550	8550	8550	8550	8550	8550	8550	8550	8550	8550	8550	8550	8550	8767	8550	8767	8767	8767	8767	8767	8767	8767	8767	8767	8767	8550	8550	8550	8550	8550	8550	8550	8550	8550	8550	8550	8550	8550	8995	8995	8995	8995	8995	8995	8767	8995	8995	8767	8767	8550	8550	8767	8550	8767	8550	8550	8550	8550	8550	8550	8550	8550	0	0	3510	3475	3440	3475	3475	3440	3440	3440	3440	3440	3440	3440	3440	3406	3440	3440	3440	3440	3440	3406	3406	3406	3373	3373	3373	3406	3406	3373	3373	3406	3406	3373	3406	3373	3373	3373	3373	3341	3341	3341	3341	3373	3341	3341	3341	3373	3406	3373	3373	3373	3373	3373	3341	3341	3341	3373	3373	3406	3406	3440	3440	3440	3440	3475	3440	3440	3440	3440	3440	3440	3440	3440	3440	3440	3440	3440	3440	3440	3440	8995	8995	8767	8767	8767	8767	8767	8767	8767	8767	8767	8767	8995	8995	8995	8995	8995	8767	8995	8767	8767	8767	8767	8767	8767	8550	8550	8995	8995	8767	8767	8767	8767	8767	8767	8767	8767	8767	8550	8550	8550	8550	8550	8550	8550	8767	8550	8550	8767	8767	8767	8767	8767	8767	8767	8550	8550	8550	8550	8550	8550	8550	8550	8550	8550	8550	8550	8550	8343	8550	8550	8550	8550	8550	8767	8767	8767	8550	8550	8550	8550	8550	8550	8767	8550	8767	8767	8767	8767	8767	8767	8767	8767	8767	8767	8550	5364	5364	8550	8550	8550	8550	8550	8550	8767	8550	8550	8550	8550	8550	8550	8550	8550	8550	8767	8767	8767	8767	8550	8550	8550	8550	8550	8550	8550	8550	8550	8550	8550	8550	8550	8550	8343	8343	8146	0	0	0	0	0	0	2967	2942	2942	2942	2917	2917	2893	2893	2893	2845	2845	2822	2822	2822	2799	2777	2754	2754	2733	2711	2690	2669	2669	2649	2649	2649	2629	2609	2589	2589	2589	2570	2570	2570	2570	2570	2570	2551	2570	2570	2570	2570	2570	2570	2551	2551	2532	2532	2496	2496	2478	2478	2460	2460	2460	2460	2460	2426	2460	2426	2426	2426	2426	2426	2426	0	0	1706	1698	1698	1706	1706	1698	1698	1698	1698	1690	1681	1681	1681	1681	0	0	0	0	0	0	0	0	0	0	0	0	0	0	0	0	0	0	0	0	0	0	0	0	0	0	0	0	0	0	0	0	0	0	0	0	0	0	0
0	0	0	0	0	0	0	0	0	0	0	1385	1385	1385	1390	1396	1402	1413	1413	1425	1431	1443	1443	1443	1443	1449	1449	1455	1455	1461	1467	1473	1473	1480	1486	1492	1492	1492	1492	1506	1512	1519	1525	1532	1532	1532	1532	1532	1532	1532	1539	1539	1539	0	0	0	0	0	0	5535	5535	5535	0	5282	5282	5282	5535	5535	5535	5535	5535	5535	5535	5535	5535	2208	2208	2208	0	0	0	0	0	0	0	0	0	0	0	0	0	0	0	0	0	0	0	0	0	0	0	0	0	0	0	0	0	0	0	0	0	0	0	0	0	0	0	0	0	0	0	0	0	0	0	0	0	0	2297	2281	2281	2297	2297	2281	2281	2281	0	0	0	0	0	0	0	0	0	0	0	0	0	0	0	0	0	0	0	7959	7959	0	0	0	0	0	0	8767	8767	8767	8767	8767	8550	8550	8550	8550	8550	8550	8550	8550	8550	8550	8550	8550	8550	8550	8550	8550	8550	8550	8550	8550	8550	8550	8550	8550	8550	8550	8550	8767	8550	8550	8550	8550	8550	8767	8550	8550	8550	8550	8550	8550	8550	8767	8550	8550	8550	8550	8550	8550	8550	8550	8550	8550	8550	8550	8550	8343	8550	8550	8550	8550	8550	8550	8550	8550	8343	8550	8550	8550	8550	8550	8550	8550	8550	8550	8550	8550	8550	8550	8550	8550	8550	8550	8550	8767	8767	8767	8767	8767	8767	8995	8767	8767	8767	8767	8767	8767	8550	8550	8550	8550	8550	8550	8550	8550	8550	8550	8995	8995	8995	8995	8767	8767	8767	8767	8995	8767	8767	8550	8767	8767	8767	8767	8550	8550	8550	8550	8550	8550	8550	8550	0	0	3510	3475	3440	3440	3475	3475	3475	3440	3475	3440	3440	3440	3440	3440	3440	3440	3440	3440	3440	3406	3406	3406	3373	3373	3373	3406	3406	3406	3406	3406	3406	3406	3406	3373	3373	3373	3373	3373	3373	3341	3373	3341	3341	3341	3341	3341	3373	3373	3341	3373	3341	3341	3341	3341	3341	3373	3406	3373	3406	3440	3440	3440	3440	3440	3440	3475	3440	3475	3440	3440	3440	3440	3440	3440	3440	3440	3440	3440	3440	0	8995	8767	8767	8767	8767	5125	5125	5125	5125	5125	8995	8995	8995	9235	8995	8995	8995	8767	8767	8767	8767	8767	8767	8767	8767	8550	8550	8550	8550	8767	8767	8767	8767	8767	8767	8550	8550	8550	8550	8550	8550	8550	8550	8767	8550	8767	8767	8995	8995	8995	8767	8767	8767	8767	8767	8550	8550	8767	8550	8767	8767	8550	8550	8550	8550	8550	8550	8343	8550	8550	8767	8767	8767	8767	8767	8767	8550	8550	8550	8550	8550	8767	8767	8767	8767	8550	8767	8767	8550	8550	8550	8550	5125	5125	5125	5282	5282	5282	5282	8550	8550	8550	8550	8550	8550	8550	8550	8550	8550	8550	8550	8550	8550	8550	8767	8550	8550	8550	8550	8550	8550	8550	8550	8550	8550	8550	8550	8550	8550	8550	8550	8343	8343	8343	0	0	0	0	0	2967	2967	2967	2967	2967	2917	2917	2893	2893	2869	2845	2822	2822	2822	2799	2799	2754	2754	2754	2733	2711	2690	2669	2649	2649	2649	2649	2629	2629	2589	2589	2589	2589	2589	2570	2570	2570	2570	2570	2570	2570	2570	2570	2570	2570	2551	2551	2532	2496	2478	2478	2478	2460	2460	2460	2460	2478	2460	2426	2460	2426	2426	2409	2392	2409	2409	0	0	1706	1698	1698	1706	1706	1706	1698	1698	1698	1690	1690	1681	1690	1690	0	0	0	0	0	0	0	0	0	0	0	0	0	0	0	0	0	0	0	0	0	0	0	0	0	0	0	0	0	0	0	0	0	0	0	0	0	0	0
0	0	0	0	0	0	0	0	0	0	0	1385	1385	1385	1390	1396	1402	1402	1413	1425	1425	1425	1437	1437	1437	1449	1449	1455	1455	1461	1467	1473	1480	1486	1492	1492	1492	1492	1492	1512	1519	1525	1525	1532	1532	1532	1532	1532	1532	1532	1532	1532	1539	0	0	0	0	0	5364	5535	5535	5448	5282	5282	5282	5282	5448	5448	5535	5535	5626	5535	5535	5535	5535	0	0	0	0	0	0	0	0	0	0	0	0	0	0	5915	5815	5815	0	0	0	0	0	0	0	0	0	0	0	0	0	0	0	0	0	0	0	0	0	0	0	0	0	0	0	0	0	0	0	0	0	0	0	0	0	0	0	0	0	0	0	0	0	0	0	0	0	0	0	0	0	0	0	0	0	0	0	0	0	0	0	0	0	0	0	0	0	0	0	0	8995	8767	8995	8995	8767	8550	8550	8550	8550	8550	8550	8550	8550	8550	8550	8550	8550	8550	8550	8550	8550	8550	8550	8550	8343	8343	8343	8343	8550	8550	8550	8550	8550	8550	8550	8550	8550	8550	8550	8550	8550	8550	8550	8550	8550	8550	8550	8550	8550	8550	8550	8550	8550	8550	8550	8550	8550	8343	8343	8343	8343	8550	8550	8550	8550	8550	8550	8550	8343	8550	8550	8550	8550	8550	8550	8550	8550	8550	8550	8550	8550	8550	8550	8550	8550	8550	8550	8767	8767	8767	8767	8767	8995	8995	8995	8767	8767	8767	8767	8767	8767	8550	8767	8550	8550	8550	8550	8550	8550	8995	8767	8767	8995	8995	8995	8767	8767	8995	8767	8767	8767	8550	8767	8767	8767	8767	8767	8550	8550	8550	8550	8550	8343	8343	0	0	3440	3440	3475	3475	3475	3475	3475	3440	3475	3475	3440	3440	3440	3440	3440	3440	3440	3440	3440	3406	3406	3406	3373	3373	3373	3406	3373	3373	3373	3406	3406	3406	3406	3373	3373	3406	3373	3373	3373	3373	3373	3373	3341	3341	3341	3341	3373	3373	3373	3373	3373	3373	3373	3373	3341	3373	3406	3406	3406	3440	3440	3440	3440	3475	3440	3475	3440	3475	3440	3440	3440	3440	3440	3440	3440	3440	3440	3440	3440	5364	5364	8995	8767	5125	5125	5125	5125	5125	5125	5125	5125	9489	9489	9489	9235	9235	5364	5282	5282	5282	5282	5282	8767	8767	8767	8550	8550	8767	8550	8550	8767	8767	8767	8767	8550	8550	8550	8550	8550	8550	8550	8550	8343	8550	5364	5364	9235	9235	9235	8995	8767	8767	8767	8767	8767	8550	8550	8767	8767	8767	5282	5282	5282	8550	5202	5202	5202	5125	5125	5125	5125	5202	5282	5125	5125	5125	8767	8767	8767	5125	5125	5125	5125	5125	5125	8767	8550	8550	8550	8550	8550	5125	5202	5202	5202	5282	5282	5202	5202	8550	8767	8550	8767	8767	8550	8550	8550	8767	8767	8767	8767	8550	8550	8767	8767	8550	8550	8550	8550	8550	8550	8550	8550	8550	8550	8550	8550	8550	8550	8550	8550	8550	8550	8550	8550	0	0	0	0	2967	2967	2967	2942	2942	2917	2893	2893	2869	2845	2845	2822	2822	2799	2799	2799	2754	2754	2754	2733	2711	2690	2669	2649	2649	2649	2649	2649	2629	2589	2589	2589	2589	2589	2570	2570	2570	2570	2570	2570	2570	2570	2570	2570	2570	2551	2532	2496	2496	2478	2478	2478	2460	2460	2460	2460	2460	2460	2460	2460	2426	2409	2409	2392	2376	2376	0	0	1706	1698	1698	1698	1706	1698	1698	1698	1698	1698	1698	1690	1690	1690	0	0	0	0	0	0	0	0	0	0	0	0	0	0	0	0	0	0	0	0	0	0	0	0	0	0	0	0	0	0	0	0	0	0	0	0	0	0	0
0	0	0	0	0	0	0	0	0	0	0	1385	1385	1385	1390	1396	1402	1407	1419	1425	1425	1431	1431	1437	1437	1449	1449	1455	1461	1461	1467	1473	1480	1486	1492	1492	1499	1499	1499	1512	1519	1525	1525	1532	1539	1532	1532	1532	1532	1532	1532	1532	0	0	0	0	0	0	5282	5282	5282	5364	5364	5364	5282	5364	5364	5448	5535	5535	5535	5535	5535	5535	5535	5626	5626	0	0	0	0	0	0	0	0	0	6018	5915	5915	5915	5915	5915	5915	5915	0	0	0	0	0	0	0	0	0	0	0	0	0	0	0	0	0	0	0	0	0	0	0	0	0	0	0	0	0	0	0	0	0	0	0	0	0	0	0	0	0	0	0	0	0	0	0	0	0	0	0	0	0	0	0	0	0	0	0	0	0	0	0	0	0	0	0	0	0	0	8995	8767	8767	8767	8767	8550	8550	8550	8550	8550	8550	8550	8550	8550	8550	8550	8550	8550	8550	8550	8550	8550	8550	8550	8343	8550	8343	8550	8550	8550	8550	8550	8550	8550	8550	8550	8550	8550	8550	8550	8550	8550	8550	8550	8550	8550	8550	8550	8550	8550	8550	8550	8550	8550	8550	8550	8343	8343	8343	8343	8343	8343	8550	8550	8550	8550	8550	8550	8550	8550	8550	8550	8550	8550	8550	8550	8550	8550	8550	8550	8550	8550	8550	8550	8550	8550	8550	8550	8767	8995	8767	8767	8995	8995	8995	8767	8767	8767	8767	8767	8767	8550	8550	8550	8550	8550	8550	8550	8550	8550	8767	8995	8995	8995	8995	8767	8767	8767	8767	8767	8767	8550	8767	8767	8767	8767	8767	8767	8550	8550	8550	8550	8550	8343	0	3475	3510	3440	3440	3475	3475	3475	3475	3475	3475	3440	3440	3440	3440	3440	3440	3440	3440	3406	3406	3406	3406	3406	3406	3373	3373	3373	3373	3373	3373	3406	3406	3406	3406	3406	3406	3406	3406	3373	3373	3373	3373	3341	3341	3341	3341	3341	3373	3373	3373	3373	3373	3373	3373	3373	3341	3373	3406	3406	3406	3406	3440	3440	3440	3440	3440	3440	3440	3440	3440	3440	3440	3440	3440	3440	3440	3440	3440	3440	5448	5364	5282	5282	5202	5202	5125	5125	5125	5125	5125	5202	5364	5364	5282	5282	9235	5364	5364	5282	5282	5282	5282	5364	5364	5364	5364	5364	8550	8767	8550	8550	5125	5125	5282	5282	5282	5282	5282	5282	5282	8550	8343	8343	5282	5282	5282	5364	5282	5282	5202	5125	5125	5050	5050	5050	5050	5050	5125	5125	5202	5202	5202	5202	5202	5202	5125	5125	5202	5125	5125	5125	5125	5125	5125	5125	5125	5125	5125	5125	5125	5125	5125	5125	5202	5125	5125	5125	8767	8550	8550	5125	5125	5125	5202	5202	5202	5282	5282	5202	5202	8550	8767	8550	8767	8767	8550	8550	8550	8550	8767	8767	8767	8550	8550	8767	8767	8767	8550	8550	8550	8550	8550	8550	8550	8550	8550	8550	8550	8550	8550	8550	8550	8550	8550	8550	8550	0	0	0	0	0	0	2967	2942	2942	2893	2893	2869	2869	2845	2822	2822	2822	2799	2799	2799	2754	2754	2754	2711	2711	2669	2669	2649	2649	2649	2649	2649	2629	2589	2589	2589	2570	2570	2589	2589	2570	2570	2570	2570	2570	2570	2570	2570	2551	2532	2496	2496	2478	2478	2460	2460	2460	2443	2460	2460	2460	2460	2426	2443	2409	2409	2409	2392	2376	2376	1706	1706	1706	1698	1690	1690	1698	1698	1698	1698	1698	1698	1698	1690	1690	1690	0	0	0	0	0	0	0	0	0	0	0	0	0	0	0	0	0	0	0	0	0	0	0	0	0	0	0	0	0	0	0	0	0	0	0	0	0	0	0
0	0	0	0	0	0	0	0	0	0	0	1385	1385	1385	1390	1396	1402	1407	1419	1425	1425	1431	1431	1437	1437	1443	1455	1461	1467	1467	1467	1473	1480	1480	1486	1492	1499	1499	1499	1512	1525	1525	1525	1532	1532	1532	1532	1532	1532	1532	1532	1532	0	0	0	0	0	5364	5282	5282	5282	5364	5364	5364	5282	5364	5364	5448	5448	5448	5535	5535	5535	5535	5535	5535	5626	5626	0	0	0	0	0	0	0	5915	5915	5815	5815	5815	5815	5915	5915	5915	0	0	0	0	0	0	0	0	0	0	0	0	0	0	0	0	0	0	0	0	0	0	0	0	0	0	0	0	0	0	0	0	0	0	0	0	0	0	0	0	0	0	0	0	0	0	0	0	0	0	0	0	0	0	0	0	0	0	0	0	0	0	0	0	0	0	0	0	0	0	8767	8767	8767	8767	8767	8767	8550	8550	8550	8550	8550	8550	8550	8550	8550	8550	8550	8550	8550	8767	8550	8550	8550	8550	8550	8550	8343	8550	8550	8550	8550	8767	8550	8550	8550	8550	8550	8550	8550	8550	8550	8550	8550	8550	8550	8550	8550	8550	8550	8550	8550	8550	8550	8550	8550	8550	8550	8343	8343	8343	8343	8343	8343	8343	8550	8550	8550	8550	8550	8550	8550	8550	8550	8550	8550	8550	8550	8550	8550	8550	8550	8550	8550	8767	8767	8550	8550	8550	8767	8767	8767	8767	8767	8995	8767	8767	8767	8767	8767	8767	8767	8767	8550	8550	8550	8550	8550	8550	8550	8550	8767	8767	8767	8995	8767	8767	8767	8767	8550	8550	8767	8550	8767	8767	8995	8995	8767	8767	8767	8550	8550	8550	8550	0	0	3475	3475	3440	3440	3475	3475	3475	3440	3475	3475	3440	3440	3440	3440	3406	3440	3440	3440	3406	3406	3406	3406	3406	3406	3373	3373	3373	3341	3373	3373	3341	3406	3406	3406	3406	3373	3373	3406	3373	3373	3373	3373	3341	3341	3341	3341	3341	3341	3341	3373	3373	3373	3373	3373	3373	3373	3373	3406	3406	3406	3440	3440	3440	3440	3440	3440	3440	3440	3440	3440	3440	3440	3440	3440	3440	3440	3440	3440	3440	3440	5364	5282	5202	5202	5202	5125	5125	5202	5202	5202	5202	5282	5364	5364	5282	5364	5364	5364	5282	5282	5282	5282	5364	5282	5364	5364	5364	5282	5202	5202	5202	5202	5202	5202	5282	5282	5282	5202	5202	5202	5202	5202	5202	5202	5282	5282	5282	5282	5202	5202	5202	5125	5125	5050	5125	5050	5125	5125	5125	5125	5125	5125	5125	5125	5202	5125	5125	5125	5125	5125	5125	5125	5125	5125	5202	5125	5125	5125	5125	5125	5125	5125	5125	5202	5125	5125	5125	5125	5125	5125	5125	5125	5125	5202	5125	5125	5202	5202	5125	5125	8550	8550	8550	8550	8550	8767	8550	8550	8767	8767	8767	8767	8550	8550	8767	8767	8767	8767	8767	8767	8550	8550	8550	8550	8550	8550	8550	8550	8550	8550	8550	8550	8550	8550	8550	8550	0	0	0	0	0	0	2942	2942	2917	2893	2893	2893	2869	2869	2845	2822	2822	2799	2799	2777	2733	2733	2733	2711	2711	2669	2669	2669	2649	2649	2649	2649	2629	2589	2589	2589	2570	2589	2570	2570	2570	2570	2570	2570	2570	2551	2551	2551	2532	2514	2496	2478	2478	2460	2460	2460	2443	2443	2460	2460	2460	2443	2409	2409	2392	2392	2392	2376	2359	1706	1698	1706	1698	1698	1690	1690	1698	1698	1698	1698	1698	1706	1698	1698	1698	1698	0	0	0	0	0	0	0	0	0	0	0	0	0	0	0	0	0	0	0	0	0	0	0	0	0	0	0	0	0	0	0	0	0	0	0	0	0	0	0
0	0	0	0	0	0	0	0	0	0	0	1385	1385	1385	1396	1402	1402	1407	1413	1419	1425	1425	1431	1437	1437	1443	1455	1461	1461	1467	1467	1473	1480	1480	1486	1492	1492	1499	1499	1512	1512	1525	1532	1539	1539	1539	1532	1532	1532	1532	1532	1532	0	0	0	0	0	5364	5282	5282	5282	5282	5282	5282	5282	5364	5364	5364	5448	5448	5535	5448	5535	5535	5535	5535	5535	5535	5535	0	0	0	0	0	0	5915	5915	5815	5815	5815	5815	5915	5915	5915	0	0	0	0	0	0	0	0	0	0	0	0	0	0	0	0	0	0	0	0	0	0	0	0	0	0	0	0	0	0	0	0	0	0	0	0	0	0	0	0	0	0	0	0	0	0	0	0	0	0	5282	5282	0	0	0	0	0	0	0	0	0	0	0	0	0	0	0	0	0	0	8767	8767	8767	8767	8767	8550	8550	8550	8550	8550	8550	8550	8550	8550	8550	8550	8550	8550	8550	8550	8550	8550	8550	8550	8550	8550	8550	8550	8550	8550	8550	8767	8550	8550	8550	8550	8550	8550	8550	8550	8550	8550	8550	8550	8550	8550	8550	8550	8550	8550	8550	8550	8550	8550	8550	8550	8550	8343	8343	8343	8343	8343	8343	8343	8343	8343	8550	8550	8550	8550	8550	8550	8767	8767	8550	8550	8550	8550	8550	8550	8550	8550	8550	8767	8767	8550	8550	8550	8767	8767	8767	8767	8767	8767	8767	8767	8767	8550	8550	8550	8767	8767	8767	8550	8550	8550	8550	8550	8550	8550	8767	8767	8767	8995	8767	8767	8767	8767	8550	8767	8767	8767	8767	8995	8995	8995	8995	8767	8767	8767	8550	8550	8550	0	0	3475	3475	3440	3440	3440	3440	3440	3440	3475	3475	3440	3440	3440	3440	3406	3406	3406	3406	3406	3406	3406	3406	3406	3406	3373	3373	3373	3406	3373	3373	3373	3406	3406	3406	3406	3373	3373	3373	3373	3373	3373	3373	3341	3341	3341	3341	3341	3341	3341	3341	3373	3373	3373	3373	3373	3373	3373	3406	3406	3406	3440	3440	3440	3440	3440	3440	3440	3440	3440	3440	3440	3440	3406	3406	3406	3406	3440	3440	3440	5202	5202	5202	5202	5202	5125	5125	5125	5202	5202	5202	5202	5282	5282	5282	5282	5282	5282	5282	5125	5125	5202	5282	5282	5282	5282	5282	5364	5282	5202	5282	5202	5202	5202	5202	5282	5202	5202	5202	5202	5202	5202	5202	5202	5202	5282	5282	5282	5282	5125	5125	5202	5125	5125	5125	5125	5125	5125	5125	5125	5125	5125	5125	5125	5125	5125	5125	5125	5125	5125	5125	5125	5125	5202	5202	5202	5125	5125	5125	5125	5125	5125	5125	5125	5125	5125	5125	5125	5125	5125	5125	5125	5125	5125	5125	5125	5125	5125	5125	5125	5125	8767	8767	8550	8767	8550	8550	8550	8550	8767	8767	8767	8767	8767	8767	8767	8767	8767	8767	8550	8550	8550	8767	8767	8767	8550	8550	8550	8767	8767	8767	8550	8767	8767	8550	8550	8550	0	0	0	0	0	0	2942	2942	2917	2893	2893	2893	2869	2845	2822	2822	2822	2799	2799	2777	2733	2733	2733	2711	2690	2669	2669	2669	2649	2669	2649	2649	2629	2589	2589	2589	2570	2570	2570	2570	2570	2570	2570	2570	2570	2551	2551	2532	2514	2496	2478	2478	2478	2460	2443	2443	2426	2426	2426	2426	2443	2443	2392	2426	2376	2392	2376	2376	2359	1698	1698	1706	1698	1698	1698	1690	1698	1698	1698	1690	1698	1706	1698	1698	1698	1698	0	0	0	0	0	0	0	0	0	0	0	0	0	0	0	0	0	0	0	0	0	0	0	0	0	0	0	0	0	0	0	0	0	0	0	0	0	0	0
0	0	0	0	0	0	0	0	0	0	0	1385	1385	1390	1402	1402	1402	1407	1413	1419	1419	1425	1431	1431	1437	1443	1449	1461	1461	1467	1467	1473	1473	1480	1486	1492	1492	1499	1499	1512	1525	1525	1532	1532	1539	1539	1539	1532	1532	1539	1539	1532	0	0	0	0	5448	5364	5364	5282	5282	5282	5282	5282	5282	5282	5364	5364	5364	5364	5448	5448	5448	5535	5535	5535	5535	5535	5535	0	0	0	0	0	0	5815	5815	5815	5719	5719	5626	5815	5815	0	0	0	0	0	0	0	0	0	0	0	0	0	0	0	0	0	0	0	0	0	0	0	0	0	0	0	0	0	0	0	0	0	0	0	0	0	0	0	0	0	0	0	0	0	0	0	0	0	0	5364	5364	5364	5364	0	0	0	0	0	0	0	0	0	0	0	0	0	0	8343	8550	8550	8767	8767	8767	8767	8767	8767	8550	8550	8550	8550	8550	8550	8550	8550	8550	8550	8550	8550	8550	8550	8550	8550	8550	8550	8550	8550	8343	8343	8550	8550	8550	8550	8550	8767	8767	8550	8550	8550	8550	8550	8550	8550	8550	8550	8550	8550	8550	8550	8550	8550	8550	8550	8550	8550	8550	8550	8550	8343	8343	8343	8343	8343	8343	8343	8550	8550	8550	8550	8550	8550	8550	8767	8767	8767	8767	8550	8550	8550	8550	8550	8550	8550	8550	8767	8767	8767	8550	8767	8767	8767	8767	8767	8767	8767	8767	8550	8550	8550	8550	8550	8767	8767	8767	8767	8550	8767	8550	8767	8767	8767	8767	8767	8767	8767	8767	8767	8767	8550	8550	8767	8767	8767	8767	8995	8995	8995	8995	8995	8767	8767	8550	8550	8550	0	0	3440	3440	3440	3440	3440	3440	3440	3440	3475	3475	3475	3440	3440	3440	3406	3440	3440	3406	3406	3406	3406	3406	3406	3406	3373	3373	3373	3373	3373	3373	3373	3373	3406	3406	3406	3373	3373	3373	3373	3373	3341	3341	3341	3341	3341	3341	3341	3341	3341	3341	3373	3373	3373	3373	3406	3406	3406	3406	3406	3406	3406	3406	3406	3406	3406	3440	3440	3440	3440	3440	3440	3440	3406	3406	3406	3406	3373	3373	3373	5125	5125	5125	5125	5125	5125	5125	5125	5125	5125	5202	5202	5202	5282	5282	5202	5202	5202	5202	5125	5202	5202	5202	5202	5202	5282	5282	5202	5202	5202	5282	5282	5282	5282	5282	5282	5202	5202	5202	5202	5125	5202	5202	5202	5202	5202	5202	5282	5202	5202	5125	5125	5125	5125	5125	5125	5125	5125	5125	5125	5125	5125	5125	5125	5125	5125	5125	5125	5125	5125	5125	5125	5125	5202	5202	5125	5125	5125	5125	5125	5125	5125	5125	5125	5125	5125	5125	5125	5125	5125	5125	5125	5125	5125	5125	5125	5125	5050	5125	5050	5050	8767	8767	8550	8767	8550	8550	8550	8550	8550	8767	8767	8767	8767	8767	8767	8767	8767	8767	8767	8767	8550	8767	8767	8767	8767	8767	8767	8767	8767	8767	8550	8767	8767	8767	8767	8550	0	0	0	0	0	0	0	0	2917	2893	2893	2893	2869	2845	2822	2822	2822	2799	2799	2777	2733	2733	2733	2711	2711	2690	2669	2669	2669	2669	2649	2629	2609	2589	2589	2589	2570	2570	2570	2570	2570	2570	2551	2551	2551	2551	2551	2532	2514	2496	2478	2478	2460	2443	2443	2426	2409	2409	2409	2376	2409	2359	2359	2343	2343	2359	2312	2297	2281	2281	2181	2181	1706	1698	1698	1690	1690	1690	1690	1690	1690	1698	1698	1706	1698	1698	0	0	0	0	0	0	0	0	0	0	0	0	0	0	0	0	0	0	0	0	0	0	0	0	0	0	0	0	0	0	0	0	0	0	0	0	0	0	0
0	0	0	0	0	0	0	0	0	0	0	1385	1390	1396	1402	1402	1407	1407	1413	1413	1419	1419	1425	1425	1437	1437	1449	1461	1467	1467	1473	1473	1480	1480	1486	1492	1499	1499	1506	1512	1525	1525	1532	1532	1539	1539	1539	1532	1532	1539	1539	0	0	0	0	0	5448	5448	5364	5282	5282	5364	5282	5282	5282	5282	5282	5282	5364	5364	5364	5448	5448	5535	5535	5535	5535	5535	5535	0	0	0	0	0	0	5815	5815	5719	5626	5626	5626	5626	5815	0	0	0	0	0	0	0	0	0	0	0	0	0	0	0	0	0	0	0	0	0	0	0	0	0	0	0	0	0	0	0	0	0	0	0	0	0	0	0	0	0	0	0	0	0	0	0	5364	5364	5364	5364	5364	5364	5364	5364	5282	5282	0	0	0	0	0	0	0	0	0	0	8343	8550	8550	8550	8767	8767	8767	8767	8767	8767	8550	8550	8550	8550	8550	8550	8550	8550	8550	8550	8550	8550	8550	8550	8550	8550	8550	8550	8550	8343	8343	8550	8550	8550	8550	8550	8550	8550	8767	8550	8550	8550	8550	8550	8550	8550	8550	8550	8550	8550	8550	8550	8550	8550	8550	8550	8550	8550	8550	8343	8343	8343	8343	8343	8343	8343	8343	8343	8550	8550	8550	8550	8550	8550	8550	8767	8550	8550	8550	8550	8550	8550	8550	8550	8550	8550	8550	8767	8767	8767	8767	8767	8767	8767	8767	8767	8550	8550	8550	8550	8550	8550	8550	8550	8767	8767	8767	8550	8550	8550	8550	8550	8550	8550	8550	8767	8767	8767	8767	8550	8550	8550	8550	8767	8767	8767	8995	8995	8995	8995	8995	8995	8767	8550	8550	8550	0	0	0	3475	3475	3440	3440	3440	3440	3440	3440	3440	3440	3440	3440	3440	3440	3406	3440	3440	3406	3406	3406	3406	3406	3406	3373	3373	3373	3373	3373	3373	3373	3373	3373	3373	3373	3373	3341	3341	3373	3341	3373	3373	3341	3341	3341	3341	3341	3341	3341	3341	3373	3373	3373	3373	3406	3406	3406	3373	3373	3406	3406	3406	3406	3406	3440	3440	3440	3440	3440	3440	3440	3440	3440	3440	3440	3406	3373	3373	3341	3341	5125	5125	5125	5125	5125	5125	5125	5125	5125	5125	5125	5125	5202	5202	5202	5202	5202	5202	5202	5125	5202	5202	5202	5202	5202	5282	5282	5202	5202	5202	5202	5282	5282	5282	5282	5282	5202	5202	5202	5202	5125	5202	5125	5202	5202	5202	5202	5282	5202	5202	5125	5125	5125	5125	5125	5125	5125	5125	5125	5125	5125	5125	5125	5125	5125	5125	5125	5125	5125	5125	5125	5125	5125	5125	5125	5125	5125	5125	5125	5125	5125	5125	5125	5125	5125	5125	5202	5125	5125	5125	5125	5125	5125	5125	5125	5125	5050	5050	4977	4838	4838	8767	8767	8550	8767	8550	8550	8550	8550	8550	8767	8767	8767	8550	8550	8550	8550	8550	8550	8550	8550	8550	8550	8550	8767	8767	8767	8767	8767	8767	8767	8550	8767	8767	8767	8767	0	0	0	0	0	0	0	0	0	2917	2893	2869	2869	2869	2845	2822	2822	2822	2822	2799	2799	2733	2733	2733	2711	2711	2690	2690	2669	2669	2669	2649	2629	2609	2589	2589	2589	2570	2570	2570	2570	2551	2551	2551	2551	2551	2532	2532	2514	2496	2478	2478	2460	2460	2443	2426	2426	2392	2376	2392	2359	2343	2343	2343	2312	2312	2297	2312	2281	2252	2208	2194	2181	2167	2153	2153	2140	2127	2114	2114	1690	1690	1698	1698	1698	1698	1698	0	0	0	0	0	0	0	0	0	0	0	0	0	0	0	0	0	0	0	0	0	0	0	0	0	0	0	0	0	0	0	0	0	0	0	0	0	0	0
0	0	0	0	0	0	0	0	0	0	0	1385	1390	1402	1402	1407	1407	1413	1413	1419	1419	1425	1425	1431	1437	1443	1443	1455	1467	1467	1467	1473	1480	1480	1480	1486	1492	1499	1506	1512	1525	1525	1532	1539	1539	1539	1539	1539	1532	1539	1539	1539	0	0	0	0	5448	5364	5364	5282	5282	5282	5282	5282	5282	5282	5282	5282	5282	5282	5282	5364	5364	5448	5448	5535	5535	5535	5535	5535	0	0	0	0	0	0	5719	5626	5626	5535	5535	5626	0	0	0	0	0	0	0	0	0	0	0	0	0	0	0	0	0	0	0	0	0	0	0	0	0	0	0	0	0	0	0	0	0	0	0	0	0	0	0	0	0	0	0	0	0	0	0	5282	5282	5364	5364	5364	5364	5364	5364	5364	5282	5202	5202	0	0	0	0	0	0	0	0	0	8343	8343	8550	8767	8767	8767	8767	8995	8767	8767	8767	8550	8550	8550	8550	8550	8550	8550	8550	8550	8550	8550	8550	8550	8550	8550	8550	8550	8550	8343	8343	8550	8550	8550	8550	8550	8550	8767	8767	8550	8767	8550	8550	8550	8550	8550	8550	8550	8550	8550	8550	8550	8550	8550	8550	8550	8550	8550	8550	8550	8550	8343	8343	8343	8343	8343	8550	8343	8550	8550	8550	8550	8550	8550	8550	8550	8550	8550	8550	8550	8550	8550	8550	8550	8550	8550	8550	8550	8767	8767	8767	8767	8767	8767	8767	8550	8550	8550	8550	8550	8550	8550	8550	8550	8767	8550	8767	8550	8550	8767	8550	8550	8550	8550	8550	8767	8767	8767	8550	8550	8550	8550	8550	8767	8995	8995	8995	8995	8995	8995	8995	8995	8767	8550	8767	8767	0	0	0	3475	3475	3440	3475	3440	3440	3440	3440	3440	3440	3440	3440	3440	3440	3440	3440	3440	3440	3406	3406	3406	3406	3406	3406	3406	3373	3373	3373	3373	3373	3373	3373	3406	3373	3373	3341	3341	3373	3373	3373	3373	3341	3341	3341	3341	3341	3341	3341	3341	3373	3373	3373	3373	3373	3373	3373	3373	3406	3406	3406	3406	3406	3406	3440	3440	3440	3440	3440	3440	3440	3440	3440	3406	3406	3406	3373	3341	3341	3341	5125	5125	5125	5125	5050	5050	5125	5125	5125	5125	5125	5125	5125	5202	5202	5202	5125	5202	5202	5125	5125	5125	5202	5202	5202	5202	5282	5202	5202	5282	5282	5282	5282	5282	5282	5282	5202	5282	5202	5202	5202	5202	5202	5202	5202	5202	5202	5282	5202	5202	5125	5125	5125	5125	5125	5125	5125	5125	5125	5125	5125	5125	5125	5125	5125	5125	5125	5125	5125	5125	5125	5125	5125	5125	5125	5125	5202	5202	5125	5125	5125	5125	5125	5125	5125	5125	5202	5202	5202	5202	5125	5125	5125	5125	5125	5125	5050	5050	4977	4838	4838	8767	8767	8550	8767	8550	8550	8550	8550	8550	8550	8550	8550	8550	8550	8550	8550	8550	8550	8550	8550	8550	8767	8767	8767	8767	8767	8767	8767	8767	8767	8767	8767	8767	8767	8767	0	0	0	0	0	0	0	0	0	2893	2893	2869	2869	2869	2845	2845	2822	2822	2822	2799	2799	2754	2754	2733	2733	2711	2690	2669	2669	2649	2649	2649	2629	2609	2589	2589	2589	2570	2570	2570	2551	2551	2551	2551	2551	2551	2532	2514	2496	2496	2478	2460	2460	2443	2426	2409	2409	2376	2359	2359	2359	2327	2312	2312	2297	2297	2281	2281	2237	2223	2208	2181	2181	2167	2167	2153	2140	2127	2114	2088	2088	1690	1698	1698	1698	1698	1698	0	0	0	0	0	0	0	0	0	0	0	0	0	0	0	0	0	0	0	0	0	0	0	0	0	0	0	0	0	0	0	0	0	0	0	0	0	0	0
0	0	0	0	0	0	0	0	0	0	0	1385	1385	1402	1407	1407	1413	1419	1419	1419	1419	1425	1431	1431	1437	1443	1449	1455	1461	1467	1467	1473	1480	1480	1480	1486	1486	1492	1506	1512	1525	1525	1532	1532	1539	1539	1539	1539	1539	1546	1546	1546	0	0	0	0	0	5282	5282	5202	5282	5282	5282	5282	5282	5282	5282	5282	5282	5282	5282	5364	5364	5448	5448	5448	5535	5535	5535	5535	0	0	0	0	0	0	5535	5448	5448	5448	5448	0	0	0	0	0	0	0	0	0	0	5282	5282	5282	5282	5282	0	0	0	0	0	0	0	0	0	0	0	0	0	0	0	0	0	0	0	0	0	0	0	0	0	0	0	5202	5202	5282	5282	5282	5282	5282	5282	5282	5282	5364	5364	5282	5364	5282	5282	5202	5202	5202	0	0	0	0	0	0	0	0	8343	8550	8550	8550	8550	8550	8767	8550	8550	8767	8767	8767	8550	8767	8550	8550	8550	8550	8767	8767	8767	8767	8550	8767	8767	8550	8550	8550	8550	8550	8550	8550	8550	8550	8550	8550	8550	8550	8767	8550	8767	8550	8550	8550	8550	8550	8550	8550	8550	8550	8550	8550	8550	8550	8550	8550	8550	8550	8343	8343	8550	8343	8343	8343	8343	8343	8343	8343	8343	8550	8550	8550	8550	8550	8550	8550	8550	8550	8550	8550	8550	8550	8767	8550	8550	8550	8550	8767	8767	8767	8767	8767	8767	8767	8550	8550	8550	8550	8550	8550	8550	8550	8550	8550	8550	8550	8767	8550	8767	8767	8550	8550	8550	8550	8550	8767	8550	8767	8550	8550	8550	8550	8550	8767	8995	8995	9235	8995	8995	8995	8995	8995	8767	8550	8550	8550	8550	0	0	3510	3475	3475	3475	3440	3440	3440	3440	3440	3440	3440	3440	3440	3406	3406	3440	3440	3406	3406	3406	3406	3406	3373	3373	3406	3406	3406	3406	3406	3373	3373	3373	3406	3373	3341	3341	3341	3341	3341	3341	3341	3341	3341	3341	3341	3341	3341	3341	3341	3341	3341	3373	3373	3373	3373	3373	3373	3406	3373	3406	3406	3406	3406	3406	3406	3440	3440	3440	3440	3440	3440	3440	3406	3406	3406	3373	3341	3341	3341	5125	5050	5050	5050	5050	5050	5125	5125	5125	5050	5050	5050	5125	5125	5125	5125	5202	5125	5202	5125	5202	5202	5202	5202	5202	5282	5282	5202	5202	5202	5282	5282	5282	5282	5282	5282	5202	5202	5202	5202	5202	5202	5202	5202	5202	5202	5202	5202	5202	5202	5125	5125	5125	5125	5125	5125	5125	5050	5125	5125	5125	5125	5125	5125	5125	5125	5125	5125	5125	5125	5125	5125	5125	5125	5125	5125	5125	5125	5125	5125	5125	5125	5125	5125	5202	5125	5202	5202	5202	5202	5202	5202	5125	5202	5125	5125	5050	5050	4977	4977	8995	8767	8767	8767	8767	8767	8550	8550	8550	8550	8550	8550	8767	8550	8550	8550	8550	8550	8550	8550	8550	8550	8767	8767	8550	8767	8767	8767	8767	8767	8550	8550	8550	8767	8550	8550	0	0	0	0	0	0	0	0	2917	2917	2893	2893	2869	2869	2845	2845	2822	2822	2822	2799	2799	2799	2754	2733	2733	2711	2711	2690	2690	2669	2669	2649	2629	2609	2589	2589	2589	2570	2570	2570	2570	2551	2551	2551	2551	2532	2532	2514	2496	2496	2478	2460	2460	2443	2426	2409	2392	2343	2343	2343	2327	2312	2312	2312	2297	2281	2266	2223	2237	2223	2194	2181	2181	2167	2167	2153	2140	2127	2114	2088	2088	1673	1673	1690	1698	1698	1698	1698	0	0	0	0	0	0	0	0	0	0	0	0	0	0	0	0	0	0	0	0	0	0	0	0	0	0	0	0	0	0	0	0	0	0	0	0	0	0
0	0	0	0	0	0	0	0	0	0	0	1385	1390	1402	1407	1407	1407	1413	1419	1413	1419	1425	1431	1431	1437	1443	1449	1455	1461	1467	1467	1473	1473	1473	1480	1480	1486	1492	1506	1512	1525	1525	1532	1532	1539	1539	1539	1539	1532	1546	1546	1546	0	0	0	0	0	5282	5282	5202	5282	5282	5282	5282	5282	5282	5282	5282	5282	5282	5282	5282	5364	5364	5364	5448	5448	5448	0	0	0	0	0	0	0	0	5364	5364	5364	5282	5202	5202	0	0	0	0	0	0	0	0	0	5282	5282	5282	5282	5282	5282	0	0	0	0	0	0	0	0	0	0	0	0	0	0	0	0	0	0	0	0	0	0	0	0	5282	5282	5282	5282	5282	5282	5282	5282	5282	5282	5364	5364	5364	5364	5282	5364	5282	5282	5202	5202	5202	5282	5282	0	0	0	0	0	0	8343	8343	8343	8550	8550	8550	8550	8343	8550	8550	8767	8767	8550	8767	8767	8767	8550	8767	8767	8767	8550	8767	8550	8767	8550	8550	8550	8550	8550	8550	8550	8550	8550	8550	8550	8550	8550	8550	8550	8550	8550	8550	8550	8550	8550	8550	8550	8550	8550	8550	8550	8550	8550	8550	8550	8550	8343	8550	8343	8343	8343	8343	8343	8343	8343	8343	8343	8343	8343	8343	8550	8343	8343	8343	8343	8343	8550	8343	8550	8550	8550	8550	8550	8550	8550	8550	8767	8767	8767	8767	8767	8767	8767	8550	8550	8550	8550	8550	8550	8550	8550	8550	8550	8550	8550	8550	8767	8767	8767	8767	8767	8767	8550	8767	8550	8767	8550	8767	8550	8550	8550	8550	8550	8767	8767	8995	9235	8995	8995	8995	8995	8767	8550	8550	8343	8343	8343	0	0	3510	3475	3475	3475	3440	3440	3440	3440	3440	3440	3440	3440	3440	3440	3440	3440	3440	3406	3406	3406	3373	3406	3406	3406	3406	3373	3406	3406	3406	3373	3373	3373	3373	3373	3341	3341	3341	3341	3341	3373	3373	3373	3341	3341	3341	3341	3341	3341	3341	3373	3373	3373	3373	3373	3373	3373	3373	3406	3373	3406	3373	3373	3373	3406	3373	3406	3406	3406	3406	3406	3406	3406	3406	3406	3373	3373	3373	3341	3341	5050	5050	5050	5050	5050	5050	5125	5050	5050	5050	5050	5050	5125	5125	5125	5125	5125	5202	5202	5202	5202	5202	5202	5202	5202	5202	5202	5202	5202	5202	5202	5282	5282	5282	5282	5202	5202	5202	5202	5202	5202	5202	5202	5202	5202	5202	5282	5282	5202	5202	5125	5125	5125	5125	5125	5050	5050	5050	5050	5050	5050	5125	5125	5125	5125	5125	5125	5125	5125	5125	5125	5202	5202	5202	5125	5125	5125	5125	5125	5125	5125	5125	5125	5125	5125	5125	5125	5202	5202	5202	5202	5202	5125	5202	5125	5125	5050	5050	5050	5050	8767	8550	8550	8550	8550	8550	8550	8550	8550	8550	8550	8550	8550	8550	8550	8550	8550	8550	8550	8550	8343	8550	8767	8767	8550	8767	8767	8767	8767	8767	8550	8550	8550	8767	8550	8550	0	0	0	0	0	0	0	0	2917	2917	2917	2893	2893	2869	2845	2822	2822	2822	2822	2799	2799	2799	2754	2733	2733	2711	2711	2711	2690	2669	2669	2649	2629	2609	2589	2589	2570	2570	2570	2570	2551	2551	2551	2532	2532	2532	2532	2514	2496	2478	2460	2443	2443	2426	2409	2392	2359	2343	2343	2327	2312	2297	2297	2297	2281	2252	2252	2223	2208	2208	2194	2181	2181	2167	2167	2153	2140	2127	2114	2088	2088	1673	1673	1673	1698	1698	1698	1698	0	0	0	0	0	0	0	0	0	0	0	0	0	0	0	0	0	0	0	0	0	0	0	0	0	0	0	0	0	0	0	0	0	0	0	0	0	0
0	0	0	0	0	0	0	0	0	0	0	1385	1390	1402	1407	1402	1407	1407	1419	1413	1419	1419	1431	1431	1437	1443	1449	1449	1455	1461	1467	1473	1473	1473	1480	1480	1486	1492	1506	1512	1525	1525	1532	1532	1539	1539	1546	1539	1539	1546	1553	1581	1581	0	0	0	0	5282	5364	5282	5282	5282	5282	5364	5282	5282	5202	5202	5202	5202	5202	5282	5282	5364	5364	5364	5364	5364	0	0	0	0	0	0	0	5282	5364	5282	5282	5282	5202	5125	5125	0	0	0	0	0	0	0	5282	5282	5364	5282	5282	5282	5282	5282	5282	0	0	0	0	0	0	0	0	0	0	0	0	0	0	0	0	0	0	0	0	0	5282	5282	5282	5282	5282	5282	5282	5282	5282	5282	5282	5364	5364	5364	5364	5282	5282	5282	5282	5202	5202	5282	5282	5282	0	0	0	0	0	0	8343	8343	8343	8343	8343	8343	8343	8343	8550	8767	8767	8767	8767	8767	8767	8767	8550	8550	8767	8550	8550	8550	8550	8550	8550	8550	8550	8550	8550	8550	8550	8550	8550	8550	8550	8550	8550	8550	8550	8550	8550	8550	8550	8550	8550	8550	8550	8550	8550	8550	8550	8550	8550	8343	8550	8550	8343	8343	8343	8343	8343	8343	8343	8343	8343	8343	8343	8343	8343	8343	8550	8550	8550	8343	8343	8550	8550	8343	8343	8550	8550	8550	8550	8550	8767	8767	8767	8767	8767	8995	8995	8995	8767	8550	8550	8550	8550	8550	8343	8343	8550	8550	8550	8550	8550	8550	8767	8767	8767	8767	8767	8767	8767	8767	8550	8767	8767	8767	8550	8550	8550	8550	8767	8767	8767	8995	8995	8995	8995	8995	8767	8767	8550	8550	8343	8550	8550	8550	3546	3510	3475	3475	3440	3440	3440	3440	3440	3440	3440	3440	3440	3406	3406	3440	3440	3440	3406	3406	3406	3373	3373	3406	3373	3406	3406	3406	3406	3406	3406	3406	3406	3373	3373	3341	3341	3341	3341	3341	3373	3373	3341	3341	3341	3341	3373	3341	3341	3373	3373	3373	3373	3373	3373	3373	3373	3373	3406	3373	3373	3373	3373	3373	3373	3373	3406	3406	3406	3406	3440	3406	3406	3406	3406	3406	3373	3373	3373	3373	5050	5050	5050	5050	5050	5050	5050	5050	5050	5050	4977	4977	5050	5050	5050	5125	5202	5202	5202	5202	5202	5202	5202	5202	5202	5202	5202	5202	5202	5202	5202	5282	5282	5282	5282	5202	5202	5202	5202	5202	5202	5282	5282	5202	5202	5202	5202	5202	5125	5202	5202	5125	5125	5125	5125	5050	5050	5050	5050	5050	5050	5125	5125	5125	5125	5125	5125	5125	5125	5125	5125	5202	5202	5202	5125	5125	5125	5125	5125	5125	5125	5125	5125	5125	5125	5125	5125	5202	5202	5202	5202	5202	5202	5202	5125	5125	5125	5125	5050	5050	5050	8550	8550	8550	8550	8550	8550	8550	8550	8550	8550	8550	8550	8550	8550	8550	8550	8550	8550	8343	8343	8550	8550	8767	8550	8550	8767	8767	8550	8550	8550	8550	8550	0	0	0	0	0	0	0	0	0	0	0	2917	2917	2917	2893	2893	2869	2869	2845	2845	2822	2822	2799	2799	2777	2754	2733	2733	2711	2711	2711	2690	2669	2669	2649	2649	2629	2589	2589	2570	2570	2570	2570	2551	2551	2551	2551	2551	2532	2532	2514	2496	2478	2460	2443	2426	2409	2392	2376	2359	2343	2327	2312	2312	2297	2297	2297	2281	2237	2237	2208	2208	2208	2194	2181	2181	2167	2167	2153	2140	2127	2114	2088	2088	1673	1673	1673	1673	1698	1698	1698	0	0	0	0	0	0	0	0	0	0	0	0	0	0	0	0	0	0	0	0	0	0	0	0	0	0	0	0	0	0	0	0	0	0	0	0	0	0
