0	0	0	0	0	0	0	0	0	0	1560	1560	1560	1560	1553	1553	1560	1560	1560	1560	1567	1574	1567	1574	1574	1581	1603	1589	1589	1589	1750	1750	1759	1759	1768	1759	1768	1768	1759	1759	1750	1750	1750	1750	1750	1750	1750	1750	1750	1759	1768	1777	1777	1777	1786	1786	1786	1795	1804	1814	1824	1833	1843	1863	1863	1863	1904	1915	1936	1936	2570	2609	2589	2609	2609	2609	2609	2609	2609	2609	2629	2629	2609	2629	2629	2649	2629	2649	2649	2669	2649	2629	2629	2629	2649	2649	2629	2649	2629	2629	2629	2629	2629	2629	2629	2629	2649	2669	2649	2649	2649	2649	2649	2629	2629	2609	2609	2609	2609	2609	2629	2629	2649	2649	2649	2649	2649	2649	2669	2649	2629	2629	2649	2649	2649	2629	2649	2649	2649	2629	2629	2629	2609	2609	2629	2629	2629	2629	2649	2649	2649	2649	2649	2669	2669	2669	2669	2669	2669	0	3440	3475	3510	3510	3546	3475	3475	3583	3621	3621	3583	3583	3510	3583	3583	3546	3510	3510	3510	3510	3510	3546	3510	3510	3510	3510	3510	3510	3546	3546	3510	3510	3510	3546	3546	3546	3546	3546	3583	3583	3583	3621	3659	3738	3738	3779	3821	3821	3821	3779	3738	3779	3779	3821	3821	3821	3821	3821	3821	3821	3821	3779	3821	3821	3821	3821	3821	3821	3821	3821	3821	3821	3821	3821	3821	3821	3821	3821	3821	3821	3821	3821	3821	3779	3779	3779	3779	3779	3779	3779	3779	3779	3779	3779	3779	3779	3779	3779	3779	3821	3821	3821	3821	3821	3779	3779	3779	3779	3779	3821	3821	3821	3821	3821	3821	3821	3821	3779	3779	3821	3821	3779	3779	3779	3779	3779	3779	3779	3738	3738	3738	3738	3738	3738	3738	3738	3738	3738	3738	3738	3738	3698	3698	3698	3698	3129	3129	3129	3101	3101	3101	3101	3101	3129	3129	3129	3129	3101	3101	3101	3101	3101	3101	3101	3101	3101	3101	3101	3101	3101	3101	3779	3779	3779	3738	3738	3738	3738	3738	3738	3738	3738	3738	3738	3738	3738	3738	3738	3738	3738	3738	3738	3738	3738	3738	3738	3738	3738	3698	3698	3659	3698	3738	3738	3738	3738	3738	3738	3779	3779	3698	3738	3698	3738	3698	3738	3738	3738	3738	3738	3779	3779	3738	3738	3738	3698	3738	3698	3698	3738	3738	3738	3738	3738	3738	3698	3698	3698	3698	3698	3698	3698	3698	3698	3738	3698	3698	3698	3698	3659	3659	3698	3698	3698	3698	3659	3659	3659	3659	3659	3659	3659	3698	3698	3698	3698	3698	3698	3698	3698	3698	3698	3698	3698	3698	3698	3659	3698	3698	3659	3659	3659	3659	3698	3659	3659	3698	3698	3698	3659	3698	3659	3659	3659	3659	3659	3659	3659	3698	3698	3698	3698	3659	3659	3659	3659	3659	3659	3621	3659	3659	3659	3621	3659	3659	3659	3659	3698	3698	3698	3698	3698	3698	3698	3698	3738	3698	3698	3698	3698	3698	3698	3698	3698	3698	3698	3698	3698	3698	3659	3698	3659	3659	3659	3659	3659	3659	3621	3621	3659	3621	3621	0	0	0	0	0	0	0	0	0	0	0	0	0	0	0	0	0	0	0	0	0	0	0	0	0	0	0	0	0	0	0	0	0	0	0	0	0	0	0	0	0	0	0	0	0	0	0	0	0	0	0	0	0	0	0	0	0	0	0	0	0	0	0	0	0	0	0	0	0	0	0	0	0	0	0	0	0	0	0	0	0	0	0	0	0	0	0	0	0	0	0	0	0	0	0	0	0	0	0	0	0	0	0	0	0	0	0	0	0	0	0	0	0	0	0	0	0	0	0	0	0	0	0	0	0	0	0	0
0	0	0	0	0	0	0	0	0	0	1553	1560	1553	1553	1553	1546	1560	1560	1560	1560	1567	1574	1574	1574	1574	1596	1603	1581	1581	1581	1750	1750	1768	1759	1759	1759	1768	1768	1759	1759	1759	1759	1759	1750	1750	1750	1750	1750	1750	1759	1768	1777	1777	1777	1786	1786	1786	1795	1804	1804	1833	1833	1843	1843	1863	1873	1873	1873	1947	1947	1947	1947	2589	2609	2609	2629	2629	2629	2649	2649	2629	2629	2609	2629	2629	2649	2649	2669	2669	2669	2649	2649	2629	2629	2649	2649	2649	2649	2649	2629	2629	2629	2649	2629	2629	2649	2649	2669	2669	2649	2649	2669	2669	2649	2649	2629	2629	2629	2629	2629	2649	2649	2649	2649	2649	2669	2669	2649	2649	2649	2629	2629	2649	2649	2649	2629	2649	2649	2669	2629	2629	2629	2609	2609	2609	2609	2609	2629	2649	2649	2649	2649	2649	2669	2669	2669	2669	2690	2669	2669	3440	3546	3510	3583	3510	3510	3510	3659	3659	3659	3621	3621	3621	3621	3621	3583	3546	3546	3546	3546	3546	3546	3510	3510	3546	3546	3546	3583	3583	3621	3583	3621	3583	3621	3583	3546	3546	3546	3583	3583	3621	3621	3621	3698	3779	3738	3738	3779	3738	3738	3738	3779	3779	3821	3821	3821	3821	3821	3821	3821	3779	3779	3738	3821	3821	3821	3821	3821	3821	3821	3821	3821	3821	3821	3821	3821	3821	3821	3821	3821	3821	3821	3821	3779	3779	3779	3779	3779	3779	3779	3821	3779	3779	3779	3779	3779	3779	3779	3738	3738	3821	3821	3821	3821	3821	3821	3779	3779	3779	3779	3779	3779	3779	3821	3821	3821	3821	3821	3821	3821	3821	3779	3779	3779	3821	3779	3779	3779	3738	3738	3738	3738	3738	3738	3738	3738	3738	3738	3738	3738	3738	3698	3698	3698	3738	3129	3129	3129	3129	3101	3101	3129	3101	3129	3129	3129	3129	3129	3101	3101	3101	3101	3101	3101	3101	3101	3129	3129	3129	3129	3129	3779	3779	3738	3738	3738	3738	3738	3738	3738	3738	3738	3738	3738	3738	3738	3738	3738	3738	3738	3738	3738	3738	3738	3738	3738	3779	3738	3738	3698	3698	3698	3738	3738	3738	3738	3738	3738	3738	3779	3738	3738	3738	3738	3738	3738	3738	3738	3738	3738	3779	3779	3738	3738	3738	3738	3738	3698	3738	3738	3738	3738	3738	3738	3738	3698	3698	3698	3698	3698	3698	3698	3698	3698	3698	3698	3698	3698	3698	3659	3659	3659	3659	3659	3659	3659	3659	3659	3659	3659	3659	3659	3698	3698	3698	3698	3698	3698	3698	3698	3698	3698	3698	3698	3698	3698	3659	3659	3659	3659	3659	3659	3698	3659	3698	3659	3698	3698	3698	3659	3698	3659	3659	3659	3659	3659	3659	3659	3698	3698	3698	3698	3698	3659	3659	3659	3659	3621	3621	3621	3659	3659	3659	3659	3659	3659	3659	3698	3698	3698	3698	3698	3698	3698	3698	3698	3698	3698	3738	3738	3738	3738	3698	3698	3698	3698	3698	3659	3659	3659	3659	3659	3659	3659	3659	3659	3621	3583	3583	3659	3659	3659	0	0	0	0	0	0	0	0	0	0	0	0	0	0	0	0	0	0	0	0	0	0	0	0	0	0	0	0	0	0	0	0	0	0	0	0	0	0	0	0	0	0	0	0	0	0	0	0	0	0	0	0	0	0	0	0	0	0	0	0	0	0	0	0	0	0	0	0	0	0	0	0	0	0	0	0	0	0	0	0	0	0	0	0	0	0	0	0	0	0	0	0	0	0	0	0	0	0	0	0	0	0	0	0	0	0	0	0	0	0	0	0	0	0	0	0	0	0	0	0	0	0	0	0	0	0	0	0
0	0	0	0	0	0	0	0	0	0	1553	1560	1560	1560	1560	1553	1553	1560	1560	1560	1574	1574	1574	1574	1581	1589	1596	1581	1581	1581	1581	1777	1777	1777	1777	1768	1777	1777	1759	1759	1759	1759	1759	1750	1750	1750	1759	1759	1759	1759	1768	1768	1786	1786	1786	1786	1795	1795	1804	1824	1833	1843	1843	1853	1853	1863	1873	1894	1894	1936	1936	1936	0	2629	2629	2649	2649	2649	2649	2649	2649	2649	2629	2649	2649	2649	2669	2669	2669	2669	2649	2649	2629	2629	2649	2649	2649	2649	2649	2649	2629	2629	2649	2629	2629	2629	2649	2669	2669	2649	2649	2669	2669	2669	2649	2649	2629	2629	2629	2629	2649	2649	2649	2649	2669	2669	2669	2649	2649	2649	2629	2629	2649	2649	2649	2649	2649	2669	2649	2629	2629	2629	2629	2629	2609	2609	2629	2629	2649	2649	2649	2649	2649	2649	2669	2649	2669	2669	2669	2669	0	3621	3621	3621	3621	3621	3659	3659	3659	3659	3659	3621	3621	3621	3621	3621	3583	3546	3546	3546	3546	3546	3546	3546	3546	3546	3546	3583	3583	3583	3583	3621	3621	3621	3583	3583	3583	3583	3621	3621	3621	3621	3659	3698	3779	3738	3738	3738	3738	3738	3738	3779	3779	3821	3821	3821	3821	3821	3821	3821	3779	3779	3779	3821	3821	3864	3821	3821	3821	3821	3821	3821	3821	3821	3821	3821	3821	3821	3821	3821	3821	3821	3821	3779	3779	3779	3779	3779	3779	3779	3821	3779	3821	3779	3779	3779	3779	3738	3738	3779	3821	3821	3821	3821	3821	3821	3779	3779	3779	3779	3779	3779	3779	3821	3821	3821	3821	3821	3821	3821	3821	3821	3821	3821	3821	3779	3779	3779	3779	3779	3779	3779	3738	3738	3779	3779	3779	3738	3738	3738	3738	3738	3738	3738	3738	3779	3779	3129	3101	3129	3101	3129	3129	3129	3129	3157	3129	3129	3129	3101	3101	3101	3129	3129	3129	3101	3129	3129	3129	3129	3129	3779	3779	3779	3738	3738	3738	3738	3738	3738	3738	3738	3738	3738	3738	3738	3738	3738	3738	3738	3738	3738	3738	3738	3738	3738	3738	3738	3738	3738	3698	3738	3738	3698	3698	3698	3698	3698	3738	3738	3738	3738	3698	3738	3698	3738	3738	3738	3738	3738	3779	3779	3779	3738	3738	3738	3738	3738	3738	3738	3738	3738	3738	3738	3738	3738	3698	3738	3698	3698	3698	3698	3698	3698	3698	3698	3698	3698	3659	3659	3659	3659	3659	3659	3659	3659	3659	3659	3698	3659	3659	3659	3698	3698	3698	3698	3698	3698	3698	3698	3698	3698	3698	3698	3698	3659	3659	3659	3659	3659	3659	3659	3659	3659	3659	3659	3698	3698	3659	3659	3659	3659	3659	3659	3659	3659	3659	3659	3698	3698	3698	3698	3698	3659	3659	3659	3659	3621	3621	3621	3659	3659	3659	3659	3659	3659	3659	3698	3698	3698	3698	3698	3698	3698	3698	3698	3698	3698	3738	3738	3738	3698	3698	3698	3698	3698	3698	3659	3659	3659	3659	3659	3659	3659	3659	3621	3621	3583	3583	3583	3583	3583	0	0	0	0	0	0	0	0	0	0	0	0	0	0	0	0	0	0	0	0	0	0	0	0	0	0	0	0	0	0	0	0	0	0	0	0	0	0	0	0	0	0	0	0	0	0	0	0	0	0	0	0	0	0	0	0	0	0	0	0	0	0	0	0	0	0	0	0	0	0	0	0	0	0	0	0	0	0	0	0	0	0	0	0	0	0	0	0	0	0	0	0	0	0	0	0	0	0	0	0	0	0	0	0	0	0	0	0	0	0	0	0	0	0	0	0	0	0	0	0	0	0	0	0	0	0	0	0
0	0	0	0	0	0	0	0	0	0	1553	1560	1560	1560	1560	1553	1567	1560	1560	1560	1567	1567	1567	1574	1574	1581	1581	1581	1581	1581	1581	1777	1777	1777	1777	1777	1786	1786	1786	1786	1777	1768	1768	1759	1768	1759	1768	1768	1768	1777	1786	1795	1786	1795	1786	1795	1795	1804	1814	1824	1833	1843	1843	1843	1853	1863	1863	1883	1915	1915	1925	1925	1925	2629	2629	2649	2649	2649	2649	2649	2649	2649	2649	2649	2649	2649	2649	2669	2669	2649	2629	2629	2629	2629	2649	2649	2649	2649	2649	2649	2649	2649	2649	2649	2649	2649	2649	2669	2669	2669	2669	2669	2690	2669	2669	2669	2669	2649	2649	2649	2649	2649	2649	2669	2669	2669	2669	2649	2649	2649	2629	2629	2649	2649	2649	2649	2649	2629	2629	2629	2629	2629	2629	2629	2629	2609	2629	2629	2649	2649	2649	2649	2649	2649	2649	2649	2649	2669	2649	2649	0	3621	3659	3659	3621	3621	3659	3659	3659	3659	3659	3659	3659	3659	3621	3621	3621	3659	3659	3621	3621	3621	3583	3583	3546	3583	3583	3621	3621	3583	3621	3621	3621	3621	3583	3583	3583	3583	3621	3621	3621	3621	3621	3659	3738	3698	3738	3738	3738	3779	3738	3779	3821	3821	3821	3821	3821	3864	3821	3821	3779	3779	3821	3821	3779	3821	3821	3821	3821	3821	3821	3821	3821	3821	3821	3821	3821	3821	3821	3821	3821	3779	3779	3779	3779	3779	3779	3779	3821	3821	3821	3821	3821	3779	3779	3821	3821	3738	3738	3821	3821	3821	3821	3821	3821	3821	3821	3779	3779	3779	3779	3779	3779	3779	3821	3821	3821	3821	3821	3821	3821	3821	3779	3779	3779	3779	3779	3779	3738	3779	3779	3779	3738	3738	3779	3779	3779	3779	3738	3738	3738	3738	3738	3738	3738	3738	3738	3779	3073	3073	3101	3129	3129	3157	3157	3129	3129	3129	3101	3101	3101	3101	3101	3101	3101	3101	3101	3101	3101	3101	3779	3779	3779	3779	3738	3738	3738	3738	3738	3738	3738	3738	3738	3738	3738	3738	3738	3738	3738	3738	3738	3738	3738	3738	3738	3738	3738	3738	3738	3738	3698	3698	3698	3698	3698	3698	3698	3698	3738	3738	3738	3738	3738	3738	3698	3738	3738	3738	3738	3738	3779	3779	3738	3738	3738	3738	3738	3738	3738	3738	3738	3738	3738	3738	3738	3738	3698	3698	3698	3698	3698	3698	3698	3698	3698	3659	3659	3659	3659	3659	3659	3659	3659	3659	3659	3659	3659	3659	3659	3659	3659	3659	3698	3698	3698	3698	3698	3698	3698	3698	3738	3698	3698	3698	3698	3698	3698	3659	3659	3659	3659	3659	3659	3659	3659	3659	3659	3659	3659	3659	3659	3659	3659	3659	3659	3659	3659	3659	3698	3698	3698	3698	3698	3698	3659	3659	3659	3621	3621	3659	3659	3659	3659	3659	3659	3659	3659	3698	3698	3698	3698	3698	3698	3698	3698	3698	3698	3698	3738	3738	3738	3698	3698	3698	3698	3698	3659	3659	3659	3659	3659	3659	3659	3659	3659	3621	3621	3621	3621	3621	3621	3621	0	0	0	0	0	0	0	0	0	0	0	0	0	0	0	0	0	0	0	0	0	0	0	0	0	0	0	0	0	0	0	0	0	0	0	0	0	0	0	0	0	0	0	0	0	0	0	0	0	0	0	0	0	0	0	0	0	0	0	0	0	0	0	0	0	0	0	0	0	0	0	0	0	0	0	0	0	0	0	0	0	0	0	0	0	0	0	0	0	0	0	0	0	0	0	0	0	0	0	0	0	0	0	0	0	0	0	0	0	0	0	0	0	0	0	0	0	0	0	0	0	0	0	0	0	0	0	0
0	0	0	0	0	0	0	0	0	0	1560	1567	1567	1560	1560	1560	1560	1560	1560	1560	1567	1567	1574	1581	1581	1581	1596	1589	1589	1589	1795	1786	1786	1786	1786	1786	1795	1795	1795	1795	1795	1786	1786	1768	1777	1768	1786	1777	1777	1795	1795	1795	1795	1795	1795	1795	1795	1804	1814	1833	1843	1843	1853	1843	1853	1863	1863	1873	1894	1904	1915	1925	1925	0	2669	2669	2669	2669	2669	2669	2649	2649	2649	2649	2649	2649	2649	2649	2669	2649	2629	2629	2629	2629	2649	2649	2649	2649	2649	2649	2649	2649	2649	2690	2649	2649	2649	2669	2669	2669	2669	2669	2690	2669	2669	2669	2669	2649	2649	2649	2649	2649	2649	2649	2649	2649	2669	2649	2629	2649	2629	2629	2629	2629	2649	2629	2629	2629	2629	2629	2629	2629	2629	2629	2629	2629	2629	2629	2649	2649	2649	2649	2649	2649	2649	2649	2649	2669	2669	2669	0	3659	3659	3659	3621	3621	3621	3621	3659	3659	3659	3659	3659	3659	3659	3659	3659	3659	3659	3659	3659	3659	3621	3621	3583	3621	3621	3621	3621	3583	3621	3621	3621	3621	3621	3621	3621	3621	3621	3621	3621	3621	3621	3659	3659	3698	3738	3738	3738	3738	3738	3779	3821	3821	3821	3821	3821	3864	3821	3821	3779	3821	3779	3821	3779	3779	3821	3821	3821	3821	3821	3821	3821	3821	3821	3821	3821	3821	3821	3821	3821	3779	3779	3779	3779	3779	3779	3779	3779	3821	3821	3821	3821	3779	3779	3779	3779	3738	3738	3779	3821	3821	3821	3821	3821	3821	3821	3779	3779	3779	3779	3779	3779	3779	3821	3821	3821	3821	3821	3821	3821	3821	3779	3821	3821	3779	3779	3779	3738	3779	3779	3779	3738	3779	3779	3779	3779	3779	3779	3779	3738	3738	3738	3738	3738	3738	3738	3738	3129	3129	3129	3129	3129	3157	3157	3129	3129	3129	3129	3101	3129	3101	3129	3129	3129	3101	3101	3101	3101	3101	3779	3821	3779	3779	3779	3738	3738	3738	3738	3738	3738	3738	3738	3738	3738	3738	3738	3738	3738	3738	3738	3738	3738	3738	3738	3738	3738	3738	3738	3698	3698	3698	3698	3698	3698	3698	3659	3659	3738	3698	3698	3698	3698	3738	3698	3738	3738	3738	3738	3738	3738	3738	3738	3738	3738	3698	3738	3698	3698	3738	3738	3738	3738	3738	3738	3738	3738	3738	3698	3698	3698	3698	3698	3698	3698	3659	3659	3659	3659	3659	3621	3659	3659	3659	3659	3659	3659	3659	3659	3659	3659	3659	3698	3698	3698	3698	3698	3698	3698	3698	3698	3698	3698	3698	3698	3698	3698	3698	3698	3659	3659	3659	3659	3659	3659	3659	3659	3659	3659	3659	3659	3659	3659	3659	3659	3659	3659	3659	3698	3698	3698	3698	3698	3659	3659	3659	3659	3621	3621	3621	3621	3621	3621	3659	3659	3659	3659	3698	3698	3698	3698	3698	3698	3698	3698	3698	3698	3698	3738	3738	3698	3698	3698	3698	3698	3698	3659	3659	3659	3659	3659	3659	3659	3659	3659	3659	3659	3621	3621	3621	3621	3621	3621	0	0	0	0	0	0	0	0	0	0	0	0	0	0	0	0	0	0	0	0	0	0	0	0	0	0	0	0	0	0	0	0	0	0	0	0	0	0	0	0	0	0	0	0	0	0	0	0	0	0	0	0	0	0	0	0	0	0	0	0	0	0	0	0	0	0	0	0	0	0	0	0	0	0	0	0	0	0	0	0	0	0	0	0	0	0	0	0	0	0	0	0	0	0	0	0	0	0	0	0	0	0	0	0	0	0	0	0	0	0	0	0	0	0	0	0	0	0	0	0	0	0	0	0	0	0	0
0	0	0	0	0	0	0	0	0	0	1560	1574	1574	1567	1560	1560	1560	1560	1560	1560	1567	1574	1581	1581	1581	1589	1589	1589	1589	1589	1795	1795	1795	1795	1795	1786	1795	1795	1795	1804	1804	1804	1804	1786	1795	1833	1824	1795	1814	1814	1824	1824	1804	1795	1795	1804	1804	1824	1833	1843	1843	1853	1853	1843	1853	1853	1853	1863	1904	1904	1925	1925	1936	1925	1925	2669	2649	2669	2669	2669	2649	2649	2649	2649	2649	2649	2649	2649	2649	2649	2649	2629	2629	2629	2649	2649	2649	2669	2669	2690	2669	2649	2649	2649	2629	2629	2649	2669	2669	2669	2669	2690	2690	2669	2669	2669	2669	2649	2649	2649	2649	2649	2649	2649	2649	2649	2669	2649	2629	2649	2629	2629	2629	2629	2649	2629	2629	2629	2629	2629	2629	2629	2629	2629	2629	2629	2629	2629	2649	2649	2649	2649	2649	2649	2669	2669	2669	2669	2669	2669	3738	3698	3659	3659	3621	3621	3659	3659	3698	3698	3698	3659	3659	3659	3659	3659	3659	3659	3659	3659	3659	3659	3659	3621	3621	3659	3621	3621	3659	3621	3621	3621	3621	3621	3621	3621	3621	3621	3621	3621	3621	3621	3659	3659	3659	3698	3738	3738	3738	3779	3738	3779	3821	3821	3821	3821	3821	3864	3821	3821	3821	3821	3821	3821	3779	3821	3821	3821	3821	3779	3821	3821	3821	3821	3821	3821	3821	3821	3821	3821	3821	3779	3779	3779	3779	3779	3779	3821	3821	3821	3821	3821	3821	3821	3779	3779	3779	3779	3738	3821	3821	3821	3821	3821	3821	3821	3821	3821	3779	3779	3779	3779	3779	3821	3821	3821	3821	3821	3821	3821	3821	3821	3779	3779	3821	3779	3779	3779	3738	3738	3779	3738	3738	3738	3779	3779	3779	3779	3779	3738	3738	3738	3738	3738	3738	3738	3738	3738	3129	3129	3129	3129	3129	3157	3157	3157	3129	3129	3129	3129	3129	3101	3129	3129	3129	3101	3129	3129	3129	3779	3779	3779	3779	3779	3779	3738	3738	3738	3738	3738	3738	3738	3738	3738	3738	3738	3738	3738	3738	3738	3738	3738	3738	3738	3698	3698	3698	3698	3698	3698	3698	3698	3698	3698	3698	3698	3698	3659	3738	3738	3738	3738	3738	3738	3738	3738	3738	3738	3738	3738	3738	3738	3738	3738	3738	3698	3698	3698	3698	3698	3698	3698	3659	3659	3698	3698	3698	3698	3698	3698	3698	3698	3698	3698	3698	3659	3659	3659	3659	3659	3621	3659	3659	3659	3659	3659	3659	3659	3659	3659	3659	3659	3698	3698	3698	3698	3698	3698	3698	3698	3698	3698	3698	3698	3698	3698	3698	3698	3659	3659	3659	3659	3659	3659	3659	3659	3659	3659	3659	3659	3659	3659	3659	3659	3659	3659	3698	3659	3698	3698	3698	3698	3698	3659	3659	3659	3659	3621	3659	3621	3621	3621	3621	3621	3659	3659	3659	3698	3698	3698	3698	3698	3698	3698	3698	3698	3698	3698	3738	3698	3698	3698	3698	3698	3698	3698	3659	3659	3659	3659	3659	3659	3659	3659	3659	3659	3659	3659	3659	3659	3621	3621	3621	0	0	0	0	0	0	0	0	0	0	0	0	0	0	0	0	0	0	0	0	0	0	0	0	0	0	0	0	0	0	0	0	0	0	0	0	0	0	0	0	0	0	0	0	0	0	0	0	0	0	0	0	0	0	0	0	0	0	0	0	0	0	0	0	0	0	0	0	0	0	0	0	0	0	0	0	0	0	0	0	0	0	0	0	0	0	0	0	0	0	0	0	0	0	0	0	0	0	0	0	0	0	0	0	0	0	0	0	0	0	0	0	0	0	0	0	0	0	0	0	0	0	0	0	0	0	0
0	0	0	0	0	0	0	0	0	0	1553	1560	1560	1560	1560	1553	1553	1560	1560	1560	1560	1567	1581	1589	1589	1589	1596	1589	1603	1603	1804	1795	1795	1795	1795	1795	1804	1804	1804	1814	1824	1824	1824	1814	1814	1814	1814	1804	1814	1824	1824	1814	1804	1804	1804	1814	1814	1824	1833	1843	1843	1843	1843	1843	1853	1853	1863	1863	1883	1904	1915	1925	1925	1925	1925	0	2669	2649	2649	2649	2649	2649	2649	2649	2649	2649	2649	2649	2649	2649	2629	2629	2629	2629	2649	2649	2649	2669	2669	2649	2669	2649	2649	2649	2649	2629	2649	2649	2669	2649	2649	2669	2669	2669	2669	2669	2669	2669	2649	2649	2649	2649	2649	2649	2649	2649	2649	2649	2629	2649	2629	2629	2629	2629	2629	2629	2629	2629	2629	2629	2629	2629	2629	2629	2629	2629	2629	2629	2649	2629	2629	2649	2649	2649	2649	2649	2669	2669	2690	2690	3779	3738	3698	3738	3659	3621	3659	3659	3659	3659	3659	3659	3659	3659	3659	3621	3659	3659	3659	3659	3659	3698	3698	3698	3659	3659	3659	3659	3659	3659	3659	3621	3621	3621	3621	3621	3621	3621	3659	3621	3621	3659	3659	3659	3659	3698	3738	3738	3779	3779	3779	3821	3821	3821	3821	3821	3821	3821	3821	3821	3821	3821	3821	3821	3821	3821	3779	3779	3821	3779	3821	3821	3821	3821	3821	3779	3779	3821	3779	3779	3779	3821	3779	3779	3779	3779	3779	3779	3779	3779	3779	3779	3779	3779	3779	3779	3779	3779	3779	3821	3821	3821	3821	3821	3864	3821	3821	3821	3821	3821	3821	3779	3779	3821	3821	3821	3821	3821	3821	3821	3821	3821	3821	3821	3821	3779	3779	3779	3738	3738	3779	3738	3738	3738	3738	3779	3738	3738	3738	3738	3738	3738	3738	3779	3738	3738	3738	3738	3738	3157	3157	3157	3157	3186	3157	3157	3129	3129	3129	3129	3129	3129	3157	3129	3129	3157	3129	3129	3129	3821	3821	3779	3779	3779	3779	3738	3738	3738	3738	3738	3738	3738	3738	3738	3738	3738	3738	3738	3738	3738	3738	3738	3698	3738	3698	3698	3698	3698	3698	3698	3698	3698	3698	3659	3659	3698	3659	3659	3698	3698	3698	3738	3738	3738	3738	3738	3738	3738	3738	3738	3738	3738	3738	3738	3738	3698	3698	3698	3698	3698	3698	3738	3698	3659	3698	3698	3659	3659	3698	3698	3698	3698	3698	3659	3659	3659	3659	3621	3659	3621	3621	3621	3659	3698	3698	3698	3659	3659	3659	3659	3659	3659	3698	3698	3698	3698	3698	3698	3698	3698	3698	3698	3698	3698	3698	3659	3659	3659	3659	3659	3659	3659	3659	3659	3659	3659	3659	3659	3659	3659	3659	3659	3659	3659	3659	3659	3698	3698	3698	3698	3698	3698	3698	3659	3659	3659	3659	3659	3659	3621	3621	3621	3621	3621	3659	3659	3659	3659	3698	3698	3698	3698	3698	3698	3698	3698	3698	3698	3698	3698	3698	3698	3698	3698	3698	3698	3659	3659	3659	3659	3659	3659	3659	3659	3659	3659	3659	3659	3659	3659	3621	3583	3583	3583	3583	0	0	0	0	0	0	0	0	0	0	0	0	0	0	0	0	0	0	0	0	0	0	0	0	0	0	0	0	0	0	0	0	0	0	0	0	0	0	0	0	0	0	0	0	0	0	0	0	0	0	0	0	0	0	0	0	0	0	0	0	0	0	0	0	0	0	0	0	0	0	0	0	0	0	0	0	0	0	0	0	0	0	0	0	0	0	0	0	0	0	0	0	0	0	0	0	0	0	0	0	0	0	0	0	0	0	0	0	0	0	0	0	0	0	0	0	0	0	0	0	0	0	0	0	0
0	0	0	0	0	0	0	0	0	0	1553	1560	1560	1553	1560	1553	1560	1560	1560	1560	1560	1567	1567	1581	1603	1603	1603	1603	1611	1611	1814	1804	1804	1804	1804	1804	1814	1814	1824	1833	1833	1833	1833	1824	1824	1824	1824	1814	1824	1814	1814	1814	1814	1814	1814	1824	1824	1824	1833	1833	1833	1833	1833	1843	1853	1863	1863	1873	1883	1883	1894	1925	1925	1915	1915	1915	2669	2649	2649	2649	2649	2649	2649	2649	2649	2649	2649	2629	2629	2629	2629	2649	2629	2629	2649	2649	2649	2690	2690	2649	2649	2649	2649	2649	2649	2649	2649	2649	2669	2669	2669	2669	2669	2669	2690	2669	2669	2649	2649	2649	2649	2649	2629	2629	2629	2649	2649	2629	2629	2629	2629	2629	2629	2629	2629	2629	2629	2629	2629	2629	2629	2629	2629	2629	2629	2629	2629	2629	2649	2649	2649	2649	2649	2649	2649	2649	2669	2690	2690	2690	3779	3738	3738	3738	3659	3659	3659	3659	3659	3659	3659	3659	3659	3659	3659	3621	3659	3659	3659	3698	3698	3698	3738	3738	3738	3738	3698	3738	3779	3698	3698	3659	3659	3659	3659	3621	3621	3621	3659	3659	3659	3659	3659	3659	3659	3698	3738	3738	3779	3779	3821	3821	3821	3821	3821	3821	3821	3864	3821	3821	3821	3821	3821	3821	3821	3821	3821	3779	3821	3821	3821	3821	3821	3821	3821	3821	3821	3821	3779	3779	3779	3779	3779	3779	3779	3779	3779	3779	3779	3821	3779	3779	3779	3779	3779	3779	3779	3779	3779	3821	3821	3821	3821	3821	3821	3821	3821	3821	3821	3821	3821	3779	3779	3821	3779	3779	3779	3779	3779	3821	3738	3738	3738	3738	3821	3779	3779	3779	3738	3738	3738	3738	3738	3738	3738	3738	3738	3779	3738	3738	3738	3738	3738	3779	3738	3738	3738	3738	3738	3157	3157	3157	3157	3186	3157	3157	3129	3129	3129	3129	3129	3129	3157	3129	3129	3157	3129	3129	3129	3821	3821	3779	3779	3779	3779	3779	3738	3738	3738	3738	3738	3738	3738	3738	3738	3738	3698	3698	3738	3738	3738	3738	3738	3738	3698	3698	3698	3698	3659	3698	3698	3698	3698	3698	3698	3698	3659	3659	3698	3698	3698	3738	3738	3738	3738	3738	3738	3738	3738	3738	3738	3738	3698	3698	3738	3698	3698	3698	3698	3698	3698	3698	3698	3698	3659	3698	3659	3659	3659	3659	3659	3659	3659	3659	3659	3659	3659	3659	3659	3659	3621	3621	3659	3698	3698	3659	3659	3659	3659	3659	3659	3659	3698	3698	3698	3698	3698	3698	3698	3698	3698	3698	3698	3659	3659	3659	3659	3659	3659	3659	3659	3659	3659	3659	3659	3659	3659	3659	3659	3659	3659	3659	3659	3659	3698	3698	3698	3698	3698	3698	3698	3698	3698	3659	3659	3659	3659	3621	3659	3621	3621	3621	3621	3621	3621	3659	3659	3698	3698	3698	3698	3698	3698	3698	3698	3698	3698	3698	3698	3698	3698	3698	3698	3698	3698	3698	3659	3659	3659	3659	3621	3659	3621	3659	3659	3659	3659	3659	3659	3621	3621	3583	3583	3583	3583	0	0	0	0	0	0	0	0	0	0	0	0	0	0	0	0	0	0	0	0	0	0	0	0	0	0	0	0	0	0	0	0	0	0	0	0	0	0	0	0	0	0	0	0	0	0	0	0	0	0	0	0	0	0	0	0	0	0	0	0	0	0	0	0	0	0	0	0	0	0	0	0	0	0	0	0	0	0	0	0	0	0	0	0	0	0	0	0	0	0	0	0	0	0	0	0	0	0	0	0	0	0	0	0	0	0	0	0	0	0	0	0	0	0	0	0	0	0	0	0	0	0	0	0	0
0	0	0	0	0	0	0	0	0	0	1553	1560	1560	1553	1553	1553	1560	1560	1560	1560	1567	1567	1567	1581	1596	1603	1611	1611	1611	1611	1814	1804	1814	1804	1814	1804	1824	1824	1833	1833	1833	1843	1833	1833	1833	1833	1824	1824	1824	1824	1824	1824	1824	1824	1824	1824	1824	1833	1833	1833	1833	1843	1833	1843	1853	1853	1853	1863	1873	1873	1894	1915	1925	1915	1915	1915	0	2649	2649	2649	2649	2649	2649	2649	2649	2669	2649	2629	2629	2629	2669	2649	2649	2649	2649	2649	2690	2690	2690	2690	2690	2649	2649	2690	2649	2649	2649	2649	2669	2669	2669	2690	2669	2669	2690	2669	2669	2649	2649	2649	2649	2629	2629	2629	2629	2629	2629	2629	2629	2629	2629	2629	2629	2629	2629	2629	2629	2629	2629	2629	2629	2629	2629	2629	2629	2629	2629	2629	2649	2649	2649	2649	2649	2649	2649	2649	2669	2690	2690	2690	3738	3738	3698	3738	3698	3698	3659	3659	3659	3659	3659	3659	3659	3659	3659	3659	3659	3659	3659	3698	3738	3738	3738	3738	3738	3738	3698	3779	3779	3779	3779	3779	3659	3698	3659	3621	3621	3621	3659	3621	3659	3659	3659	3659	3698	3738	3738	3738	3779	3821	3821	3821	3821	3821	3821	3821	3821	3864	3864	3864	3864	3864	3864	3821	3821	3821	3821	3821	3821	3821	3821	3821	3821	3821	3821	3821	3779	3779	3779	3779	3779	3779	3779	3779	3779	3779	3779	3779	3779	3821	3779	3779	3779	3821	3779	3779	3779	3821	3779	3864	3864	3821	3821	3821	3821	3821	3779	3779	3779	3779	3779	3779	3779	3779	3779	3738	3779	3779	3779	3821	3779	3738	3738	3821	3779	3779	3779	3779	3779	3738	3738	3738	3738	3738	3738	3779	3738	3779	3738	3738	3738	3738	3738	3738	3738	3738	3738	3738	3738	3157	3157	3157	3157	3186	3157	3157	3129	3129	3129	3129	3129	3157	3157	3157	3157	3186	3157	3157	3821	3821	3779	3779	3779	3779	3779	3779	3738	3738	3738	3738	3738	3698	3698	3698	3698	3738	3698	3738	3738	3738	3738	3738	3698	3738	3698	3698	3659	3659	3659	3698	3659	3698	3698	3698	3698	3698	3659	3659	3698	3698	3698	3698	3738	3738	3738	3738	3738	3738	3738	3738	3738	3698	3698	3698	3738	3698	3698	3698	3698	3698	3698	3698	3659	3659	3659	3698	3659	3659	3659	3659	3698	3659	3659	3659	3659	3659	3659	3659	3659	3659	3659	3698	3698	3698	3698	3698	3659	3659	3659	3659	3659	3659	3698	3698	3698	3698	3698	3698	3698	3698	3698	3698	3698	3659	3659	3659	3659	3659	3659	3659	3659	3659	3659	3659	3659	3659	3659	3659	3659	3659	3659	3659	3659	3659	3659	3698	3698	3698	3698	3698	3698	3698	3698	3659	3659	3659	3659	3621	3659	3621	3621	3583	3621	3621	3659	3659	3659	3698	3698	3698	3698	3698	3698	3698	3698	3698	3698	3698	3698	3698	3698	3698	3698	3659	3698	3659	3659	3659	3659	3621	3621	3621	3621	3659	3659	3659	3659	3659	3659	3659	3621	3621	3621	3621	3621	0	0	0	0	0	0	0	0	0	0	0	0	0	0	0	0	0	0	0	0	0	0	0	0	0	0	0	0	0	0	0	0	0	0	0	0	0	0	0	0	0	0	0	0	0	0	0	0	0	0	0	0	0	0	0	0	0	0	0	0	0	0	0	0	0	0	0	0	0	0	0	0	0	0	0	0	0	0	0	0	0	0	0	0	0	0	0	0	0	0	0	0	0	0	0	0	0	0	0	0	0	0	0	0	0	0	0	0	0	0	0	0	0	0	0	0	0	0	0	0	0	0	0	0	0
0	0	0	0	0	0	0	0	0	0	1553	1553	1553	1553	1553	1560	1560	1560	1560	1560	1567	1567	1567	1581	1596	1611	1611	1618	1618	1618	1814	1814	1814	1814	1814	1814	1824	1824	1833	1833	1833	1843	1843	1833	1833	1833	1833	1824	1824	1824	1824	1824	1824	1824	1833	1833	1833	1833	1833	1833	1833	1843	1833	1843	1853	1853	1863	1873	1883	1883	1894	1894	1904	1915	1915	1915	0	2649	2649	2649	2649	2649	2649	2649	2649	2649	2649	2649	2629	2629	2629	2629	2629	2669	2649	2649	2690	2690	2690	2649	2649	2649	2649	2649	2649	2629	2649	2649	2690	2669	2669	2669	2669	2690	2690	2690	2669	2649	2649	2649	2649	2629	2629	2629	2629	2629	2629	2629	2629	2629	2629	2629	2629	2629	2629	2629	2629	2629	2629	2629	2629	2629	2629	2629	2629	2629	2629	2629	2649	2649	2649	2649	2649	2649	2649	2649	2669	2690	2690	2690	3779	3738	3738	3738	3659	3659	3659	3659	3659	3698	3698	3698	3659	3659	3659	3659	3659	3659	3698	3698	3738	3738	3738	3779	3779	3779	3738	3779	3779	3779	3779	3779	3698	3698	3659	3659	3659	3659	3659	3659	3659	3659	3659	3698	3698	3738	3738	3779	3821	3821	3821	3864	3821	3821	3821	3821	3821	3864	3864	3864	3864	3864	3821	3821	3821	3821	3779	3779	3779	3779	3821	3821	3821	3821	3821	3821	3821	3821	3779	3779	3779	3779	3779	3779	3779	3779	3779	3779	3779	3779	3779	3779	3779	3779	3779	3779	3779	3821	3779	3864	3821	3821	3821	3821	3821	3821	3821	3821	3821	3821	3821	3821	3779	3779	3779	3779	3779	3779	3779	3779	3779	3738	3738	3779	3779	3779	3779	3779	3779	3738	3738	3738	3738	3738	3738	3738	3738	3738	3738	3738	3738	3738	3738	3738	3738	3738	3738	3738	3738	3157	3157	3157	3157	3186	3186	3157	3157	3129	3129	3157	3157	3157	3157	3157	3157	3186	3157	3157	3821	3821	3779	3821	3779	3779	3779	3779	3738	3738	3738	3738	3698	3698	3738	3738	3698	3738	3698	3738	3738	3738	3738	3738	3738	3738	3698	3698	3698	3698	3659	3698	3659	3698	3659	3698	3698	3698	3698	3659	3738	3698	3738	3698	3698	3738	3738	3738	3738	3738	3738	3738	3738	3698	3698	3698	3698	3698	3698	3698	3659	3698	3698	3698	3659	3659	3659	3659	3659	3659	3659	3659	3659	3659	3659	3659	3659	3659	3659	3659	3659	3659	3659	3698	3698	3698	3698	3659	3659	3659	3659	3659	3659	3659	3698	3698	3698	3698	3698	3698	3698	3698	3698	3698	3698	3659	3659	3659	3659	3659	3659	3659	3659	3659	3659	3659	3659	3659	3659	3659	3659	3659	3659	3659	3659	3659	3659	3698	3698	3698	3698	3698	3698	3698	3698	3698	3698	3659	3659	3659	3659	3621	3621	3621	3621	3659	3659	3659	3659	3698	3698	3698	3659	3659	3659	3659	3698	3698	3698	3698	3698	3698	3698	3698	3698	3698	3698	3698	3659	3659	3621	3621	3621	3621	3621	3659	3659	3659	3659	3659	3659	3659	3659	3621	3621	3621	3621	0	0	0	0	0	0	0	0	0	0	0	0	0	0	0	0	0	0	0	0	0	0	0	0	0	0	0	0	0	0	0	0	0	0	0	0	0	0	0	0	0	0	0	0	0	0	0	0	0	0	0	0	0	0	0	0	0	0	0	0	0	0	0	0	0	0	0	0	0	0	0	0	0	0	0	0	0	0	0	0	0	0	0	0	0	0	0	0	0	0	0	0	0	0	0	0	0	0	0	0	0	0	0	0	0	0	0	0	0	0	0	0	0	0	0	0	0	0	0	0	0	0	0	0	0
0	0	0	0	0	0	0	0	0	0	1560	1560	1560	1560	1553	1553	1567	1560	1560	1560	1560	1560	1560	1567	1611	1611	1618	1618	1618	1618	1618	1618	1814	1814	1814	1814	1833	1833	1843	1843	1843	1843	1843	1843	1833	1833	1833	1833	1833	1833	1833	1833	1833	1833	1833	1833	1833	1833	1843	1843	1833	1843	1833	1843	1853	1853	1863	1863	1873	1883	1894	1915	1925	1915	1915	1915	0	2649	2649	2649	2649	2649	2649	2649	2649	2649	2649	2649	2629	2629	2609	2609	2629	2629	2649	2649	2690	2690	2690	2649	2649	2649	2649	2649	2669	2649	2669	2690	2690	2690	2669	2669	2669	2690	2669	2669	2669	2669	2649	2629	2629	2629	2629	2629	2629	2629	2629	2649	2629	2629	2629	2629	2629	2629	2629	2629	2629	2629	2629	2629	2629	2629	2629	2629	2629	2629	2629	2629	2649	2649	2649	2649	2649	2649	2649	2649	2669	2711	2711	2711	3779	3779	3698	3779	3659	3659	3659	3659	3659	3698	3698	3698	3659	3659	3698	3698	3698	3698	3698	3738	3738	3738	3779	3779	3779	3779	3779	3779	3779	3779	3779	3779	3779	3698	3698	3659	3659	3659	3698	3698	3698	3659	3698	3738	3698	3779	3738	3779	3821	3821	3821	3821	3821	3821	3821	3821	3821	3821	3821	3864	3864	3864	3821	3821	3821	3821	3779	3779	3779	3779	3821	3821	3821	3821	3821	3821	3821	3821	3779	3779	3779	3779	3779	3779	3779	3779	3779	3779	3779	3779	3779	3779	3779	3779	3779	3779	3779	3821	3821	3864	3821	3821	3821	3821	3821	3821	3821	3821	3821	3821	3821	3821	3779	3779	3779	3779	3738	3738	3779	3779	3738	3738	3779	3779	3779	3779	3779	3779	3779	3738	3738	3738	3738	3738	3738	3738	3738	3738	3738	3738	3738	3738	3738	3738	3738	3738	3738	3738	3157	3157	3157	3157	3157	3186	3186	3186	3157	3157	3157	3157	3157	3157	3186	3157	3157	3186	3186	3186	3821	3779	3779	3779	3779	3779	3779	3738	3738	3738	3738	3698	3698	3698	3698	3738	3698	3738	3698	3738	3738	3738	3738	3738	3738	3738	3698	3698	3698	3698	3659	3698	3659	3698	3659	3698	3698	3698	3698	3698	3738	3698	3738	3698	3698	3698	3738	3738	3738	3738	3738	3738	3738	3698	3698	3698	3698	3698	3698	3698	3698	3698	3698	3698	3659	3659	3659	3659	3659	3659	3659	3659	3659	3659	3659	3659	3659	3659	3659	3659	3659	3659	3659	3698	3698	3659	3698	3659	3659	3659	3659	3659	3659	3659	3698	3698	3698	3659	3659	3698	3698	3698	3698	3659	3659	3659	3659	3659	3659	3659	3659	3659	3659	3659	3659	3659	3659	3659	3659	3659	3659	3659	3659	3659	3659	3659	3659	3698	3698	3698	3698	3698	3698	3698	3698	3659	3659	3659	3659	3621	3621	3621	3621	3621	3621	3621	3659	3659	3659	3698	3698	3698	3659	3659	3659	3659	3659	3698	3698	3698	3698	3698	3698	3698	3698	3698	3698	3659	3659	3621	3621	3621	3621	3621	3621	3621	3621	3659	3659	3659	3659	3659	3621	3621	3621	3621	3621	0	0	0	0	0	0	0	0	0	0	0	0	0	0	0	0	0	0	0	0	0	0	0	0	0	0	0	0	0	0	0	0	0	0	0	0	0	0	0	0	0	0	0	0	0	0	0	0	0	0	0	0	0	0	0	0	0	0	0	0	0	0	0	0	0	0	0	0	0	0	0	0	0	0	0	0	0	0	0	0	0	0	0	0	0	0	0	0	0	0	0	0	0	0	0	0	0	0	0	0	0	0	0	0	0	0	0	0	0	0	0	0	0	0	0	0	0	0	0	0	0	0	0	0	0
0	0	0	0	0	0	0	0	0	0	1560	1560	1560	1553	1553	1553	1553	1560	1560	1560	1560	1567	1567	1567	1603	1618	1618	1618	1618	1618	1618	1814	1814	1824	1824	1824	1833	1843	1843	1853	1853	1853	1853	1843	1843	1843	1843	1843	1833	1843	1833	1833	1833	1843	1843	1843	1843	1843	1843	1843	1843	1843	1833	1843	1843	1853	1863	1873	1894	1894	1904	1915	1925	1915	1915	1915	1904	1904	2649	2649	2649	2649	2649	2649	2649	2649	2649	2649	2629	2629	2629	2629	2629	2629	2649	2649	2690	2690	2690	2649	2629	2629	2649	2649	2649	2649	2669	2669	2690	2669	2649	2649	2649	2649	2669	2669	2669	2649	2649	2629	2649	2629	2629	2629	2629	2629	2649	2669	2669	2649	2629	2629	2629	2629	2629	2629	2629	2629	2629	2629	2629	2629	2629	2629	2629	2629	2629	2629	2649	2649	2649	2649	2649	2649	2649	2649	2669	2690	2690	3779	3779	3779	3779	3779	3698	3779	3698	3659	3698	3698	3698	3698	3659	3698	3698	3698	3698	3698	3698	3738	3738	3779	3779	3779	3779	3779	3779	3779	3738	3779	3779	3779	3779	3698	3698	3698	3698	3698	3698	3698	3738	3698	3738	3738	3738	3779	3779	3779	3779	3821	3821	3821	3821	3821	3821	3821	3821	3821	3821	3864	3864	3821	3821	3821	3821	3779	3779	3779	3779	3779	3821	3821	3821	3821	3821	3779	3779	3779	3779	3779	3779	3779	3779	3779	3779	3779	3779	3779	3779	3779	3779	3779	3779	3779	3779	3779	3821	3821	3821	3864	3821	3821	3821	3821	3821	3821	3821	3821	3821	3821	3821	3821	3821	3821	3779	3779	3738	3738	3738	3779	3738	3779	3779	3779	3779	3779	3779	3779	3779	3779	3738	3738	3738	3738	3738	3738	3738	3738	3738	3738	3738	3738	3738	3738	3738	3738	3738	3738	3157	3157	3157	3157	3157	3186	3186	3186	3186	3157	3157	3186	3186	3186	3186	3186	3186	3216	3216	3186	3186	3779	3779	3779	3779	3738	3779	3738	3738	3738	3738	3698	3698	3698	3738	3738	3738	3738	3738	3738	3738	3738	3738	3738	3738	3738	3698	3698	3698	3698	3659	3659	3659	3659	3659	3698	3698	3698	3698	3698	3738	3738	3738	3698	3698	3698	3698	3738	3698	3698	3738	3738	3738	3698	3698	3698	3738	3698	3698	3698	3698	3659	3659	3698	3659	3659	3659	3698	3659	3659	3659	3659	3698	3659	3659	3659	3659	3659	3659	3659	3659	3659	3659	3659	3698	3659	3659	3659	3659	3659	3659	3659	3659	3659	3659	3659	3659	3659	3698	3698	3698	3698	3698	3659	3659	3659	3659	3659	3659	3659	3659	3659	3659	3659	3659	3659	3659	3659	3659	3659	3659	3659	3659	3659	3659	3659	3659	3698	3698	3698	3698	3659	3698	3659	3659	3659	3659	3659	3659	3621	3621	3621	3621	3621	3621	3659	3659	3659	3659	3698	3659	3659	3659	3659	3659	3659	3659	3698	3698	3698	3698	3698	3698	3698	3698	3698	3698	3698	3659	3621	3621	3621	3621	3621	3621	3621	3659	3659	3659	3659	3659	3659	3659	3659	3621	3659	3659	0	0	0	0	0	0	0	0	0	0	0	0	0	0	0	0	0	0	0	0	0	0	0	0	0	0	0	0	0	0	0	0	0	0	0	0	0	0	0	0	0	0	0	0	0	0	0	0	0	0	0	0	0	0	0	0	0	0	0	0	0	0	0	0	0	0	0	0	0	0	0	0	0	0	0	0	0	0	0	0	0	0	0	0	0	0	0	0	0	0	0	0	0	0	0	0	0	0	0	0	0	0	0	0	0	0	0	0	0	0	0	0	0	0	0	0	0	0	0	0	0	0	0	0	0
0	0	0	0	0	0	0	0	0	0	1553	1560	1560	1546	1553	1553	1553	1560	1560	1560	1560	1567	1567	1567	1611	1618	1618	1618	1618	1618	1618	1824	1824	1824	1833	1833	1843	1843	1853	1853	1853	1853	1853	1853	1853	1853	1853	1853	1853	1843	1843	1843	1843	1843	1843	1853	1853	1843	1853	1843	1843	1843	1843	1843	1843	1853	1873	1873	1894	1894	1894	1915	1925	1915	1915	1915	1915	1915	0	2649	2649	2649	2649	2669	2649	2649	2649	2649	2629	2629	2629	2629	2669	2669	2690	2690	2690	2690	2690	2629	2629	2629	2629	2649	2649	2649	2669	2669	2669	2669	2669	2649	2649	2649	2649	2649	2649	2649	2649	2649	2649	2649	2649	2629	2649	2629	2649	2649	2649	2649	2629	2629	2629	2629	2629	2629	2629	2629	2629	2629	2629	2629	2629	2629	2629	2629	2629	2629	2649	2649	2649	2649	2649	2649	2649	2649	2649	2669	2669	3779	3779	3779	3779	3779	3698	3779	3698	3659	3698	3698	3698	3698	3659	3698	3698	3698	3698	3698	3698	3738	3738	3779	3779	3779	3779	3779	3779	3779	3738	3738	3738	3738	3738	3738	3738	3738	3738	3738	3738	3738	3738	3698	3738	3738	3738	3738	3779	3821	3821	3821	3821	3821	3821	3821	3821	3821	3821	3821	3821	3864	3864	3821	3821	3821	3779	3779	3779	3779	3821	3779	3821	3821	3821	3821	3821	3779	3779	3779	3779	3779	3779	3779	3779	3738	3738	3738	3738	3738	3779	3779	3779	3738	3779	3779	3779	3779	3779	3821	3821	3821	3821	3821	3821	3821	3821	3821	3821	3821	3821	3821	3821	3821	3821	3821	3779	3779	3738	3738	3779	3779	3738	3779	3779	3779	3821	3821	3821	3779	3779	3779	3738	3738	3738	3738	3738	3738	3698	3738	3738	3738	3738	3698	3738	3738	3698	3738	3738	3738	3157	3157	3186	3186	3157	3186	3186	3186	3186	3186	3157	3186	3186	3186	3186	3186	3186	3186	3216	3186	3186	3186	3779	3779	3779	3738	3738	3738	3738	3698	3698	3698	3698	3738	3738	3738	3738	3738	3738	3738	3738	3738	3738	3738	3738	3738	3698	3698	3698	3698	3659	3659	3659	3659	3659	3698	3698	3698	3698	3698	3738	3738	3738	3698	3698	3698	3698	3738	3698	3698	3698	3698	3698	3698	3698	3698	3698	3698	3698	3698	3698	3659	3659	3659	3659	3659	3659	3659	3659	3659	3659	3659	3659	3659	3659	3659	3659	3659	3659	3659	3659	3659	3659	3659	3698	3659	3659	3659	3659	3659	3659	3659	3659	3621	3659	3659	3659	3659	3698	3698	3698	3698	3698	3659	3659	3659	3659	3659	3659	3659	3659	3659	3659	3659	3659	3659	3659	3659	3659	3659	3659	3659	3659	3659	3698	3698	3698	3698	3698	3698	3698	3659	3659	3659	3659	3659	3659	3621	3621	3621	3621	3621	3621	3621	3621	3659	3659	3659	3659	3698	3659	3659	3659	3659	3659	3659	3659	3698	3698	3698	3698	3698	3698	3659	3698	3659	3659	3659	3659	3621	3621	3621	3621	3621	3621	3621	3659	3621	3659	3659	3659	3659	3659	3659	3621	3659	3621	3621	0	0	0	0	0	0	0	0	0	0	0	0	0	0	0	0	0	0	0	0	0	0	0	0	0	0	0	0	0	0	0	0	0	0	0	0	0	0	0	0	0	0	0	0	0	0	0	0	0	0	0	0	0	0	0	0	0	0	0	0	0	0	0	0	0	0	0	0	0	0	0	0	0	0	0	0	0	0	0	0	0	0	0	0	0	0	0	0	0	0	0	0	0	0	0	0	0	0	0	0	0	0	0	0	0	0	0	0	0	0	0	0	0	0	0	0	0	0	0	0	0	0	0	0
0	0	0	0	0	0	0	0	0	0	1560	1560	1560	1560	1560	1553	1567	1560	1560	1560	1560	1560	1567	1567	1574	1611	1611	1618	1618	1618	1618	1843	1843	1843	1843	1843	1853	1853	1853	1853	1853	1853	1853	1853	1853	1853	1853	1853	1853	1853	1853	1853	1853	1863	1863	1863	1863	1853	1853	1853	1843	1843	1843	1843	1853	1853	1873	1873	1894	1904	1904	1904	1925	1915	1915	1915	1915	1904	1904	2649	2669	2669	2669	2669	2649	2649	2649	2649	2629	2629	2629	2629	2649	2649	2649	2649	2629	2629	2629	2629	2629	2629	2649	2649	2669	2669	2669	2669	2669	2669	2669	2649	2649	2649	2649	2649	2649	2649	2649	2649	2649	2649	2629	2629	2649	2629	2649	2649	2649	2649	2629	2629	2629	2629	2629	2629	2609	2629	2629	2629	2629	2629	2629	2629	2629	2629	2629	2629	2649	2649	2649	2649	2649	2649	2649	2649	2649	2669	2669	3738	3738	3738	3738	3738	3698	3698	3698	3659	3698	3738	3698	3698	3698	3698	3698	3738	3698	3698	3738	3738	3738	3779	3779	3779	3779	3779	3779	3779	3779	3779	3738	3779	3738	3738	3738	3738	3738	3738	3738	3738	3738	3738	3779	3779	3738	3779	3779	3821	3821	3821	3779	3821	3821	3821	3821	3821	3821	3821	3864	3864	3821	3821	3821	3821	3779	3779	3779	3821	3821	3821	3821	3821	3821	3821	3779	3779	3779	3779	3779	3779	3779	3738	3779	3738	3738	3738	3738	3738	3738	3738	3738	3738	3779	3779	3779	3779	3779	3779	3779	3821	3821	3821	3821	3821	3821	3821	3821	3821	3821	3821	3821	3821	3821	3821	3779	3779	3779	3738	3738	3738	3738	3779	3779	3779	3779	3779	3779	3779	3779	3738	3738	3738	3738	3738	3738	3738	3738	3738	3738	3738	3738	3738	3738	3738	3698	3698	3738	3738	3157	3186	3186	3186	3157	3186	3186	3186	3186	3186	3186	3186	3186	3186	3186	3186	3186	3186	3186	3186	3186	3186	3779	3779	3779	3738	3738	3738	3698	3698	3698	3698	3698	3738	3738	3738	3738	3738	3738	3738	3738	3738	3738	3738	3738	3738	3698	3698	3698	3698	3659	3659	3659	3738	3659	3698	3698	3698	3698	3698	3738	3738	3698	3659	3659	3659	3659	3698	3698	3698	3698	3698	3698	3698	3698	3698	3698	3698	3698	3698	3698	3659	3659	3659	3659	3659	3659	3659	3659	3659	3659	3659	3698	3659	3659	3659	3659	3659	3659	3659	3659	3659	3659	3659	3659	3659	3659	3659	3659	3659	3659	3621	3621	3621	3659	3659	3659	3659	3698	3698	3698	3698	3659	3659	3659	3659	3659	3659	3659	3659	3659	3659	3659	3659	3659	3659	3659	3659	3659	3659	3659	3659	3659	3698	3698	3698	3698	3698	3698	3698	3659	3659	3659	3659	3659	3659	3659	3621	3621	3621	3621	3621	3621	3621	3659	3659	3659	3659	3659	3698	3659	3659	3659	3659	3659	3659	3659	3659	3659	3659	3659	3659	3659	3659	3698	3659	3659	3659	3659	3659	3621	3621	3621	3621	3621	3621	3659	3659	3659	3659	3659	3659	3659	3659	3621	3698	3698	3621	0	0	0	0	0	0	0	0	0	0	0	0	0	0	0	0	0	0	0	0	0	0	0	0	0	0	0	0	0	0	0	0	0	0	0	0	0	0	0	0	0	0	0	0	0	0	0	0	0	0	0	0	0	0	0	0	0	0	0	0	0	0	0	0	0	0	0	0	0	0	0	0	0	0	0	0	0	0	0	0	0	0	0	0	0	0	0	0	0	0	0	0	0	0	0	0	0	0	0	0	0	0	0	0	0	0	0	0	0	0	0	0	0	0	0	0	0	0	0	0	0	0	0	0
0	0	0	0	0	0	0	0	0	0	1560	1560	1560	1560	1553	1553	1567	1560	1560	1560	1574	1574	1574	1567	1581	1603	1611	1618	1611	1626	1618	1618	1843	1863	1853	1853	1863	1863	1863	1863	1863	1863	1863	1863	1863	1863	1863	1863	1863	1863	1863	1863	1863	1863	1863	1873	1863	1863	1863	1863	1853	1853	1853	1853	1853	1863	1883	1883	1904	1904	1904	1904	1915	1915	1915	1915	1915	1915	1915	0	2669	2669	2669	2669	2649	2649	2649	2629	2629	2649	2629	2649	2649	2649	2669	2669	2649	2649	2629	2629	2629	2629	2649	2649	2669	2669	2669	2669	2649	2649	2649	2649	2649	2649	2649	2649	2669	2649	2669	2649	2649	2649	2629	2629	2629	2629	2649	2649	2649	2649	2649	2649	2629	2629	2629	2629	2629	2629	2629	2629	2629	2629	2629	2629	2629	2629	2629	2629	2649	2649	2649	2649	2649	2669	2649	2649	2649	2649	3779	3779	3779	3779	3738	3738	3698	3698	3698	3698	3698	3738	3738	3738	3698	3738	3779	3738	3738	3738	3738	3738	3738	3779	3738	3779	3779	3779	3779	3779	3779	3779	3738	3738	3738	3738	3738	3738	3779	3779	3779	3779	3779	3779	3779	3738	3738	3779	3779	3779	3821	3821	3779	3821	3821	3821	3821	3821	3821	3821	3821	3821	3821	3821	3779	3779	3779	3779	3779	3821	3821	3821	3821	3821	3821	3821	3779	3779	3779	3779	3779	3779	3779	3738	3738	3738	3738	3738	3738	3738	3738	3738	3738	3738	3779	3779	3779	3738	3779	3779	3779	3821	3821	3821	3821	3821	3779	3779	3821	3821	3821	3821	3821	3821	3821	3821	3779	3779	3779	3738	3779	3738	3738	3779	3779	3779	3779	3779	3779	3779	3779	3738	3738	3738	3738	3738	3738	3738	3738	3738	3738	3738	3738	3738	3738	3738	3698	3698	3738	3129	3157	3157	3186	3186	3157	3186	3186	3186	3186	3186	3186	3186	3186	3186	3186	3186	3186	3186	3186	3186	3186	3186	3186	3779	3779	3738	3738	3738	3698	3698	3698	3698	3698	3698	3738	3738	3738	3738	3738	3738	3738	3738	3738	3738	3698	3738	3698	3698	3698	3698	3659	3659	3659	3698	3698	3698	3738	3698	3698	3698	3738	3698	3698	3659	3659	3659	3659	3698	3659	3698	3698	3698	3698	3698	3698	3698	3698	3698	3698	3698	3698	3659	3659	3659	3659	3659	3659	3659	3659	3659	3659	3659	3698	3659	3659	3659	3659	3659	3659	3659	3659	3659	3659	3659	3659	3659	3659	3659	3659	3659	3659	3621	3621	3621	3659	3659	3659	3659	3659	3698	3659	3698	3659	3659	3659	3659	3659	3659	3659	3659	3659	3659	3659	3659	3659	3659	3659	3659	3659	3659	3659	3659	3698	3698	3698	3698	3698	3698	3698	3698	3659	3659	3659	3659	3659	3659	3659	3621	3621	3621	3621	3621	3621	3621	3621	3621	3659	3621	3621	3659	3659	3659	3659	3659	3659	3659	3659	3659	3659	3659	3659	3659	3659	3659	3659	3659	3659	3659	3659	3659	3621	3621	3621	3621	3621	3659	3659	3659	3659	3659	3659	3659	3621	3621	3621	3659	3659	0	0	0	0	0	0	0	0	0	0	0	0	0	0	0	0	0	0	0	0	0	0	0	0	0	0	0	0	0	0	0	0	0	0	0	0	0	0	0	0	0	0	0	0	0	0	0	0	0	0	0	0	0	0	0	0	0	0	0	0	0	0	0	0	0	0	0	0	0	0	0	0	0	0	0	0	0	0	0	0	0	0	0	0	0	0	0	0	0	0	0	0	0	0	0	0	0	0	0	0	0	0	0	0	0	0	0	0	0	0	0	0	0	0	0	0	0	0	0	0	0	0	0	0	0
0	0	0	0	0	0	0	0	0	0	1560	1560	1560	1560	1553	1553	1567	1567	1567	1560	1567	1567	1574	1560	1567	1596	1603	1611	1611	1618	1626	1626	1894	1873	1863	1863	1873	1863	1873	1873	1873	1863	1863	1863	1863	1863	1863	1863	1863	1863	1873	1863	1873	1873	1873	1873	1873	1873	1873	1863	1863	1863	1863	1853	1863	1873	1883	1904	1904	1904	1904	1904	1904	1904	1915	1915	1915	1915	1915	1915	2669	2669	2690	2690	2669	2669	2649	2649	2649	2649	2629	2649	2649	2649	2669	2649	2649	2649	2629	2629	2629	2629	2649	2649	2649	2669	2649	2649	2649	2649	2649	2649	2649	2649	2669	2669	2669	2669	2669	2669	2649	2649	2649	2649	2629	2629	2649	2649	2649	2649	2629	2629	2629	2629	2629	2629	2629	2629	2629	2629	2629	2629	2629	2629	2629	2629	2629	2629	2649	2649	2649	2649	2649	2649	2649	2649	2649	2649	3779	3779	3779	3779	3779	3738	3738	3738	3698	3698	3698	3698	3738	3738	3738	3738	3779	3738	3738	3738	3738	3738	3738	3738	3738	3738	3738	3738	3738	3738	3738	3779	3779	3779	3738	3738	3779	3738	3779	3738	3779	3779	3779	3779	3779	3738	3738	3779	3779	3821	3821	3821	3779	3779	3779	3779	3779	3779	3779	3821	3821	3821	3821	3821	3779	3779	3779	3779	3779	3779	3779	3821	3821	3821	3821	3779	3779	3779	3779	3779	3779	3779	3779	3738	3738	3738	3738	3738	3738	3738	3738	3738	3738	3738	3779	3779	3779	3779	3738	3738	3738	3779	3779	3779	3821	3821	3821	3821	3821	3821	3821	3821	3821	3821	3821	3821	3779	3779	3779	3738	3738	3738	3738	3779	3779	3779	3779	3779	3779	3779	3779	3738	3738	3738	3738	3738	3738	3738	3738	3738	3738	3738	3738	3738	3738	3738	3698	3698	3738	3157	3157	3157	3186	3186	3157	3186	3186	3186	3186	3186	3186	3186	3186	3186	3186	3186	3186	3186	3186	3186	3186	3186	3186	3738	3738	3738	3738	3738	3738	3698	3698	3698	3698	3698	3738	3738	3738	3738	3738	3738	3738	3738	3738	3738	3698	3698	3698	3698	3659	3659	3659	3659	3659	3698	3659	3698	3698	3698	3698	3698	3738	3698	3738	3659	3659	3659	3659	3659	3659	3698	3698	3698	3698	3698	3698	3698	3698	3698	3698	3698	3698	3659	3659	3659	3659	3659	3659	3659	3659	3659	3659	3659	3698	3659	3659	3659	3659	3659	3659	3659	3659	3659	3659	3659	3659	3659	3659	3659	3659	3659	3659	3659	3621	3621	3659	3659	3659	3659	3659	3659	3659	3659	3698	3698	3698	3698	3698	3659	3698	3698	3659	3659	3659	3659	3659	3659	3659	3659	3698	3659	3659	3659	3698	3659	3659	3659	3659	3659	3659	3659	3659	3659	3659	3659	3659	3659	3659	3621	3621	3621	3621	3621	3621	3621	3659	3621	3621	3621	3621	3659	3659	3659	3659	3659	3659	3659	3659	3659	3659	3659	3659	3659	3659	3659	3621	3659	3621	3659	3659	3621	3621	3621	3621	3621	3621	3659	3659	3659	3659	3659	3659	3659	3621	3621	3621	3621	3621	0	0	0	0	0	0	0	0	0	0	0	0	0	0	0	0	0	0	0	0	0	0	0	0	0	0	0	0	0	0	0	0	0	0	0	0	0	0	0	0	0	0	0	0	0	0	0	0	0	0	0	0	0	0	0	0	0	0	0	0	0	0	0	0	0	0	0	0	0	0	0	0	0	0	0	0	0	0	0	0	0	0	0	0	0	0	0	0	0	0	0	0	0	0	0	0	0	0	0	0	0	0	0	0	0	0	0	0	0	0	0	0	0	0	0	0	0	0	0	0	0	0	0	0	0
0	0	0	0	0	0	0	0	0	0	1560	1560	1553	1553	1553	1553	1553	1553	1553	1560	1560	1567	1581	1567	1589	1596	1596	1603	1603	1611	1611	1904	1904	1894	1883	1873	1883	1873	1873	1873	1873	1873	1873	1863	1873	1873	1873	1873	1873	1873	1873	1873	1883	1883	1883	1883	1883	1883	1883	1873	1863	1863	1863	1873	1873	1894	1904	1904	1904	1904	1915	1904	1915	1915	1915	1915	1925	1925	1925	1925	0	2711	2711	2690	2669	2669	2649	2629	2629	2649	2629	2629	2649	2649	2669	2669	2649	2649	2629	2629	2629	2629	2649	2649	2669	2669	2669	2649	2649	2649	2649	2649	2649	2649	2649	2649	2669	2669	2669	2669	2649	2649	2649	2629	2629	2629	2649	2649	2649	2649	2629	2649	2629	2629	2629	2629	2609	2629	2629	2629	2629	2629	2629	2629	2629	2629	2629	2629	2629	2649	2649	2649	2649	2669	2669	2649	2649	2649	3821	3821	3779	3779	3779	3738	3738	3738	3698	3698	3698	3698	3738	3779	3779	3779	3779	3738	3738	3738	3738	3738	3738	3738	3738	3738	3738	3738	3738	3738	3738	3779	3738	3779	3738	3738	3779	3738	3738	3738	3738	3738	3738	3738	3738	3738	3698	3779	3779	3779	3779	3779	3779	3779	3779	3779	3821	3821	3779	3821	3821	3821	3821	3779	3779	3779	3779	3779	3779	3779	3779	3779	3821	3821	3779	3779	3779	3779	3779	3779	3779	3779	3779	3738	3738	3738	3738	3738	3738	3738	3779	3779	3738	3738	3738	3738	3738	3779	3738	3738	3738	3779	3779	3779	3779	3821	3821	3821	3821	3821	3821	3821	3779	3779	3821	3821	3779	3779	3779	3738	3738	3738	3738	3779	3738	3738	3779	3779	3738	3738	3738	3738	3738	3738	3738	3738	3738	3738	3738	3738	3738	3738	3738	3738	3738	3738	3738	3698	3738	3157	3157	3157	3186	3186	3157	3157	3186	3186	3186	3186	3186	3186	3186	3186	3186	3186	3186	3186	3186	3186	3186	3157	3157	3738	3738	3738	3738	3738	3698	3698	3698	3698	3698	3698	3738	3738	3738	3738	3738	3738	3738	3738	3738	3738	3698	3698	3698	3659	3659	3659	3621	3621	3659	3659	3659	3659	3698	3698	3698	3738	3738	3738	3738	3659	3659	3659	3659	3659	3659	3698	3698	3698	3698	3698	3698	3698	3698	3698	3698	3698	3659	3659	3659	3659	3659	3659	3659	3659	3659	3659	3659	3659	3698	3659	3659	3659	3659	3659	3659	3659	3659	3659	3659	3659	3659	3659	3659	3659	3659	3659	3659	3621	3621	3621	3659	3659	3659	3659	3659	3659	3659	3659	3659	3659	3659	3659	3659	3659	3659	3659	3659	3659	3659	3659	3659	3698	3659	3659	3698	3659	3659	3659	3659	3659	3659	3659	3659	3659	3659	3659	3659	3659	3659	3621	3621	3621	3621	3621	3621	3621	3621	3659	3621	3621	3659	3621	3621	3621	3621	3659	3659	3659	3659	3659	3659	3659	3659	3659	3659	3659	3659	3659	3659	3621	3621	3621	3621	3621	3659	3621	3621	3621	3621	3621	3621	3621	3659	3621	3659	3659	3659	3659	3621	3621	3621	3621	3583	3583	0	0	0	0	0	0	0	0	0	0	0	0	0	0	0	0	0	0	0	0	0	0	0	0	0	0	0	0	0	0	0	0	0	0	0	0	0	0	0	0	0	0	0	0	0	0	0	0	0	0	0	0	0	0	0	0	0	0	0	0	0	0	0	0	0	0	0	0	0	0	0	0	0	0	0	0	0	0	0	0	0	0	0	0	0	0	0	0	0	0	0	0	0	0	0	0	0	0	0	0	0	0	0	0	0	0	0	0	0	0	0	0	0	0	0	0	0	0	0	0	0	0	0	0
0	0	0	0	0	0	0	0	0	0	1560	1553	1553	1553	1553	1553	1553	1553	1553	1560	1560	1567	1581	1567	1581	1589	1589	1596	1596	1618	1618	1904	1894	1894	1883	1883	1883	1883	1883	1883	1883	1883	1873	1873	1873	1883	1873	1873	1883	1883	1883	1894	1894	1894	1894	1894	1883	1894	1883	1883	1873	1873	1873	1883	1925	1904	1915	1915	1915	1915	1915	1915	1915	1915	1915	1915	1925	1936	1936	1936	1936	1936	2711	2711	2690	2690	2649	2649	2649	2649	2629	2649	2649	2649	2669	2669	2649	2649	2629	2629	2629	2629	2649	2649	2669	2669	2649	2649	2649	2649	2649	2649	2649	2649	2649	2669	2669	2669	2669	2669	2649	2649	2629	2629	2629	2629	2649	2649	2649	2649	2629	2649	2649	2649	2629	2629	2629	2609	2629	2629	2629	2629	2629	2629	2629	2629	2629	2629	2629	2649	2649	2649	2669	2669	2669	2649	2649	2649	3821	3821	3779	3779	3779	3779	3738	3738	3738	3738	3738	3738	3738	3738	3779	3738	3738	3738	3738	3738	3738	3738	3698	3738	3738	3738	3738	3738	3738	3738	3738	3738	3738	3738	3738	3738	3779	3738	3738	3698	3738	3738	3738	3738	3738	3698	3698	3779	3779	3779	3779	3779	3779	3779	3779	3779	3821	3779	3779	3821	3821	3779	3779	3779	3779	3779	3779	3779	3779	3779	3779	3821	3821	3821	3779	3779	3779	3779	3738	3738	3738	3779	3738	3738	3738	3738	3738	3738	3738	3738	3738	3738	3738	3738	3738	3738	3738	3779	3738	3738	3738	3779	3779	3779	3821	3821	3779	3779	3821	3821	3821	3779	3779	3779	3779	3779	3779	3779	3738	3738	3738	3738	3738	3738	3738	3738	3738	3738	3779	3738	3738	3738	3738	3738	3738	3738	3738	3738	3738	3738	3738	3738	3738	3738	3738	3738	3698	3698	3698	3157	3157	3186	3186	3186	3157	3186	3186	3186	3186	3186	3186	3186	3186	3186	3186	3186	3157	3186	3186	3186	3186	3157	3157	3157	3738	3738	3738	3738	3738	3698	3698	3698	3698	3738	3738	3738	3738	3738	3738	3738	3738	3738	3738	3738	3698	3698	3659	3659	3659	3659	3621	3621	3621	3659	3659	3659	3698	3698	3698	3738	3738	3738	3738	3659	3659	3659	3659	3659	3659	3698	3698	3698	3698	3698	3698	3698	3698	3698	3698	3698	3698	3659	3659	3659	3659	3659	3659	3659	3659	3659	3659	3659	3698	3659	3659	3659	3659	3659	3659	3659	3659	3659	3659	3659	3659	3659	3659	3659	3659	3659	3659	3621	3621	3621	3659	3659	3659	3659	3659	3659	3659	3659	3659	3659	3659	3659	3659	3659	3659	3659	3659	3659	3659	3659	3659	3659	3659	3659	3659	3659	3659	3659	3659	3659	3659	3659	3659	3659	3659	3659	3659	3659	3659	3659	3621	3659	3621	3621	3621	3659	3659	3659	3659	3621	3659	3621	3621	3621	3621	3659	3659	3659	3659	3659	3659	3659	3659	3659	3659	3659	3659	3621	3621	3621	3621	3621	3621	3621	3621	3621	3621	3621	3621	3621	3621	3659	3659	3659	3659	3659	3659	3621	3621	3621	3621	3621	3583	3583	0	0	0	0	0	0	0	0	0	0	0	0	0	0	0	0	0	0	0	0	0	0	0	0	0	0	0	0	0	0	0	0	0	0	0	0	0	0	0	0	0	0	0	0	0	0	0	0	0	0	0	0	0	0	0	0	0	0	0	0	0	0	0	0	0	0	0	0	0	0	0	0	0	0	0	0	0	0	0	0	0	0	0	0	0	0	0	0	0	0	0	0	0	0	0	0	0	0	0	0	0	0	0	0	0	0	0	0	0	0	0	0	0	0	0	0	0	0	0	0	0	0	0	0
0	0	0	0	0	0	0	0	0	0	1553	1553	1553	1553	1553	1553	1553	1553	1553	1560	1560	1567	1567	1567	1567	1589	1589	1589	1589	1611	1611	1904	1894	1894	1894	1894	1894	1894	1894	1894	1894	1883	1883	1883	1883	1883	1883	1904	1904	1904	1904	1904	1904	1904	1904	1904	1904	1904	1904	1894	1883	1883	1883	1904	1904	1904	1915	1915	1915	1915	1915	1915	1915	1915	1915	1915	1925	1936	1936	1936	1947	1947	0	2711	2690	2690	2649	2629	2649	2629	2629	2629	2629	2649	2669	2669	2649	2649	2649	2649	2649	2649	2649	2649	2669	2669	2649	2649	2649	2649	2649	2649	2649	2649	2649	2649	2669	2669	2669	2649	2649	2649	2629	2629	2629	2629	2629	2629	2649	2649	2649	2649	2649	2629	2629	2629	2629	2629	2629	2629	2629	2629	2629	2629	2629	2629	2629	2629	2629	2649	2649	2649	2649	2669	2649	2649	2649	2629	2629	3821	3779	3779	3779	3779	3779	3738	3738	3738	3738	3738	3738	3738	3738	3738	3738	3738	3779	3738	3738	3738	3738	3738	3738	3698	3738	3698	3738	3738	3738	3738	3738	3698	3738	3738	3698	3698	3698	3698	3698	3698	3698	3738	3698	3738	3698	3779	3738	3738	3738	3779	3738	3779	3779	3779	3821	3779	3821	3821	3821	3821	3779	3779	3779	3779	3779	3779	3779	3779	3779	3821	3821	3779	3779	3779	3779	3779	3738	3738	3779	3779	3779	3738	3738	3738	3738	3738	3738	3738	3738	3738	3738	3738	3738	3738	3738	3738	3738	3738	3738	3779	3779	3821	3821	3821	3779	3779	3779	3779	3779	3779	3779	3779	3779	3779	3779	3779	3738	3738	3738	3738	3738	3738	3738	3738	3738	3738	3738	3738	3738	3738	3738	3738	3738	3738	3738	3738	3738	3738	3738	3738	3738	3738	3738	3738	3738	3698	3186	3186	3186	3186	3186	3186	3157	3186	3186	3186	3186	3186	3186	3186	3186	3186	3186	3157	3157	3186	3186	3186	3186	3186	3186	3186	3738	3738	3738	3738	3738	3738	3698	3698	3698	3738	3738	3738	3738	3738	3738	3738	3738	3738	3738	3738	3698	3698	3659	3659	3659	3659	3659	3659	3659	3659	3659	3698	3698	3698	3698	3738	3738	3738	3698	3698	3659	3659	3659	3659	3659	3698	3698	3698	3698	3698	3698	3698	3698	3698	3698	3698	3659	3659	3659	3659	3659	3659	3659	3659	3659	3659	3659	3659	3659	3659	3659	3659	3659	3659	3659	3659	3659	3659	3659	3659	3659	3659	3659	3659	3659	3659	3659	3621	3621	3621	3659	3698	3698	3698	3698	3698	3698	3698	3698	3698	3698	3698	3659	3659	3659	3659	3659	3659	3659	3659	3659	3659	3659	3659	3698	3698	3698	3659	3659	3659	3698	3659	3659	3659	3659	3659	3659	3659	3659	3659	3659	3621	3659	3621	3659	3659	3659	3659	3659	3621	3659	3621	3621	3621	3621	3659	3659	3659	3659	3659	3659	3659	3659	3659	3698	3659	3659	3621	3659	3621	3621	3621	3621	3621	3621	3583	3583	3621	3621	3621	3621	3621	3659	3621	3659	3659	3621	3621	3621	3583	3583	3583	3583	3583	0	0	0	0	0	0	0	0	0	0	0	0	0	0	0	0	0	0	0	0	0	0	0	0	0	0	0	0	0	0	0	0	0	0	0	0	0	0	0	0	0	0	0	0	0	0	0	0	0	0	0	0	0	0	0	0	0	0	0	0	0	0	0	0	0	0	0	0	0	0	0	0	0	0	0	0	0	0	0	0	0	0	0	0	0	0	0	0	0	0	0	0	0	0	0	0	0	0	0	0	0	0	0	0	0	0	0	0	0	0	0	0	0	0	0	0	0	0	0	0	0	0	0	0
0	0	0	0	0	0	0	0	0	0	1560	1553	1553	1553	1553	1553	1553	1553	1553	1560	1553	1553	1560	1560	1567	1567	1581	1581	1589	1589	1589	1894	1894	1894	1894	1894	1894	1904	1904	1904	1904	1904	1894	1894	1894	1904	1915	1915	1915	1915	1915	1915	1915	1915	1915	1904	1904	1904	1904	1894	1894	1883	1883	1894	1904	1904	1915	1915	1915	1915	1915	1915	1915	1915	1915	1925	1936	1936	1947	1947	1958	1958	0	2711	2690	2690	2649	2649	2649	2629	2629	2629	2629	2629	2649	2669	2649	2649	2649	2649	2649	2649	2649	2629	2649	2649	2649	2649	2649	2649	2649	2649	2649	2649	2649	2649	2669	2649	2649	2649	2649	2649	2629	2629	2629	2629	2629	2629	2629	2629	2629	2649	2649	2629	2629	2629	2629	2629	2629	2629	2629	2629	2629	2629	2629	2629	2629	2629	2629	2649	2649	2649	2669	2669	2649	2649	2629	2609	2609	3779	3779	3779	3779	3779	3779	3738	3738	3779	3779	3738	3738	3738	3738	3738	3738	3779	3779	3779	3779	3738	3738	3779	3779	3698	3779	3698	3738	3738	3738	3738	3738	3738	3738	3698	3698	3698	3698	3698	3698	3698	3698	3738	3698	3698	3698	3738	3738	3738	3738	3738	3738	3779	3779	3779	3779	3779	3779	3821	3821	3779	3779	3779	3779	3779	3779	3779	3779	3779	3779	3779	3779	3779	3779	3779	3779	3779	3738	3738	3738	3738	3738	3738	3738	3738	3738	3738	3738	3738	3738	3738	3738	3738	3738	3738	3738	3738	3738	3738	3738	3779	3779	3779	3779	3779	3779	3779	3779	3779	3779	3779	3779	3779	3779	3738	3738	3738	3738	3738	3738	3738	3738	3738	3738	3738	3738	3738	3738	3738	3738	3738	3738	3738	3738	3738	3738	3738	3738	3738	3738	3738	3738	3738	3738	3738	3738	3738	3186	3186	3186	3157	3157	3157	3157	3186	3186	3186	3186	3186	3186	3186	3186	3186	3186	3157	3157	3186	3186	3186	3186	3186	3186	3186	3186	3186	3738	3738	3738	3698	3698	3698	3698	3738	3738	3738	3738	3738	3738	3738	3738	3738	3738	3738	3698	3698	3698	3659	3659	3659	3659	3659	3659	3659	3659	3659	3698	3698	3698	3698	3738	3738	3698	3698	3698	3659	3659	3659	3659	3698	3659	3659	3698	3698	3698	3698	3698	3698	3698	3698	3659	3659	3659	3659	3659	3659	3659	3659	3659	3659	3659	3659	3659	3659	3659	3659	3659	3659	3659	3659	3659	3659	3659	3659	3659	3659	3659	3659	3659	3659	3659	3621	3621	3621	3659	3698	3698	3659	3698	3698	3698	3698	3698	3698	3698	3698	3698	3659	3659	3659	3659	3659	3659	3659	3659	3659	3659	3659	3698	3698	3698	3659	3659	3659	3659	3659	3659	3659	3659	3659	3659	3659	3659	3659	3659	3659	3621	3621	3621	3621	3659	3659	3659	3659	3659	3621	3621	3621	3621	3659	3659	3659	3621	3659	3659	3659	3659	3659	3659	3659	3621	3621	3621	3621	3621	3621	3621	3621	3621	3583	3583	3621	3621	3583	3621	3621	3621	3621	3621	3621	3621	3621	3583	3583	3583	3546	3546	3546	0	0	0	0	0	0	0	0	0	0	0	0	0	0	0	0	0	0	0	0	0	0	0	0	0	0	0	0	0	0	0	0	0	0	0	0	0	0	0	0	0	0	0	0	0	0	0	0	0	0	0	0	0	0	0	0	0	0	0	0	0	0	0	0	0	0	0	0	0	0	0	0	0	0	0	0	0	0	0	0	0	0	0	0	0	0	0	0	0	0	0	0	0	0	0	0	0	0	0	0	0	0	0	0	0	0	0	0	0	0	0	0	0	0	0	0	0	0	0	0	0	0	0	0
0	0	0	0	0	0	0	0	0	0	1560	1553	1553	1553	1553	1553	1546	1546	1546	1546	1553	1560	1560	1567	1567	1589	1589	1581	1589	1603	1603	1904	1894	1904	1894	1904	1904	1915	1904	1904	1904	1904	1904	1904	1904	1915	1925	1925	1925	1925	1925	1925	1925	1915	1915	1915	1915	1915	1915	1904	1904	1904	1904	1915	1925	1915	1925	1925	1925	1925	1925	1925	1915	1925	1925	1925	1936	1936	1947	1947	1958	1969	1969	1969	2690	2669	2649	2629	2629	2629	2609	2629	2629	2649	2669	2669	2669	2649	2669	2669	2649	2649	2649	2629	2649	2649	2649	2649	2649	2649	2649	2649	2649	2649	2649	2649	2669	2649	2649	2649	2649	2629	2629	2629	2629	2629	2629	2629	2629	2629	2629	2649	2649	2649	2629	2629	2629	2629	2629	2629	2629	2629	2629	2629	2629	2629	2629	2629	2629	2649	2649	2649	2649	2649	2649	2649	2669	2669	2609	3779	3779	3779	3779	3779	3779	3779	3779	3779	3779	3738	3738	3738	3738	3738	3738	3779	3779	3779	3779	3779	3779	3779	3779	3779	3779	3738	3738	3738	3738	3738	3738	3698	3738	3698	3698	3698	3698	3698	3698	3698	3698	3698	3698	3698	3698	3738	3738	3738	3738	3738	3738	3779	3779	3779	3779	3779	3779	3821	3821	3779	3779	3738	3779	3779	3779	3779	3779	3779	3779	3821	3779	3779	3779	3779	3779	3779	3738	3738	3738	3738	3738	3738	3738	3738	3738	3738	3738	3738	3738	3738	3738	3738	3738	3738	3738	3738	3738	3738	3738	3779	3779	3821	3821	3779	3779	3779	3779	3779	3779	3738	3738	3738	3738	3738	3738	3738	3738	3738	3738	3738	3738	3738	3738	3738	3738	3738	3738	3738	3738	3738	3738	3738	3738	3738	3738	3738	3738	3738	3738	3738	3738	3738	3738	3738	3779	3186	3186	3157	3157	3157	3157	3157	3157	3186	3186	3186	3186	3186	3186	3157	3157	3157	3157	3157	3157	3186	3186	3186	3186	3186	3186	3186	3186	3186	3738	3738	3738	3738	3698	3698	3698	3698	3738	3738	3738	3738	3738	3738	3738	3738	3738	3738	3698	3698	3698	3659	3659	3659	3659	3659	3659	3659	3659	3659	3659	3659	3659	3698	3698	3698	3698	3698	3698	3698	3698	3698	3659	3698	3698	3698	3698	3698	3698	3698	3698	3698	3698	3698	3659	3659	3659	3659	3659	3659	3659	3659	3659	3659	3659	3659	3659	3659	3659	3659	3659	3659	3659	3659	3659	3659	3659	3659	3659	3659	3659	3659	3659	3659	3659	3659	3621	3621	3659	3698	3698	3659	3698	3698	3698	3698	3698	3698	3659	3659	3659	3659	3659	3659	3659	3659	3659	3659	3659	3659	3659	3659	3698	3698	3698	3659	3659	3659	3659	3659	3659	3659	3659	3659	3659	3659	3659	3621	3621	3659	3659	3621	3621	3659	3659	3659	3659	3659	3659	3659	3621	3621	3621	3621	3659	3659	3621	3659	3659	3659	3659	3659	3659	3659	3621	3621	3621	3621	3621	3621	3621	3621	3621	3583	3583	3583	3583	3583	3621	3621	3621	3621	3621	3621	3621	3621	3583	3583	3583	3583	3546	3546	0	0	0	0	0	0	0	0	0	0	0	0	0	0	0	0	0	0	0	0	0	0	0	0	0	0	0	0	0	0	0	0	0	0	0	0	0	0	0	0	0	0	0	0	0	0	0	0	0	0	0	0	0	0	0	0	0	0	0	0	0	0	0	0	0	0	0	0	0	0	0	0	0	0	0	0	0	0	0	0	0	0	0	0	0	0	0	0	0	0	0	0	0	0	0	0	0	0	0	0	0	0	0	0	0	0	0	0	0	0	0	0	0	0	0	0	0	0	0	0	0	0	0	0
0	0	0	0	0	0	0	0	0	0	1553	1553	1553	1553	1553	1546	1539	1546	1546	1553	1560	1560	1567	1567	1574	1581	1581	1589	1589	1589	1925	1904	1904	1904	1904	1904	1904	1915	1915	1904	1904	1915	1915	1915	1915	1925	1936	1936	1936	1936	1936	1936	1925	1925	1925	1925	1925	1925	1925	1925	1925	1925	1925	1915	1936	1936	1947	1947	1936	1936	1925	1936	1925	1925	1925	1925	1936	1947	1947	1958	1969	1969	1969	2003	2003	2003	2649	2609	2609	2609	2609	2609	2609	2629	2649	2669	2669	2669	2669	2669	2669	2649	2649	2649	2649	2649	2649	2649	2649	2649	2649	2669	2649	2669	2669	2669	2669	2649	2649	2649	2649	2629	2629	2629	2629	2629	2629	2629	2629	2629	2629	2649	2649	2629	2629	2629	2629	2629	2629	2629	2629	2629	2629	2629	2629	2629	2629	2629	2629	2649	2649	2649	2669	2669	2669	2669	2649	2649	2649	3779	3779	3779	3779	3779	3779	3779	3779	3779	3779	3738	3738	3738	3738	3738	3738	3738	3779	3779	3779	3738	3738	3779	3779	3698	3698	3698	3698	3698	3738	3698	3738	3698	3698	3698	3698	3659	3698	3659	3659	3698	3698	3698	3698	3698	3698	3738	3738	3738	3738	3738	3779	3779	3779	3779	3779	3779	3779	3779	3779	3779	3779	3779	3779	3779	3779	3779	3779	3779	3779	3779	3779	3779	3779	3779	3779	3779	3738	3738	3738	3738	3738	3738	3738	3738	3779	3779	3738	3738	3738	3738	3738	3738	3738	3738	3738	3738	3738	3738	3738	3779	3779	3821	3779	3779	3779	3779	3779	3779	3779	3738	3738	3738	3738	3738	3738	3738	3738	3738	3738	3738	3738	3738	3738	3738	3738	3738	3738	3738	3738	3738	3738	3738	3738	3738	3738	3738	3779	3779	3779	3779	3738	3738	3216	3216	3186	3186	3186	3157	3157	3157	3157	3157	3157	3186	3157	3186	3186	3186	3186	3186	3186	3186	3157	3157	3157	3157	3186	3186	3186	3186	3186	3186	3186	3157	3157	3157	3738	3738	3698	3698	3698	3698	3698	3698	3698	3698	3738	3738	3738	3738	3738	3738	3738	3698	3698	3698	3659	3659	3659	3659	3621	3621	3659	3659	3659	3659	3659	3698	3698	3738	3698	3698	3698	3698	3698	3698	3659	3698	3698	3698	3698	3698	3698	3698	3698	3698	3698	3698	3698	3698	3659	3659	3659	3659	3659	3698	3659	3698	3698	3659	3698	3659	3659	3659	3659	3659	3659	3659	3659	3659	3659	3659	3659	3659	3659	3659	3659	3621	3659	3621	3621	3621	3659	3659	3659	3659	3659	3698	3698	3698	3698	3698	3698	3659	3659	3659	3659	3659	3659	3659	3659	3659	3659	3659	3659	3659	3698	3659	3659	3659	3659	3659	3659	3659	3659	3621	3621	3659	3659	3659	3659	3659	3659	3659	3659	3659	3659	3659	3659	3659	3659	3659	3659	3659	3659	3659	3659	3659	3659	3659	3659	3659	3659	3659	3698	3659	3659	3659	3621	3621	3621	3621	3621	3621	3621	3621	3583	3583	3583	3583	3583	3583	3583	3583	3621	3621	3621	3621	3621	3621	3621	3583	3583	3583	3583	3583	0	0	0	0	0	0	0	0	0	0	0	0	0	0	0	0	0	0	0	0	0	0	0	0	0	0	0	0	0	0	0	0	0	0	0	0	0	0	0	0	0	0	0	0	0	0	0	0	0	0	0	0	0	0	0	0	0	0	0	0	0	0	0	0	0	0	0	0	0	0	0	0	0	0	0	0	0	0	0	0	0	0	0	0	0	0	0	0	0	0	0	0	0	0	0	0	0	0	0	0	0	0	0	0	0	0	0	0	0	0	0	0	0	0	0	0	0	0	0	0	0	0	0	0
0	0	0	0	0	0	0	0	0	0	1546	1546	1546	1553	1553	1546	1546	1539	1546	1553	1560	1567	1574	1574	1574	1574	1581	1589	1589	1936	1936	1915	1904	1904	1904	1904	1904	1915	1915	1915	1915	1915	1915	1925	1925	1936	1947	1947	1936	1947	1936	1936	1936	1936	1936	1925	1936	1936	1936	1925	1915	1915	1925	1915	1936	1936	1947	1936	1936	1936	1936	1947	1936	1925	1925	1936	1936	1947	1947	1958	1969	1969	1980	1980	2003	2027	2003	2003	2609	2609	2609	2609	2609	2629	2649	2669	2649	2649	2669	2669	2669	2649	2669	2649	2649	2649	2649	2649	2669	2669	2669	2669	2669	2669	2669	2649	2649	2649	2649	2629	2629	2629	2629	2629	2629	2629	2629	2629	2629	2629	2629	2649	2629	2629	2629	2629	2629	2629	2629	2629	2629	2629	2629	2629	2629	2629	2629	2629	2629	2649	2649	2649	2649	2649	2649	2649	2629	2629	2649	3779	3738	3779	3779	3779	3779	3779	3779	3779	3779	3738	3738	3738	3738	3738	3698	3738	3779	3779	3779	3738	3779	3779	3779	3779	3698	3698	3698	3698	3698	3698	3738	3698	3698	3698	3698	3659	3659	3659	3659	3659	3659	3698	3698	3698	3698	3738	3738	3738	3779	3779	3779	3779	3779	3779	3779	3779	3779	3779	3779	3779	3779	3779	3779	3779	3821	3779	3779	3779	3821	3821	3779	3779	3779	3779	3779	3779	3738	3738	3738	3738	3738	3738	3738	3738	3779	3779	3738	3738	3779	3738	3738	3738	3738	3738	3738	3738	3738	3738	3738	3779	3779	3779	3779	3779	3779	3779	3779	3779	3779	3738	3738	3738	3738	3738	3738	3738	3738	3738	3738	3738	3738	3738	3738	3738	3738	3738	3738	3738	3738	3738	3738	3738	3738	3738	3738	3738	3186	3186	3186	3186	3186	3186	3186	3186	3186	3186	3186	3157	3157	3157	3157	3129	3129	3157	3157	3157	3186	3186	3157	3157	3157	3157	3157	3157	3157	3157	3157	3186	3186	3186	3186	3186	3186	3186	3157	3157	3157	3779	3738	3738	3738	3698	3698	3698	3698	3698	3738	3738	3738	3738	3738	3738	3738	3698	3698	3698	3698	3659	3659	3659	3659	3659	3659	3659	3659	3659	3659	3698	3738	3738	3738	3738	3738	3738	3738	3698	3698	3698	3698	3698	3698	3698	3698	3698	3698	3698	3698	3659	3659	3659	3698	3698	3698	3659	3659	3698	3698	3698	3659	3659	3659	3659	3659	3659	3659	3659	3659	3659	3659	3659	3659	3659	3659	3659	3659	3659	3621	3621	3621	3621	3621	3621	3659	3659	3659	3659	3698	3698	3659	3698	3698	3698	3659	3659	3659	3659	3659	3659	3659	3659	3659	3659	3659	3659	3659	3659	3659	3659	3659	3659	3659	3659	3659	3659	3659	3621	3621	3621	3659	3659	3659	3659	3659	3659	3621	3621	3621	3621	3659	3659	3659	3659	3659	3659	3659	3621	3621	3659	3659	3659	3621	3659	3659	3659	3698	3659	3659	3659	3659	3621	3621	3621	3621	3621	3621	3583	3583	3583	3583	3583	3583	3583	3621	3583	3621	3621	3621	3621	3621	3621	3621	3621	3621	3621	3621	3583	0	0	0	0	0	0	0	0	0	0	0	0	0	0	0	0	0	0	0	0	0	0	0	0	0	0	0	0	0	0	0	0	0	0	0	0	0	0	0	0	0	0	0	0	0	0	0	0	0	0	0	0	0	0	0	0	0	0	0	0	0	0	0	0	0	0	0	0	0	0	0	0	0	0	0	0	0	0	0	0	0	0	0	0	0	0	0	0	0	0	0	0	0	0	0	0	0	0	0	0	0	0	0	0	0	0	0	0	0	0	0	0	0	0	0	0	0	0	0	0	0	0	0	0
0	0	0	0	0	0	0	0	0	0	1546	1553	1546	1553	1553	1546	1546	1539	1546	1553	1553	1560	1567	1567	1567	1567	1567	1567	1947	1947	1936	1915	1915	1915	1904	1904	1904	1915	1915	1915	1925	1925	1936	1936	1936	1947	1947	1947	1947	1947	1947	1947	1947	1936	1947	1947	1947	1936	1947	1925	1925	1947	1947	1904	1925	1947	1947	1947	1947	1947	1947	1947	1947	1947	1947	1947	1947	1947	1947	1958	1958	1969	1980	1992	2003	2015	2003	2003	0	2609	2609	2609	2609	2609	2649	2649	2649	2649	2669	2669	2669	2649	2669	2649	2669	2669	2649	2649	2649	2669	2669	2669	2669	2669	2649	2649	2649	2629	2629	2629	2629	2629	2629	2629	2629	2629	2629	2629	2629	2629	2629	2629	2649	2649	2629	2629	2629	2629	2629	2629	2629	2649	2629	2629	2629	2629	2629	2629	2629	2649	2649	2649	2669	2649	2649	2649	2649	2649	0	3738	3738	3779	3779	3738	3738	3779	3821	3821	3779	3738	3738	3738	3738	3698	3698	3738	3738	3738	3738	3738	3779	3779	3779	3779	3698	3698	3698	3698	3698	3698	3698	3698	3698	3698	3698	3698	3698	3659	3659	3659	3659	3698	3698	3698	3698	3738	3738	3738	3779	3779	3779	3779	3779	3779	3779	3779	3779	3779	3779	3779	3779	3779	3779	3821	3821	3821	3821	3821	3821	3821	3779	3779	3779	3779	3779	3779	3738	3738	3738	3738	3738	3738	3738	3738	3738	3738	3738	3738	3738	3738	3738	3738	3738	3738	3738	3738	3738	3738	3738	3779	3779	3779	3779	3779	3738	3779	3738	3738	3738	3738	3738	3738	3738	3738	3738	3738	3738	3738	3738	3738	3738	3738	3738	3738	3738	3738	3738	3738	3738	3738	3738	3738	3738	3738	3738	3738	3186	3186	3186	3186	3186	3186	3186	3186	3186	3186	3186	3157	3157	3157	3129	3129	3129	3157	3157	3157	3157	3157	3157	3157	3157	3157	3157	3129	3157	3157	3157	3186	3186	3186	3157	3186	3186	3186	3186	3157	3186	3186	3216	3216	3216	3216	3698	3698	3738	3738	3738	3738	3738	3738	3738	3738	3738	3698	3698	3698	3698	3659	3659	3659	3659	3659	3659	3659	3659	3659	3659	3659	3738	3738	3738	3738	3738	3738	3738	3698	3698	3698	3698	3698	3698	3698	3698	3698	3698	3698	3698	3698	3698	3698	3698	3698	3698	3698	3698	3698	3659	3659	3659	3659	3659	3659	3659	3659	3659	3659	3659	3659	3659	3659	3659	3659	3659	3659	3659	3659	3621	3621	3621	3621	3621	3621	3659	3659	3659	3659	3698	3698	3698	3698	3698	3698	3698	3659	3659	3659	3659	3659	3659	3659	3659	3659	3659	3659	3659	3659	3659	3659	3659	3659	3659	3659	3659	3659	3659	3621	3621	3621	3659	3659	3659	3659	3659	3659	3621	3621	3621	3621	3621	3621	3659	3659	3659	3659	3659	3659	3659	3698	3659	3698	3659	3621	3621	3621	3621	3621	3659	3659	3659	3621	3621	3621	3621	3583	3583	3583	3583	3583	3583	3583	3583	3583	3583	3583	3583	3621	3621	3621	3621	3621	3621	3621	3583	3583	3621	0	0	0	0	0	0	0	0	0	0	0	0	0	0	0	0	0	0	0	0	0	0	0	0	0	0	0	0	0	0	0	0	0	0	0	0	0	0	0	0	0	0	0	0	0	0	0	0	0	0	0	0	0	0	0	0	0	0	0	0	0	0	0	0	0	0	0	0	0	0	0	0	0	0	0	0	0	0	0	0	0	0	0	0	0	0	0	0	0	0	0	0	0	0	0	0	0	0	0	0	0	0	0	0	0	0	0	0	0	0	0	0	0	0	0	0	0	0	0	0	0	0	0	0	0
0	0	0	0	0	0	0	0	0	0	1546	1546	1546	1546	1546	1546	1539	1539	1546	1553	1553	1560	1560	1567	1567	1567	1567	1567	1947	1947	1947	1925	1925	1915	1915	1915	1915	1925	1915	1925	1936	1947	1947	1947	1947	1958	1958	1958	1947	1958	1947	1947	1947	1947	1947	1947	1947	1947	1947	1925	1915	1915	1947	1904	1904	1947	1958	1947	1947	1958	1958	1958	1958	1947	1958	1958	1958	1958	1958	1958	1969	1980	1992	1992	2003	2015	2003	2015	2015	2003	2003	2589	2589	2609	2649	2649	2649	2649	2669	2669	2669	2649	2649	2649	2649	2649	2649	2649	2649	2669	2669	2669	2669	2649	2649	2649	2629	2629	2629	2629	2629	2629	2629	2629	2629	2629	2629	2629	2629	2629	2629	2649	2629	2629	2629	2629	2629	2629	2629	2629	2629	2629	2629	2629	2629	2629	2629	2629	2629	2649	2649	2649	2649	2649	2629	2629	2629	2629	0	3738	3738	3779	3738	3738	3738	3779	3779	3779	3779	3738	3738	3738	3738	3738	3698	3738	3738	3738	3738	3738	3779	3779	3779	3738	3698	3698	3698	3698	3698	3698	3698	3698	3698	3698	3698	3698	3698	3698	3698	3659	3659	3659	3659	3698	3698	3738	3738	3738	3738	3738	3738	3779	3779	3779	3821	3779	3779	3779	3821	3821	3821	3821	3821	3821	3821	3821	3821	3821	3821	3821	3821	3779	3821	3821	3779	3779	3779	3779	3779	3779	3738	3738	3738	3738	3738	3738	3738	3738	3738	3738	3738	3738	3738	3738	3738	3738	3738	3738	3738	3779	3779	3779	3779	3738	3738	3738	3738	3738	3738	3738	3738	3738	3738	3738	3738	3738	3738	3738	3738	3738	3738	3738	3738	3738	3738	3738	3738	3738	3738	3738	3738	3738	3738	3738	3216	3246	3246	3186	3186	3186	3186	3186	3186	3186	3186	3186	3186	3157	3157	3129	3129	3129	3129	3157	3157	3157	3157	3157	3157	3157	3129	3129	3129	3129	3129	3157	3157	3157	3157	3157	3157	3157	3157	3157	3186	3186	3186	3216	3186	3216	3216	3216	3216	3216	3216	3738	3738	3779	3738	3738	3738	3738	3738	3698	3698	3698	3698	3659	3659	3659	3659	3659	3659	3659	3659	3659	3659	3659	3738	3738	3698	3698	3738	3738	3738	3698	3698	3698	3698	3698	3698	3698	3698	3698	3698	3698	3698	3659	3698	3698	3698	3698	3698	3698	3698	3659	3659	3659	3659	3659	3659	3659	3659	3659	3659	3659	3659	3659	3659	3659	3659	3659	3659	3659	3659	3659	3621	3621	3621	3621	3621	3621	3659	3659	3659	3659	3698	3698	3698	3698	3698	3698	3698	3659	3698	3659	3659	3659	3659	3659	3659	3659	3659	3659	3659	3659	3659	3659	3659	3659	3659	3659	3659	3659	3659	3659	3621	3659	3659	3659	3659	3659	3659	3659	3621	3621	3621	3659	3621	3621	3659	3659	3659	3659	3659	3659	3659	3698	3659	3659	3621	3659	3621	3621	3621	3621	3621	3621	3659	3621	3621	3621	3621	3583	3583	3583	3583	3583	3546	3546	3583	3583	3583	3583	3583	3621	3621	3621	3621	3621	3621	3621	3583	3583	0	0	0	0	0	0	0	0	0	0	0	0	0	0	0	0	0	0	0	0	0	0	0	0	0	0	0	0	0	0	0	0	0	0	0	0	0	0	0	0	0	0	0	0	0	0	0	0	0	0	0	0	0	0	0	0	0	0	0	0	0	0	0	0	0	0	0	0	0	0	0	0	0	0	0	0	0	0	0	0	0	0	0	0	0	0	0	0	0	0	0	0	0	0	0	0	0	0	0	0	0	0	0	0	0	0	0	0	0	0	0	0	0	0	0	0	0	0	0	0	0	0	0	0	0	0
0	0	0	0	0	0	0	0	0	0	1539	1539	1539	1546	1539	1539	1539	1539	1546	1553	1560	1560	1560	1567	1567	1560	1560	1969	1958	1958	1947	1936	1925	1925	1925	1925	1915	1936	1925	1936	1947	1947	1947	1958	1958	1958	1958	1969	1958	1969	1958	1958	1958	1958	1958	1947	1947	1947	1947	1936	1925	1915	1915	1904	1904	1958	1958	1958	1958	1958	1969	1980	1969	1969	1969	1969	1969	1969	1969	1969	1969	1980	1992	1992	2003	2003	2003	2015	2003	2015	2015	2570	2589	2589	2629	2649	2649	2649	2669	2669	2649	2649	2649	2649	2649	2649	2649	2649	2649	2649	2669	2669	2649	2649	2649	2649	2629	2629	2629	2629	2629	2629	2629	2629	2649	2629	2629	2629	2629	2629	2629	2629	2629	2629	2629	2629	2629	2629	2629	2629	2629	2629	2629	2629	2629	2629	2629	2629	2629	2649	2649	2649	2649	2649	2649	2649	2629	2629	0	3738	3738	3738	3738	3738	3698	3779	3779	3779	3779	3738	3738	3738	3738	3738	3698	3738	3738	3738	3738	3698	3698	3698	3779	3698	3659	3659	3698	3698	3698	3698	3698	3659	3698	3698	3698	3698	3698	3698	3698	3698	3698	3698	3698	3698	3698	3698	3738	3738	3738	3779	3779	3779	3821	3821	3821	3779	3779	3779	3779	3821	3779	3821	3821	3821	3821	3821	3821	3821	3821	3821	3821	3821	3821	3821	3779	3779	3779	3779	3738	3738	3738	3738	3738	3738	3738	3738	3738	3738	3738	3738	3738	3738	3738	3738	3738	3738	3738	3738	3738	3779	3779	3779	3779	3738	3738	3738	3738	3738	3738	3738	3738	3738	3738	3738	3738	3738	3738	3738	3738	3738	3738	3738	3738	3738	3738	3738	3738	3738	3738	3738	3738	3779	3779	3216	3216	3216	3186	3186	3186	3186	3186	3186	3186	3186	3186	3186	3157	3157	3129	3129	3129	3129	3129	3157	3157	3157	3157	3157	3157	3157	3129	3129	3157	3129	3129	3129	3129	3129	3157	3157	3157	3157	3186	3157	3186	3186	3186	3216	3216	3216	3216	3216	3186	3186	3216	3216	3157	3157	3779	3779	3738	3738	3738	3698	3698	3698	3698	3659	3659	3659	3659	3659	3659	3659	3659	3659	3659	3659	3738	3738	3738	3738	3738	3738	3738	3698	3698	3738	3698	3659	3659	3698	3698	3698	3698	3698	3698	3698	3659	3659	3659	3659	3659	3659	3659	3659	3659	3659	3659	3659	3659	3659	3659	3659	3659	3659	3659	3659	3659	3659	3659	3659	3659	3659	3659	3659	3659	3659	3659	3621	3621	3621	3621	3659	3659	3659	3659	3698	3698	3659	3698	3698	3698	3659	3698	3698	3659	3659	3659	3659	3659	3659	3659	3659	3659	3659	3659	3659	3659	3659	3659	3621	3621	3621	3621	3621	3621	3659	3659	3659	3621	3621	3621	3621	3659	3621	3621	3621	3621	3621	3621	3621	3621	3583	3583	3583	3583	3621	3621	3621	3621	3659	3659	3659	3659	3659	3659	3659	3659	3659	3659	3659	3621	3583	3583	3583	3546	3583	3546	3546	3583	3583	3583	3583	3583	3621	3621	3621	3621	3621	3621	3621	3621	3583	3583	0	0	0	0	0	0	0	0	0	0	0	0	0	0	0	0	0	0	0	0	0	0	0	0	0	0	0	0	0	0	0	0	0	0	0	0	0	0	0	0	0	0	0	0	0	0	0	0	0	0	0	0	0	0	0	0	0	0	0	0	0	0	0	0	0	0	0	0	0	0	0	0	0	0	0	0	0	0	0	0	0	0	0	0	0	0	0	0	0	0	0	0	0	0	0	0	0	0	0	0	0	0	0	0	0	0	0	0	0	0	0	0	0	0	0	0	0	0	0	0	0	0	0	0	0
0	0	0	0	0	0	0	0	0	0	1539	1553	1553	1539	1560	1539	1539	1539	1546	1553	1560	1560	1567	1567	1567	1567	1567	1969	1969	1969	1969	1958	1947	1947	1947	1947	1936	1947	1947	1947	1958	1958	1958	1958	1958	1958	1969	1980	1969	1969	1969	1969	1969	1958	1958	1958	1958	1958	1947	1936	1936	1925	1925	1925	1925	1969	1958	1958	1958	1969	1980	1980	1969	1969	1980	1980	1980	1980	1980	1980	1980	1992	1992	1992	2003	2003	2003	2003	2015	2015	2015	2015	2570	2570	2609	2629	2629	2649	2649	2649	2649	2649	2649	2649	2649	2629	2629	2629	2629	2629	2649	2669	2669	2649	2649	2649	2629	2629	2629	2629	2629	2629	2629	2629	2649	2629	2629	2629	2629	2629	2629	2629	2629	2629	2629	2629	2629	2629	2629	2629	2629	2629	2629	2629	2629	2629	2629	2629	2629	2649	2649	2629	2649	2649	2649	2649	2649	2629	3821	3779	3779	3779	3779	3738	3779	3779	3821	3779	3779	3738	3738	3738	3738	3738	3698	3738	3738	3738	3738	3738	3698	3698	3698	3698	3698	3698	3698	3698	3698	3698	3698	3698	3698	3698	3698	3698	3738	3698	3698	3698	3698	3698	3659	3698	3698	3738	3738	3779	3779	3779	3779	3779	3821	3821	3821	3779	3821	3821	3821	3821	3821	3821	3821	3821	3821	3821	3821	3821	3821	3821	3821	3821	3821	3821	3779	3779	3738	3738	3738	3738	3738	3738	3738	3738	3738	3738	3738	3738	3738	3738	3738	3738	3738	3738	3738	3738	3738	3738	3738	3779	3779	3779	3779	3738	3738	3738	3738	3738	3738	3738	3738	3738	3738	3738	3738	3738	3738	3738	3738	3738	3738	3738	3738	3738	3738	3738	3738	3738	3738	3738	3779	3779	3186	3216	3216	3246	3216	3186	3186	3186	3186	3186	3186	3186	3186	3157	3157	3129	3129	3101	3129	3101	3101	3157	3157	3157	3157	3157	3129	3129	3129	3101	3101	3129	3101	3101	3129	3157	3157	3157	3129	3157	3157	3186	3186	3186	3186	3216	3216	3216	3216	3216	3186	3186	3157	3157	3157	3157	3157	3157	3157	3738	3738	3698	3698	3698	3698	3698	3698	3659	3659	3659	3659	3659	3659	3659	3659	3659	3738	3738	3738	3738	3738	3738	3698	3698	3698	3659	3698	3659	3659	3659	3698	3659	3698	3659	3698	3659	3659	3698	3698	3698	3659	3659	3659	3659	3659	3659	3659	3659	3659	3621	3659	3659	3621	3659	3659	3659	3659	3659	3659	3659	3659	3659	3659	3659	3659	3659	3621	3621	3621	3621	3659	3659	3659	3659	3659	3659	3659	3659	3659	3659	3659	3659	3659	3659	3659	3659	3659	3659	3659	3659	3659	3659	3659	3659	3659	3659	3659	3659	3659	3659	3659	3659	3621	3659	3621	3621	3621	3621	3621	3621	3621	3621	3621	3621	3621	3659	3621	3621	3621	3621	3621	3583	3583	3583	3583	3621	3659	3659	3659	3659	3659	3659	3659	3659	3659	3659	3659	3659	3659	3659	3621	3621	3583	3583	3583	3583	3546	3583	3583	3583	3583	3583	3583	3583	3583	3583	3621	3621	3621	3621	3583	3583	3583	0	0	0	0	0	0	0	0	0	0	0	0	0	0	0	0	0	0	0	0	0	0	0	0	0	0	0	0	0	0	0	0	0	0	0	0	0	0	0	0	0	0	0	0	0	0	0	0	0	0	0	0	0	0	0	0	0	0	0	0	0	0	0	0	0	0	0	0	0	0	0	0	0	0	0	0	0	0	0	0	0	0	0	0	0	0	0	0	0	0	0	0	0	0	0	0	0	0	0	0	0	0	0	0	0	0	0	0	0	0	0	0	0	0	0	0	0	0	0	0	0	0	0	0	0
0	0	0	0	0	0	0	0	0	0	1539	1539	1539	1539	1539	1546	1546	1546	1553	1553	1567	1567	1567	1574	1567	1567	1567	0	1969	1969	1969	1969	1958	1958	1969	1958	1958	1958	1958	1958	1958	1958	1958	1969	1969	1980	1980	1992	1992	1980	1980	1969	1969	1969	1969	1958	1958	1958	1947	1947	1947	1925	1925	1925	1925	1980	1980	1969	1969	1980	1980	1992	1980	1980	1980	1980	1992	1992	1980	1980	1980	1980	1992	1992	1992	2003	2003	2003	2015	2015	2015	2015	2015	2609	2609	2609	2629	2629	2629	2649	2649	2649	2629	2629	2629	2629	2629	2629	2629	2629	2649	2649	2649	2649	2649	2649	2629	2629	2629	2629	2629	2629	2629	2629	2629	2629	2649	2629	2629	2629	2629	2629	2629	2629	2609	2629	2629	2629	2629	2629	2629	2629	2629	2629	2629	2629	2629	2629	2629	2649	2649	2649	2649	2649	2649	2649	2649	0	3779	3779	3779	3779	3738	3738	3738	3779	3779	3779	3779	3779	3738	3738	3779	3738	3698	3738	3738	3738	3698	3698	3698	3659	3698	3659	3659	3659	3698	3659	3659	3698	3698	3659	3698	3698	3698	3738	3738	3698	3698	3698	3698	3698	3698	3698	3698	3738	3738	3738	3779	3779	3779	3779	3821	3821	3821	3821	3821	3821	3821	3821	3821	3821	3821	3821	3821	3821	3821	3821	3821	3821	3821	3821	3821	3821	3821	3779	3738	3738	3738	3738	3738	3738	3738	3738	3738	3779	3779	3738	3738	3738	3738	3738	3738	3738	3738	3738	3738	3738	3738	3779	3779	3779	3738	3738	3738	3738	3738	3738	3738	3738	3738	3738	3738	3738	3738	3738	3738	3738	3738	3738	3738	3738	3738	3738	3738	3738	3738	3738	3738	3907	3952	3952	3186	3216	3216	3216	3216	3186	3186	3186	3186	3157	3157	3157	3157	3157	3157	3129	3129	3129	3129	3129	3101	3157	3157	3157	3157	3157	3129	3129	3101	3101	3101	3101	3101	3101	3101	3101	3101	3129	3129	3157	3186	3186	3186	3186	3186	3216	3216	3216	3216	3216	3216	3186	3186	3186	3186	3186	3157	3157	3157	3738	3738	3698	3698	3698	3659	3659	3659	3659	3659	3659	3659	3698	3698	3698	3698	3698	3738	3738	3738	3698	3738	3698	3698	3698	3698	3698	3698	3659	3659	3698	3698	3698	3698	3659	3698	3698	3659	3698	3698	3698	3698	3698	3659	3659	3659	3659	3659	3659	3621	3659	3659	3659	3621	3621	3659	3659	3659	3659	3659	3659	3659	3659	3659	3659	3659	3621	3621	3621	3621	3621	3659	3659	3659	3659	3659	3659	3659	3659	3659	3659	3659	3659	3659	3659	3659	3659	3659	3659	3659	3659	3659	3659	3659	3659	3659	3659	3659	3659	3659	3659	3659	3659	3659	3659	3621	3621	3621	3621	3621	3621	3621	3659	3621	3621	3621	3621	3621	3621	3583	3583	3583	3583	3583	3583	3583	3621	3621	3621	3621	3659	3659	3659	3659	3698	3698	3698	3698	3659	3698	3659	3659	3659	3621	3583	3583	3583	3583	3583	3583	3583	3583	3583	3583	3583	3583	3583	3621	3621	3621	3583	3583	3583	3583	0	0	0	0	0	0	0	0	0	0	0	0	0	0	0	0	0	0	0	0	0	0	0	0	0	0	0	0	0	0	0	0	0	0	0	0	0	0	0	0	0	0	0	0	0	0	0	0	0	0	0	0	0	0	0	0	0	0	0	0	0	0	0	0	0	0	0	0	0	0	0	0	0	0	0	0	0	0	0	0	0	0	0	0	0	0	0	0	0	0	0	0	0	0	0	0	0	0	0	0	0	0	0	0	0	0	0	0	0	0	0	0	0	0	0	0	0	0	0	0	0	0	0	0	0
0	0	0	0	0	0	0	0	0	0	1539	1553	1553	1560	1560	1539	1539	1546	1553	1553	1560	1560	1567	1567	1567	1567	1574	1581	1581	1969	1969	1969	1969	1969	1980	1969	1969	1969	1969	1969	1969	1969	1969	1980	1992	2003	1992	2003	2003	1992	1992	1980	1980	1980	1969	1969	1969	1958	1958	1958	1958	0	0	0	0	1980	1980	1980	1980	1992	1992	1992	1992	1992	1992	1992	1992	1992	1992	1980	1980	1980	1992	1992	1992	1992	2003	2015	2015	2015	2015	2015	2015	2015	2015	2609	2609	2629	2629	2629	2629	2629	2629	2629	2629	2629	2629	2629	2629	2629	2629	2649	2649	2669	2669	2649	2629	2629	2629	2629	2629	2629	2629	2629	2629	2629	2649	2629	2629	2629	2629	2629	2629	2629	2629	2629	2629	2629	2629	2629	2629	2629	2629	2629	2629	2629	2629	2629	2629	2649	2649	2629	2649	2649	2629	2649	2649	0	3779	3821	3779	3779	3738	3779	3779	3779	3779	3779	3779	3779	3779	3779	3779	3738	3698	3738	3698	3738	3698	3698	3659	3659	3738	3659	3659	3659	3659	3659	3659	3659	3698	3698	3698	3698	3698	3738	3738	3738	3738	3738	3698	3698	3698	3698	3738	3738	3738	3779	3779	3779	3779	3779	3821	3821	3821	3821	3821	3821	3821	3821	3821	3821	3821	3821	3821	3821	3779	3821	3779	3779	3779	3821	3821	3821	3821	3779	3738	3738	3738	3738	3738	3698	3738	3738	3738	3738	3738	3738	3738	3738	3738	3698	3738	3698	3698	3738	3738	3738	3738	3738	3738	3738	3738	3738	3738	3738	3738	3738	3738	3738	3738	3738	3738	3738	3698	3698	3738	3698	3738	3738	3738	3738	3738	3698	3738	3738	3738	3738	3907	3952	3998	3186	3186	3216	3216	3216	3186	3186	3186	3186	3186	3186	3186	3157	3157	3129	3129	3129	3129	3129	3129	3129	3129	3157	3157	3157	3157	3129	3101	3101	3101	3101	3101	3101	3101	3101	3101	3101	3101	3101	3101	3129	3129	3157	3157	3157	3186	3186	3186	3186	3186	3186	3186	3186	3186	3186	3186	3186	3186	3186	3186	3186	3186	3698	3698	3698	3659	3659	3659	3659	3659	3659	3659	3698	3698	3698	3698	3698	3738	3738	3698	3698	3738	3738	3659	3698	3698	3698	3698	3659	3659	3698	3698	3698	3698	3698	3698	3698	3698	3698	3698	3698	3659	3698	3659	3659	3659	3659	3659	3659	3659	3659	3659	3659	3621	3621	3659	3659	3621	3621	3659	3659	3659	3659	3659	3621	3659	3659	3621	3621	3621	3621	3659	3659	3659	3659	3659	3659	3659	3659	3659	3659	3659	3659	3659	3659	3659	3659	3659	3659	3659	3659	3659	3659	3659	3659	3659	3659	3659	3659	3659	3659	3659	3659	3659	3659	3621	3621	3621	3621	3621	3621	3659	3659	3659	3621	3621	3621	3621	3621	3621	3621	3583	3583	3546	3583	3583	3621	3621	3621	3621	3659	3659	3659	3659	3659	3698	3698	3659	3659	3698	3659	3659	3659	3583	3583	3583	3583	3583	3583	3583	3583	3583	3583	3583	3583	3583	3583	3583	3621	3621	3621	3621	3583	3583	0	0	0	0	0	0	0	0	0	0	0	0	0	0	0	0	0	0	0	0	0	0	0	0	0	0	0	0	0	0	0	0	0	0	0	0	0	0	0	0	0	0	0	0	0	0	0	0	0	0	0	0	0	0	0	0	0	0	0	0	0	0	0	0	0	0	0	0	0	0	0	0	0	0	0	0	0	0	0	0	0	0	0	0	0	0	0	0	0	0	0	0	0	0	0	0	0	0	0	0	0	0	0	0	0	0	0	0	0	0	0	0	0	0	0	0	0	0	0	0	0	0	0	0	0
0	0	0	0	0	0	0	0	0	0	1539	1546	1553	1539	1539	1539	1546	1546	1553	1553	1553	1553	1560	1560	1567	1567	1574	1581	1581	1969	1980	1980	1980	1980	1980	1980	1980	1969	1980	1980	1969	1980	1980	2015	2027	2027	2003	2027	2003	2003	1992	1980	1980	1980	1980	1980	1980	1969	1958	1958	1958	0	0	0	0	0	1992	1992	1992	1992	1992	2003	1992	1992	1992	1992	1992	1992	1992	1980	1980	1992	1992	1992	1992	2003	2015	2015	2015	2039	2027	2039	2039	2076	2088	2101	2101	2101	2649	2629	2629	2629	2629	2629	2629	2629	2629	2629	2629	2629	2629	2649	2649	2649	2649	2649	2629	2629	2649	2629	2649	2649	2649	2629	2629	2629	2629	2629	2629	2629	2629	2629	2629	2629	2629	2629	2629	2629	2629	2629	2629	2629	2629	2629	2629	2629	2609	2629	2629	2649	2649	2629	2629	2649	2649	2649	2649	2649	3779	3779	3779	3779	3779	3779	3779	3779	3738	3738	3738	3738	3738	3738	3738	3738	3738	3738	3738	3738	3738	3738	3738	3738	3738	3738	3738	3738	3738	3698	3698	3698	3698	3659	3659	3698	3698	3738	3738	3738	3738	3738	3698	3698	3698	3738	3738	3779	3821	3821	3779	3779	3779	3738	3779	3779	3779	3779	3779	3779	3779	3821	3821	3821	3821	3821	3821	3821	3779	3779	3779	3779	3779	3821	3821	3821	3821	3779	3779	3738	3738	3738	3698	3698	3698	3738	3738	3738	3738	3738	3738	3738	3698	3738	3738	3738	3698	3698	3738	3738	3698	3738	3738	3738	3738	3738	3738	3738	3738	3738	3738	3738	3738	3738	3738	3698	3698	3698	3738	3698	3738	3738	3738	3738	3738	3698	3738	3738	3738	3186	3186	3186	3186	3186	3186	3216	3186	3186	3186	3186	3186	3186	3157	3157	3157	3157	3157	3129	3129	3129	3129	3129	3129	3129	3129	3157	3129	3157	3129	3129	3101	3101	3101	3101	3101	3101	3101	3101	3101	3101	3101	3101	3101	3129	3129	3157	3157	3157	3186	3186	3186	3186	3186	3186	3186	3186	3186	3186	3186	3186	3186	3186	3186	3186	3186	3186	3698	3698	3698	3659	3659	3698	3659	3659	3659	3698	3698	3698	3698	3698	3738	3738	3698	3698	3738	3698	3659	3698	3698	3698	3698	3659	3698	3698	3698	3698	3698	3698	3698	3698	3698	3698	3698	3698	3659	3698	3698	3659	3659	3659	3659	3659	3659	3659	3659	3659	3621	3621	3659	3659	3621	3621	3621	3659	3659	3659	3659	3621	3659	3659	3621	3621	3621	3621	3621	3659	3659	3659	3659	3659	3659	3659	3659	3659	3659	3659	3659	3659	3659	3659	3659	3659	3659	3659	3659	3659	3659	3659	3659	3621	3659	3659	3659	3659	3659	3659	3621	3621	3621	3621	3621	3621	3621	3621	3659	3659	3621	3621	3621	3621	3621	3621	3621	3583	3583	3583	3583	3583	3583	3621	3621	3621	3621	3659	3659	3659	3659	3659	3659	3698	3659	3659	3659	3659	3659	3659	3583	3583	3583	3583	3583	3583	3583	3583	3583	3583	3583	3583	3583	3583	3583	3621	3621	3621	3621	3583	3583	0	0	0	0	0	0	0	0	0	0	0	0	0	0	0	0	0	0	0	0	0	0	0	0	0	0	0	0	0	0	0	0	0	0	0	0	0	0	0	0	0	0	0	0	0	0	0	0	0	0	0	0	0	0	0	0	0	0	0	0	0	0	0	0	0	0	0	0	0	0	0	0	0	0	0	0	0	0	0	0	0	0	0	0	0	0	0	0	0	0	0	0	0	0	0	0	0	0	0	0	0	0	0	0	0	0	0	0	0	0	0	0	0	0	0	0	0	0	0	0	0	0	0	0	0
0	0	0	0	0	0	0	0	0	0	1546	1553	1553	1539	1539	1539	1546	1546	1546	1546	1553	1553	1560	1560	1560	1567	1574	1574	1574	0	1992	1992	1980	1992	1992	1992	1992	1992	1992	1992	1992	2003	2003	2027	2027	2027	2015	2027	2015	2003	1992	2003	1992	1992	1992	1992	1980	1992	1969	1969	1958	0	0	0	0	0	2003	1992	1992	2003	2003	2003	1992	1992	1992	1992	2003	2015	2015	2003	1992	1992	1992	1992	1980	1980	1992	2003	2015	2039	2039	2039	2051	2063	2076	2101	2101	2101	2649	2629	2629	2629	2629	2629	2629	2629	2629	2629	2609	2629	2629	2629	2649	2649	2649	2649	2649	2649	2649	2649	2649	2649	2649	2629	2629	2629	2629	2629	2629	2629	2649	2649	2649	2649	2629	2609	2629	2629	2629	2629	2629	2629	2629	2629	2629	2609	2609	2609	2629	2649	2649	2629	2629	2649	2649	2649	2649	2649	0	3779	3779	3779	3779	3779	3738	3738	3738	3698	3698	3698	3738	3738	3738	3698	3698	3698	3698	3698	3698	3738	3738	3738	3738	3738	3738	3738	3698	3698	3698	3698	3698	3659	3659	3698	3698	3738	3738	3738	3738	3738	3698	3698	3698	3698	3738	3779	3779	3779	3779	3779	3779	3779	3779	3779	3779	3779	3779	3821	3779	3821	3821	3821	3821	3821	3821	3821	3779	3779	3779	3779	3779	3821	3821	3821	3821	3779	3779	3738	3738	3738	3698	3738	3738	3738	3738	3738	3738	3738	3738	3738	3738	3738	3698	3698	3698	3698	3698	3698	3698	3738	3738	3738	3738	3738	3738	3738	3738	3738	3738	3738	3738	3738	3738	3698	3698	3698	3738	3738	3738	3738	3738	3738	3738	3698	3698	3186	3186	3186	3186	3186	3186	3186	3186	3186	3186	3186	3186	3186	3186	3186	3157	3157	3157	3157	3157	3129	3129	3129	3129	3101	3129	3129	3101	3157	3129	3157	3129	3129	3101	3101	3101	3101	3101	3101	3101	3101	3101	3101	3101	3101	3101	3129	3129	3129	3157	3157	3157	3186	3186	3186	3186	3186	3186	3186	3157	3157	3186	3186	3186	3186	3186	3186	3186	3186	3186	3698	3698	3698	3698	3698	3698	3698	3659	3698	3698	3698	3698	3698	3738	3738	3698	3698	3738	3738	3698	3698	3698	3738	3698	3698	3698	3698	3698	3698	3698	3698	3698	3698	3698	3698	3698	3698	3698	3698	3698	3659	3659	3659	3659	3659	3659	3659	3659	3659	3621	3621	3621	3621	3621	3621	3621	3659	3659	3659	3659	3659	3659	3659	3621	3621	3621	3621	3621	3659	3659	3659	3659	3659	3659	3659	3659	3659	3659	3659	3659	3659	3659	3659	3659	3659	3659	3659	3621	3659	3621	3659	3659	3621	3621	3659	3659	3659	3659	3659	3621	3621	3621	3621	3621	3621	3621	3659	3659	3659	3621	3621	3621	3621	3621	3621	3621	3621	3583	3583	3583	3583	3583	3621	3621	3621	3621	3659	3659	3659	3659	3659	3698	3698	3659	3659	3659	3659	3659	3621	3583	3583	3583	3583	3583	3583	3583	3583	3583	3583	3583	3583	3583	3583	3583	3621	3621	3621	3621	3583	3583	0	0	0	0	0	0	0	0	0	0	0	0	0	0	0	0	0	0	0	0	0	0	0	0	0	0	0	0	0	0	0	0	0	0	0	0	0	0	0	0	0	0	0	0	0	0	0	0	0	0	0	0	0	0	0	0	0	0	0	0	0	0	0	0	0	0	0	0	0	0	0	0	0	0	0	0	0	0	0	0	0	0	0	0	0	0	0	0	0	0	0	0	0	0	0	0	0	0	0	0	0	0	0	0	0	0	0	0	0	0	0	0	0	0	0	0	0	0	0	0	0	0	0	0	0
0	0	0	0	0	0	0	0	0	0	1539	1546	1546	1546	1546	1553	1553	1553	1553	1546	1560	1553	1560	1560	1560	1560	1560	1553	1553	1553	1992	1992	1992	2015	1992	1992	1992	2003	2027	2027	2027	2027	2027	2039	2039	2039	2027	2015	2003	2003	1992	1992	1992	1992	2003	2003	2003	2003	2003	1969	0	0	0	0	0	0	2003	1992	2003	2003	2003	2015	2027	2015	2015	2015	2015	2015	2015	2003	2003	2003	1992	1992	1980	1980	2003	2003	2003	2039	2039	2039	2051	2063	2076	2088	2101	2101	2101	2101	2629	2629	2629	2629	2629	2629	2629	2629	2629	2629	2629	2629	2649	2649	2649	2649	2649	2649	2649	2649	2649	2649	2649	2649	2629	2629	2629	2629	2629	2629	2629	2649	2649	2649	2629	2629	2629	2629	2629	2629	2609	2629	2629	2629	2609	2609	2609	2609	2609	2649	2629	2629	2629	2649	2649	2649	2669	2669	0	3779	3779	3779	3779	3779	3738	3738	3738	3698	3698	3698	3698	3698	3698	3698	3738	3738	3738	3698	3738	3738	3738	3738	3738	3738	3738	3738	3698	3698	3698	3698	3698	3659	3659	3698	3738	3698	3738	3738	3698	3698	3698	3698	3698	3698	3738	3779	3821	3779	3779	3779	3779	3779	3779	3779	3779	3779	3779	3779	3779	3821	3821	3821	3821	3821	3821	3821	3779	3779	3779	3779	3821	3821	3821	3779	3821	3779	3738	3738	3738	3698	3698	3698	3698	3698	3698	3698	3738	3738	3738	3738	3738	3738	3698	3698	3698	3698	3698	3698	3698	3698	3738	3738	3738	3738	3738	3738	3738	3738	3738	3738	3738	3738	3738	3698	3698	3698	3738	3738	3738	3738	3738	3738	3738	3698	3698	3186	3186	3186	3186	3186	3186	3186	3186	3186	3186	3186	3186	3186	3186	3157	3157	3157	3157	3157	3157	3129	3129	3129	3129	3101	3129	3101	3101	3129	3129	3129	3129	3129	3101	3101	3101	3101	3101	3101	3101	3101	3101	3101	3101	3101	3101	3129	3129	3129	3157	3157	3157	3157	3186	3186	3186	3186	3186	3186	3186	3186	3186	3186	3186	3186	3186	3186	3186	3186	3186	3186	3698	3698	3698	3698	3698	3698	3659	3659	3659	3659	3659	3698	3698	3738	3698	3698	3698	3698	3698	3698	3698	3738	3698	3698	3698	3698	3698	3698	3698	3698	3698	3698	3698	3698	3698	3698	3659	3698	3698	3659	3698	3698	3659	3659	3659	3659	3659	3659	3621	3621	3621	3621	3621	3621	3621	3621	3659	3659	3659	3621	3659	3659	3621	3621	3621	3621	3621	3659	3659	3659	3659	3659	3659	3659	3659	3659	3659	3659	3659	3659	3659	3659	3659	3659	3659	3659	3659	3659	3621	3621	3621	3621	3659	3659	3659	3659	3659	3621	3621	3621	3621	3621	3621	3621	3621	3621	3621	3621	3621	3621	3621	3621	3621	3621	3621	3583	3583	3583	3583	3583	3583	3621	3621	3621	3621	3659	3659	3621	3621	3621	3659	3698	3659	3659	3659	3659	3659	3621	3621	3583	3583	3583	3583	3583	3583	3583	3583	3583	3583	3583	3583	3583	3583	3621	3621	3621	3621	3583	3583	3583	0	0	0	0	0	0	0	0	0	0	0	0	0	0	0	0	0	0	0	0	0	0	0	0	0	0	0	0	0	0	0	0	0	0	0	0	0	0	0	0	0	0	0	0	0	0	0	0	0	0	0	0	0	0	0	0	0	0	0	0	0	0	0	0	0	0	0	0	0	0	0	0	0	0	0	0	0	0	0	0	0	0	0	0	0	0	0	0	0	0	0	0	0	0	0	0	0	0	0	0	0	0	0	0	0	0	0	0	0	0	0	0	0	0	0	0	0	0	0	0	0	0	0	0
0	0	0	0	0	0	0	0	0	0	1532	1539	1539	1539	1539	1546	1546	1546	1553	1546	1553	1553	1553	1553	1560	1560	1560	1560	1539	1539	0	2027	2027	2027	2015	2003	2027	2039	2039	2039	2039	2039	2039	2051	2051	2051	2039	2039	2003	2015	2003	2003	2015	2015	2015	2015	2015	2015	2003	0	0	0	0	0	0	0	2003	1992	2003	2003	2027	2039	2039	2027	2027	2027	2027	2027	2027	2027	2015	2015	2003	2015	2003	1992	2003	2027	2039	2039	2039	2039	2051	2063	2063	2076	2101	2101	2101	2101	2629	2629	2629	2629	2629	2629	2629	2629	2629	2629	2629	2629	2649	2629	2649	2649	2649	2649	2649	2649	2649	2649	2649	2629	2629	2629	2629	2629	2629	2629	2629	2649	2649	2649	2629	2629	2629	2629	2629	2629	2609	2609	2629	2609	2609	2609	2609	2609	2609	2629	2629	2629	2629	2649	2649	2649	2649	2649	0	3738	3779	3779	3738	3738	3738	3698	3698	3698	3698	3698	3698	3698	3698	3698	3738	3738	3738	3738	3738	3738	3738	3738	3738	3738	3738	3738	3698	3698	3698	3698	3698	3698	3698	3698	3738	3738	3738	3738	3738	3698	3698	3698	3698	3698	3738	3779	3821	3821	3821	3779	3779	3779	3779	3779	3779	3779	3779	3779	3779	3779	3821	3821	3821	3821	3821	3821	3821	3779	3779	3779	3821	3821	3779	3779	3821	3779	3738	3738	3698	3698	3698	3698	3698	3698	3698	3738	3738	3698	3698	3698	3738	3698	3698	3698	3698	3698	3698	3698	3698	3698	3738	3738	3738	3738	3738	3738	3738	3738	3738	3738	3738	3738	3738	3698	3698	3698	3738	3738	3738	3738	3738	3738	3738	3698	3186	3186	3186	3186	3186	3186	3157	3186	3186	3186	3186	3186	3186	3157	3157	3157	3157	3157	3157	3157	3157	3129	3129	3129	3129	3101	3129	3101	3101	3129	3129	3129	3129	3101	3101	3101	3101	3101	3101	3101	3101	3101	3101	3101	3101	3101	3101	3129	3129	3129	3129	3129	3157	3157	3186	3186	3186	3186	3186	3186	3186	3186	3186	3186	3186	3186	3157	3157	3186	3186	3157	3738	3698	3698	3698	3698	3698	3659	3659	3659	3659	3659	3659	3659	3698	3698	3698	3698	3698	3698	3698	3698	3698	3698	3698	3698	3698	3698	3698	3698	3698	3698	3698	3698	3698	3698	3698	3698	3659	3698	3698	3659	3659	3698	3659	3659	3659	3659	3659	3659	3659	3659	3621	3621	3621	3621	3621	3621	3621	3621	3659	3621	3659	3659	3621	3621	3621	3621	3621	3659	3659	3659	3659	3659	3659	3659	3659	3659	3659	3659	3659	3659	3659	3659	3659	3659	3659	3659	3621	3621	3621	3621	3621	3621	3659	3659	3659	3659	3659	3659	3621	3621	3621	3621	3621	3621	3621	3621	3621	3621	3621	3621	3621	3621	3621	3621	3621	3621	3583	3583	3583	3583	3621	3621	3659	3621	3621	3659	3659	3621	3621	3621	3621	3659	3659	3659	3659	3659	3621	3621	3583	3583	3583	3583	3583	3583	3583	3583	3583	3583	3583	3583	3583	3583	3583	3621	3621	3621	3621	3621	3583	3583	0	0	0	0	0	0	0	0	0	0	0	0	0	0	0	0	0	0	0	0	0	0	0	0	0	0	0	0	0	0	0	0	0	0	0	0	0	0	0	0	0	0	0	0	0	0	0	0	0	0	0	0	0	0	0	0	0	0	0	0	0	0	0	0	0	0	0	0	0	0	0	0	0	0	0	0	0	0	0	0	0	0	0	0	0	0	0	0	0	0	0	0	0	0	0	0	0	0	0	0	0	0	0	0	0	0	0	0	0	0	0	0	0	0	0	0	0	0	0	0	0	0	0	0
0	0	0	0	0	0	0	0	0	0	1532	1539	1539	1539	1539	1546	1546	1546	1553	1553	1553	1553	1553	1560	1567	1567	1567	1567	1567	1539	2027	2015	2015	2015	2015	2015	2027	2027	2051	2051	2051	2051	2051	2051	2051	2051	2051	2051	2051	2051	2051	2051	2039	2039	2039	2039	2027	2027	0	0	0	0	0	0	0	0	2003	2003	2027	2015	2027	2039	2039	2039	2027	2027	2027	2039	2039	2039	2027	2027	2027	2027	2003	2015	2027	2039	2051	2051	2051	2051	2051	2063	2076	2088	2101	2101	2101	2101	2629	2629	2629	2629	2629	2629	2629	2629	2629	2629	2629	2629	2629	2629	2649	2649	2649	2629	2629	2649	2629	2649	2649	2629	2649	2649	2629	2629	2629	2629	2629	2649	2649	2629	2629	2629	2649	2629	2629	2629	2609	2609	2629	2609	2609	2609	2609	2609	2609	2629	2629	2629	2629	2629	2629	2649	2649	2649	0	3738	3738	3779	3738	3779	3738	3738	3698	3698	3698	3698	3698	3698	3698	3698	3738	3738	3698	3698	3698	3738	3738	3738	3738	3738	3738	3738	3698	3698	3698	3698	3698	3698	3698	3738	3779	3738	3738	3738	3738	3698	3698	3659	3698	3698	3698	3738	3779	3779	3779	3779	3779	3779	3779	3779	3779	3779	3779	3779	3779	3779	3821	3821	3821	3821	3821	3821	3821	3779	3779	3821	3821	3821	3821	3779	3779	3779	3738	3738	3738	3698	3698	3698	3698	3698	3698	3698	3698	3698	3698	3738	3738	3698	3698	3698	3698	3698	3698	3698	3698	3698	3738	3738	3738	3738	3738	3738	3738	3738	3738	3738	3738	3738	3738	3698	3698	3738	3738	3738	3738	3738	3738	3738	3738	3186	3186	3186	3186	3186	3186	3157	3157	3157	3157	3157	3157	3157	3157	3157	3157	3157	3157	3157	3157	3129	3129	3129	3129	3129	3101	3101	3101	3101	3101	3101	3101	3101	3101	3101	3101	3101	3101	3101	3101	3101	3101	3101	3101	3101	3101	3101	3101	3101	3129	3129	3129	3129	3157	3157	3157	3157	3157	3186	3186	3186	3186	3157	3157	3186	3186	3186	3157	3186	3186	3186	3186	3738	3698	3698	3698	3698	3659	3659	3659	3659	3659	3659	3659	3659	3698	3698	3698	3698	3698	3698	3698	3698	3698	3698	3698	3698	3698	3698	3698	3698	3698	3698	3698	3698	3698	3698	3698	3698	3659	3698	3698	3659	3659	3659	3659	3659	3659	3659	3659	3659	3621	3659	3659	3621	3621	3621	3621	3621	3621	3659	3659	3621	3659	3659	3621	3621	3621	3621	3621	3659	3659	3659	3659	3659	3659	3659	3659	3659	3659	3659	3659	3621	3621	3621	3621	3621	3621	3659	3621	3621	3621	3621	3621	3621	3621	3659	3659	3659	3659	3659	3621	3621	3621	3621	3621	3583	3621	3621	3621	3621	3621	3621	3621	3621	3621	3583	3583	3621	3583	3583	3583	3583	3621	3659	3659	3659	3659	3659	3621	3621	3621	3621	3621	3621	3659	3659	3659	3659	3621	3621	3583	3583	3583	3583	3583	3583	3583	3583	3583	3583	3583	3583	3583	3583	3583	3621	3621	3621	3621	3621	3621	3583	0	0	0	0	0	0	0	0	0	0	0	0	0	0	0	0	0	0	0	0	0	0	0	0	0	0	0	0	0	0	0	0	0	0	0	0	0	0	0	0	0	0	0	0	0	0	0	0	0	0	0	0	0	0	0	0	0	0	0	0	0	0	0	0	0	0	0	0	0	0	0	0	0	0	0	0	0	0	0	0	0	0	0	0	0	0	0	0	0	0	0	0	0	0	0	0	0	0	0	0	0	0	0	0	0	0	0	0	0	0	0	0	0	0	0	0	0	0	0	0	0	0	0	0
