0	0	0	0	0	0	0	0	0	0	0	0	0	0	0	0	2281	2281	2281	2297	2297	2281	2281	2281	2281	2297	2297	2281	2297	2297	2297	2297	2297	2297	2297	2297	2297	2297	2297	2281	2297	2281	2266	2266	2266	2281	2281	2281	2297	2297	2297	2297	2297	2297	2297	2297	2297	2297	2297	2297	2343	2392	2392	2392	2392	2392	2409	2409	2426	2426	2426	2426	2443	2443	2496	2496	2551	2551	2570	2570	2589	2589	2609	2649	2649	2669	2669	2690	2690	2733	2690	2711	2711	2711	2711	2711	3779	3821	3821	3821	3821	3821	3821	3821	3779	3779	3698	3698	3779	3738	3779	3779	3738	3738	3738	3698	3698	3698	3698	3659	3659	3659	3659	3659	3698	3698	3698	3738	3738	3738	3738	3738	3738	3738	3738	3738	3738	3738	3779	3779	3779	3779	3779	3821	3821	3821	3864	3864	3864	3907	3907	3907	3907	3907	3907	3907	3907	3907	3907	3952	3952	3998	3998	3998	3998	3998	3998	4045	4521	4521	4521	4521	4521	4521	4521	4521	4521	4521	4521	4463	4463	4463	4463	4463	4463	4463	4463	4463	4463	4463	4463	4463	4463	4406	4142	4093	4045	4045	4045	4093	4192	4350	4521	4463	4463	4463	4521	4521	4521	4463	4521	4521	4521	4521	4521	4521	4521	4521	4521	4521	4521	4521	4521	4521	4521	4521	4521	4521	4521	4521	4521	4521	4463	4350	4350	4296	4296	4296	4296	3583	3583	3583	3583	3583	3583	3583	3583	3583	3583	3583	3583	3583	3583	3583	3583	3583	3659	3659	3698	3698	3698	3698	3698	3659	3659	3659	3659	3621	3621	3621	3659	3621	3659	3659	3659	3659	3659	3659	3621	4296	4243	4243	4243	4243	4243	4243	4243	4243	4192	4192	4192	4192	4192	4243	4243	4243	4243	4243	4243	4243	4192	4192	4192	4243	4243	4243	4243	4243	4243	4243	4243	4243	4243	4243	4243	4243	4243	4243	4243	4243	4243	4192	4192	4243	4243	4192	4243	4192	4243	4243	4243	4296	4296	4296	4296	4296	4296	4296	4243	4243	4243	4243	4243	4243	4243	4243	4243	4296	4243	4243	4243	4243	4243	4243	4243	4243	4243	4243	4243	4243	4296	4296	4296	4296	4296	4296	4296	4243	4192	4142	4142	4142	4142	4142	4142	4142	4142	4142	4093	4093	4142	4093	4142	4093	4142	4142	4142	4142	4142	4142	4142	4142	4142	4142	4142	4142	4142	4142	4142	4142	4142	4142	4142	4142	4142	4192	4142	4142	4142	4192	4142	4192	4192	4142	4142	4142	4142	4142	4142	4142	4142	4142	4142	4142	4142	4142	4142	4192	4192	4192	4192	4243	4243	4296	4296	4296	4350	4350	4350	4406	4406	4463	4521	4521	4521	4521	4581	4521	4521	6124	6124	6124	6124	6235	6235	6349	6349	6349	6235	6235	6235	6235	6235	6235	6349	6349	6468	6592	6592	6592	6592	6592	0	0	0	0	0	0	0	0	0	0	0	0	0	0	0	0	0	1291	1287	1282	1282	0	1272	1272	1272	1272	1272	1268	1268	1263	1268	1263	1263	1263	1263	1259	1259	1259	1259	1259	1263	1259	1259	1259	1259	1259	1259	1259	1259	1259	1259	1259	1259	1259	1259	1259	1259	1259	1259	1259	1259	1254	1254	1259	1254	1254	1259	1259	1259	1157	1157	1157	1153	1153	1150	1150	1146	1146	1146	0	0	0	0	0	0	0	0	0	0	0	0	0	0	0	0	0	0	0	0	0	0	0	565	565	565	564	564	562	561	559	556	555	556	556	1153	1153	0	0	0	0	0	0	0	0	0	0	0	0	0	0	0	0	0	0	0	0	0	0	0	0	0	0	0	0	0	0	0	0	0	0	0	0	0	0	0	0	0	0	0	0	0	0	0	0	0	0	0	0
0	0	0	0	0	0	0	0	0	0	0	0	0	0	0	0	2297	2297	2297	2297	2297	2297	2297	2297	2297	2297	2297	2297	2297	2281	2297	2297	2297	2281	2281	2281	2281	2266	2281	2266	2281	2266	2266	2266	2266	2266	2281	2281	2281	2297	2297	2297	2297	2297	2297	2297	2297	2297	2281	2312	2359	2359	2409	2409	2392	2409	2409	2409	2426	2426	2426	2426	2443	2443	2496	2496	2570	2570	2570	2570	2589	2609	2629	2649	2669	2690	2690	2690	2711	2711	2711	2711	2733	2711	2733	2733	3779	3779	3821	3821	3821	3821	3821	3779	3779	3779	3698	3738	3779	3738	3738	3738	3738	3738	3738	3698	3698	3698	3698	3698	3659	3659	3659	3659	3698	3698	3698	3698	3698	3698	3698	3738	3738	3738	3738	3738	3738	3738	3779	3779	3779	3779	3779	3821	3821	3821	3864	3864	3907	3907	3907	3907	3907	3907	3907	3907	3907	3952	3952	3952	3952	3998	3952	3952	3952	3952	3998	3998	4521	4521	4521	4521	4521	4521	4463	4463	4463	4463	4463	4463	4463	4463	4463	4463	4463	4463	4463	4463	4463	4463	4463	4463	4463	4406	4406	4093	4045	4045	4093	4142	4296	4406	4463	4463	4463	4463	4521	4521	4521	4463	4521	4521	4521	4521	4521	4521	4521	4521	4521	4521	4521	4521	4521	4521	4521	4521	4521	4521	4521	4521	4521	4521	4463	4350	4296	4296	4296	4296	3583	3583	3583	3583	3583	3583	3583	3583	3583	3583	3583	3583	3583	3583	3583	3583	3583	3621	3659	3659	3698	3698	3698	3698	3659	3659	3659	3659	3659	3621	3621	3621	3659	3621	3659	3659	3659	3659	3659	3659	3659	4243	4243	4192	4243	4243	4192	4192	4192	4192	4192	4243	4243	4243	4243	4243	4243	4243	4243	4243	4243	4243	4243	4192	4192	4192	4243	4243	4243	4243	4243	4243	4243	4243	4243	4243	4243	4243	4243	4296	4243	4243	4243	4192	4192	4192	4243	4192	4243	4243	4243	4296	4296	4296	4296	4296	4296	4296	4296	4243	4243	4243	4243	4243	4243	4243	4243	4243	4243	4296	4243	4243	4243	4243	4243	4243	4243	4243	4243	4243	4243	4243	4296	4296	4296	4296	4296	4296	4296	4243	4192	4142	4142	4142	4142	4142	4142	4142	4142	4142	4093	4093	4142	4142	4142	4142	4142	4142	4142	4142	4142	4142	4142	4142	4142	4142	4142	4142	4142	4142	4142	4142	4142	4192	4192	4142	4192	4192	4192	4192	4192	4192	4192	4192	4192	4142	4142	4142	4142	4142	4142	4142	4142	4142	4142	4142	4142	4142	4142	4142	4192	4192	4192	4243	4243	4296	4296	4296	4296	4350	4350	4350	4406	4406	4463	4463	4521	4521	4581	4521	4521	6124	6124	6124	6235	6235	6235	6235	6349	6349	6235	6235	6235	6235	6235	6349	6349	6349	6468	6592	6592	6592	6720	6720	0	0	0	0	0	0	0	0	0	0	0	0	0	0	0	0	0	0	0	0	0	0	0	0	1272	1272	1268	1268	1268	1263	1268	1263	1259	1263	1263	1259	1259	1259	1259	1259	1263	1259	1259	1259	1259	1259	1259	1259	1259	1259	1259	1259	1259	1259	1259	1259	1259	1259	1259	1254	1254	1254	1254	1254	1254	1254	1254	1254	1254	1157	1157	1157	1157	1153	1150	1150	1146	1146	1146	0	0	0	0	0	0	0	0	0	0	0	0	0	0	0	0	0	0	0	0	0	0	0	0	565	564	564	564	563	562	560	557	556	555	555	1153	1153	0	0	0	0	0	0	0	0	0	0	0	0	0	0	0	0	0	0	0	0	0	0	0	0	0	0	0	0	0	0	0	0	0	0	0	0	0	0	0	0	0	0	0	0	0	0	0	0	0	0	0	0
0	0	0	0	0	0	0	0	0	0	0	0	0	0	0	0	2297	2297	2297	2297	2297	2297	2297	2297	2297	2297	2297	2297	2281	2281	2281	2297	2297	2297	2297	2297	2281	2297	2297	2281	2281	2281	2266	2266	2281	2281	2281	2281	2281	2297	2297	2297	2297	2297	2297	2297	2297	2312	2312	2312	2312	2376	2409	2409	2409	2409	2409	2426	2426	2426	2443	2443	2460	2460	2514	2514	2514	2570	2570	2589	2589	2609	2649	2669	2669	2690	2690	2711	2711	2711	2733	2733	2733	2711	2733	2733	0	3821	3821	3821	3821	3821	3821	3779	3779	3779	3779	3779	3779	3779	3779	3738	3738	3698	3698	3698	3698	3698	3698	3698	3659	3659	3659	3659	3698	3698	3698	3698	3698	3698	3698	3738	3738	3738	3738	3738	3738	3738	3779	3738	3779	3779	3821	3821	3821	3821	3864	3907	3907	3907	3907	3907	3907	3907	3907	3907	3952	3952	3952	3952	3998	3998	3998	3998	3998	3998	3998	4045	4045	4521	4521	4521	4521	4463	4463	4463	4463	4463	4463	4463	4521	4521	4463	4463	4463	4463	4463	4463	4521	4463	4463	4463	4463	4406	4350	4142	4093	4093	4093	4142	4296	4350	4463	4463	4463	4463	4521	4521	4521	4521	4521	4521	4521	4521	4521	4521	4521	4521	4521	4521	4521	4521	4521	4521	4521	4521	4521	4521	4521	4521	4521	4463	4463	4350	4296	4243	4296	4243	3583	3583	3583	3583	3583	3583	3583	3583	3583	3583	3583	3583	3583	3583	3583	3583	3583	3621	3659	3659	3698	3698	3698	3698	3659	3698	3659	3659	3659	3659	3659	3621	3659	3621	3659	3659	3659	3659	3659	3659	3659	3659	3659	4192	4192	4243	4192	4192	4192	4192	4192	4192	4192	4243	4192	4243	4243	4243	4243	4243	4243	4243	4243	4243	4192	4243	4243	4243	4243	4243	4243	4243	4243	4243	4243	4243	4243	4243	4243	4243	4243	4243	4243	4192	4192	4192	4243	4243	4243	4243	4243	4296	4296	4296	4296	4296	4296	4296	4243	4243	4243	4192	4192	4192	4192	4243	4243	4243	4243	4296	4296	4296	4296	4243	4296	4243	4243	4243	4243	4243	4243	4243	4243	4296	4296	4296	4296	4296	4296	4243	4192	4142	4142	4142	4142	4142	4142	4142	4142	4142	4142	4093	4142	4142	4142	4142	4142	4142	4142	4142	4142	4142	4142	4142	4142	4142	4142	4142	4142	4142	4142	4142	4142	4192	4142	4142	4192	4192	4192	4142	4192	4192	4142	4192	4192	4142	4142	4142	4142	4142	4142	4142	4142	4142	4142	4142	4142	4142	4142	4192	4192	4192	4192	4192	4243	4296	4296	4296	4350	4350	4296	4350	4350	4350	4406	4463	4521	4521	4521	4521	6124	6124	6124	6235	6235	6235	6235	6235	6349	6349	6235	6235	6235	6235	6235	6349	6349	6349	6468	6592	6592	6592	6720	6720	0	0	0	0	0	0	0	0	0	0	0	0	0	0	0	0	0	0	0	0	0	0	0	0	1272	1268	1268	1268	1268	1268	1263	1263	1263	1263	1263	1263	1259	1259	1259	1259	1263	1263	1259	1259	1259	1259	1259	1259	1259	1259	1259	1259	1259	1259	1259	1259	1259	1259	1259	1254	1254	1254	1254	1254	1254	1254	1254	1254	1254	1157	1157	1157	1157	1153	1153	1150	1146	1146	0	0	0	0	0	0	0	0	0	0	0	0	0	0	0	0	0	0	0	0	0	0	0	0	0	565	564	564	564	564	563	563	555	555	555	555	1153	1153	0	0	0	0	0	0	0	0	0	0	0	0	0	0	0	0	0	0	0	0	0	0	0	0	0	0	0	0	0	0	0	0	0	0	0	0	0	0	0	0	0	0	0	0	0	0	0	0	0	0	0	0
0	0	0	0	0	0	0	0	0	0	0	0	0	0	0	0	2297	2297	2297	2297	2297	2297	2297	2297	2297	2297	2297	2297	2297	2297	2297	2297	2297	2297	2297	2281	2281	2297	2281	2266	2266	2281	2266	2266	2281	2281	2266	2281	2281	2297	2297	2297	2297	2297	2297	2297	2297	2297	2297	2297	2327	2359	2409	2409	2409	2426	2426	2426	2426	2426	2443	2496	2460	2514	2532	2532	2589	2589	2589	2609	2609	2629	2649	2669	2669	2690	2711	2711	2711	2733	2733	2733	2733	2711	2733	2733	0	3821	3821	3821	3821	3821	3821	3779	3779	3779	3738	3738	3779	3779	3738	3738	3738	3738	3738	3698	3698	3698	3698	3698	3659	3698	3659	3659	3698	3698	3698	3698	3698	3698	3698	3698	3738	3738	3738	3738	3738	3738	3779	3779	3779	3779	3821	3821	3864	3821	3864	3907	3907	3907	3907	3907	3907	3907	3907	3907	3952	3952	3952	3998	3998	3998	3998	3998	3998	3998	4045	4093	4581	4521	4521	4521	4521	4463	4463	4463	4463	4463	4463	4463	4521	4521	4463	4463	4463	4463	4463	4463	4463	4463	4463	4463	4406	4406	4350	4142	4093	4093	4093	4142	4296	4350	4463	4463	4463	4463	4521	4521	4521	4521	4521	4521	4521	4521	4521	4521	4521	4521	4521	4521	4521	4463	4463	4463	4521	4521	4521	4521	4521	4521	4521	4463	4463	4350	4296	4243	4243	4243	3583	3583	3583	3583	3583	3583	3583	3583	3583	3583	3583	3583	3583	3583	3583	3583	3583	3621	3659	3659	3698	3698	3698	3698	3659	3659	3659	3659	3659	3659	3659	3659	3659	3659	3659	3659	3659	3659	3659	3659	3698	4192	4192	4192	4192	4243	4192	4243	4192	4192	4192	4192	4192	4192	4192	4243	4192	4243	4243	4243	4243	4243	4243	4243	4243	4243	4243	4243	4243	4243	4243	4243	4243	4243	4243	4243	4243	4243	4243	4243	4243	4243	4243	4192	4192	4192	4243	4243	4243	4243	4243	4243	4296	4296	4296	4296	4296	4296	4243	4243	4243	4192	4192	4192	4192	4243	4243	4243	4243	4296	4296	4296	4296	4243	4296	4243	4243	4243	4243	4243	4243	4243	4243	4296	4296	4296	4296	4296	4296	4296	4243	4192	4192	4142	4142	4142	4142	4142	4142	4142	4142	4142	4142	4142	4142	4142	4142	4142	4142	4142	4142	4142	4142	4142	4142	4142	4142	4142	4142	4142	4142	4142	4142	4142	4142	4142	4192	4192	4192	4192	4192	4192	4192	4192	4192	4192	4142	4142	4142	4142	4142	4142	4142	4142	4142	4142	4142	4142	4142	4142	4142	4192	4192	4192	4243	4296	4296	4296	4296	4350	4296	4350	4350	4350	4406	4463	4463	4521	4521	4521	6235	6124	6124	6235	6235	6235	6235	6235	6235	6349	6235	6349	6349	6349	6349	6349	6349	6468	6468	6592	6592	6592	6720	6720	0	0	0	0	0	0	0	0	0	0	0	0	0	0	0	0	0	0	0	0	0	0	0	0	0	1272	1268	1268	1268	1268	1263	1263	1263	1263	1263	1259	1259	1259	1259	1259	1263	1259	1259	1259	1259	1259	1259	1259	1259	1259	1259	1259	1259	1259	1259	1259	1259	1259	1259	1254	1254	1254	1254	1254	1254	1254	1254	1259	1259	1157	1157	1157	1157	1153	1153	1153	1150	1150	0	0	0	0	0	0	0	0	0	0	0	0	0	0	0	0	0	0	0	0	0	0	0	0	0	565	564	564	564	563	563	563	554	554	555	555	0	0	0	0	0	0	0	0	0	0	0	0	0	0	0	0	0	0	0	0	0	0	0	0	0	0	0	0	0	0	0	0	0	0	0	0	0	0	0	0	0	0	0	0	0	0	0	0	0	0	0	0	0	0
0	0	0	0	0	0	0	0	0	0	0	0	0	0	0	0	2281	2281	2281	2297	2297	2297	2297	2297	2297	2297	2297	2297	2297	2281	2281	2281	2297	2281	2281	2281	2281	2281	2281	2281	2281	2266	2281	2281	2281	2281	2266	2281	2281	2297	2297	2297	2297	2297	2297	2297	2297	2297	2312	2312	2327	2376	2409	2409	2409	2426	2426	2443	2443	2443	2496	2496	2478	2496	2496	2570	2589	2589	2609	2570	2629	2649	2649	2669	2690	2690	2711	2711	2711	2733	2733	2733	2733	2711	2711	2733	3821	3821	3821	3821	3821	3821	3821	3821	3779	3821	3779	3779	3779	3779	3779	3738	3738	3738	3738	3738	3698	3738	3698	3698	3698	3698	3698	3698	3698	3698	3698	3698	3698	3698	3698	3698	3698	3738	3738	3738	3779	3738	3779	3779	3779	3779	3821	3821	3864	3821	3864	3907	3907	3907	3907	3907	3907	3907	3907	3907	3952	3952	3952	3952	3998	4045	3998	3998	4045	4045	4093	4093	4521	4521	4521	4521	4521	4463	4463	4463	4463	4463	4463	4463	4521	4521	4521	4463	4463	4463	4463	4463	4463	4463	4463	4463	4406	4406	4350	4142	4093	4093	4093	4192	4296	4463	4463	4463	4463	4463	4521	4521	4521	4521	4521	4521	4521	4521	4521	4521	4521	4521	4521	4521	4521	4521	4463	4463	4521	4521	4521	4521	4521	4521	4521	4463	4406	4296	4296	4192	4192	4192	3583	3583	3583	3583	3583	3583	3583	3583	3583	3583	3583	3583	3583	3583	3583	3583	3583	3621	3659	3659	3698	3698	3698	3698	3659	3698	3659	3659	3659	3659	3659	3659	3659	3659	3659	3659	3659	3698	3698	3698	3698	3698	4192	4192	4192	4243	4192	4243	4243	4192	4192	4243	4192	4243	4243	4243	4243	4243	4243	4243	4243	4243	4243	4243	4243	4243	4243	4243	4243	4243	4243	4243	4243	4243	4243	4243	4243	4243	4243	4296	4296	4243	4243	4243	4192	4243	4243	4243	4243	4243	4243	4296	4296	4296	4296	4296	4296	4243	4243	4192	4192	4192	4192	4192	4192	4243	4243	4243	4243	4296	4296	4296	4296	4243	4296	4296	4243	4243	4243	4243	4243	4243	4243	4243	4296	4296	4296	4296	4296	4296	4243	4192	4192	4192	4142	4142	4142	4142	4142	4142	4142	4142	4142	4142	4142	4142	4142	4192	4142	4142	4142	4142	4142	4142	4142	4142	4142	4142	4142	4142	4142	4142	4142	4142	4142	4142	4192	4192	4192	4192	4192	4192	4192	4192	4192	4192	4192	4192	4192	4142	4142	4142	4142	4142	4142	4142	4142	4142	4142	4142	4142	4142	4142	4192	4192	4296	4296	4350	4350	4350	4350	4350	4350	4350	4406	4463	4463	4521	4521	4521	4521	6124	6124	6124	6124	6124	6235	6235	6235	6349	6349	6349	6349	6349	6349	6349	6468	6468	6468	6592	6592	6592	6720	6720	0	0	0	0	0	0	0	0	0	0	0	0	0	0	0	0	0	0	0	0	0	0	0	0	1268	1268	1268	1268	1268	1268	1263	1263	1263	1263	1263	1263	1259	1259	1259	1259	1259	1259	1259	1259	1259	1259	1259	1259	1259	1259	1259	1259	1259	1259	1259	1259	1259	1259	1259	1254	1254	1254	1254	1254	1259	1254	1254	1259	1259	1157	1157	1157	1157	1157	1153	1153	1153	1153	0	0	0	0	0	0	0	0	0	0	0	0	0	0	0	0	0	0	0	0	0	0	0	0	0	0	1161	564	564	563	563	555	555	554	555	555	0	0	0	0	0	0	0	0	0	0	0	0	0	0	0	0	0	0	0	0	0	0	0	0	0	0	0	0	0	0	0	0	0	0	0	0	0	0	0	0	0	0	0	0	0	0	0	0	0	0	0	0	0	0
0	0	0	0	0	0	0	0	0	0	0	0	0	0	0	0	2297	2297	2281	2281	2297	2281	2281	2297	2281	2297	2297	2297	2281	2281	2281	2281	2281	2281	2281	2266	2281	2281	2281	2297	2281	2266	2281	2281	2281	2281	2281	2281	2281	2297	2297	2297	2297	2297	2297	2297	2297	2297	2312	2312	2327	2376	2409	2409	2409	2426	2426	2426	2443	2443	2496	2514	2478	2496	2496	2570	2589	2609	2609	2609	2649	2649	2669	2690	2690	2711	2711	2711	2733	2733	2733	2733	2733	2733	2711	3821	3821	3821	3821	3821	3821	3821	3821	3821	3779	3821	3779	3738	3779	3738	3738	3738	3738	3738	3738	3738	3738	3738	3738	3738	3738	3698	3698	3698	3698	3698	3698	3698	3659	3659	3698	3698	3738	3738	3738	3738	3779	3738	3779	3779	3738	3779	3779	3779	3821	3821	3864	3907	3907	3907	3907	3907	3907	3907	3907	3907	3952	3952	3952	3998	3998	4045	3998	4045	4045	4045	4093	4142	4521	4521	4463	4521	4463	4463	4463	4463	4463	4463	4463	4463	4463	4521	4521	4463	4463	4463	4463	4463	4463	4463	4463	4463	4406	4406	4350	4142	4093	4093	4093	4142	4243	4463	4521	4463	4463	4463	4463	4521	4521	4521	4521	4521	4521	4521	4521	4521	4521	4521	4521	4521	4521	4521	4521	4463	4521	4521	4521	4521	4521	4521	4521	4463	4463	4296	4243	4243	4192	4192	3583	3583	3583	3583	3583	3583	3583	3583	3583	3583	3583	3583	3583	3583	3583	3583	3583	3621	3659	3659	3698	3698	3698	3698	3659	3659	3659	3621	3621	3621	3659	3659	3659	3659	3659	3698	3659	3698	3698	3698	3698	4192	4192	4192	4192	4243	4192	4243	4243	4243	4192	4243	4192	4243	4243	4243	4243	4243	4243	4243	4243	4243	4243	4243	4243	4243	4243	4243	4243	4243	4243	4243	4243	4243	4243	4243	4243	4243	4243	4296	4296	4243	4243	4243	4192	4243	4243	4243	4243	4243	4243	4296	4296	4296	4296	4296	4296	4243	4243	4192	4243	4192	4243	4192	4243	4243	4243	4243	4243	4296	4296	4296	4296	4296	4296	4296	4296	4296	4296	4296	4296	4243	4296	4296	4296	4296	4296	4296	4296	4296	4243	4192	4192	4192	4142	4142	4142	4142	4142	4142	4142	4142	4142	4192	4142	4142	4142	4142	4142	4142	4142	4142	4142	4142	4142	4142	4142	4142	4142	4142	4142	4142	4142	4142	4142	4142	4192	4142	4142	4142	4142	4192	4192	4192	4192	4192	4192	4192	4192	4142	4142	4142	4142	4142	4142	4142	4142	4142	4142	4142	4142	4192	4192	4192	4243	4296	4296	4350	4350	4350	4296	4350	4350	4350	4350	4406	4463	4463	4463	4521	4521	6124	6124	6235	6235	6235	6235	6235	6235	6349	6349	6349	6349	6349	6349	6468	6468	6468	6468	6592	6592	6592	6592	6592	0	0	0	0	0	0	0	0	0	0	0	0	0	0	0	0	0	0	0	0	0	0	0	0	1268	1268	1268	1268	1268	1268	1263	1263	1263	1263	1263	1259	1259	1259	1259	1259	1259	1259	1259	1259	1259	1259	1259	1259	1254	1259	1259	1259	1259	1259	1259	1259	1259	1259	1259	1254	1254	1254	1254	1254	1259	1254	1254	1259	1254	1153	1153	1157	1157	1157	1153	1153	1153	1153	0	0	0	0	0	0	0	0	0	0	0	0	0	0	0	0	0	0	0	0	0	0	0	0	0	0	1161	1157	563	562	562	555	555	555	555	555	0	0	0	0	0	0	0	0	0	0	0	0	0	0	0	0	0	0	0	0	0	0	0	0	0	0	0	0	0	0	0	0	0	0	0	0	0	0	0	0	0	0	0	0	0	0	0	0	0	0	0	0	0	0
0	0	0	0	0	0	0	0	0	0	0	0	0	0	0	0	2281	2281	2281	2281	2281	2266	2281	2266	2266	2266	2266	2281	2281	2266	2266	2281	2281	2266	2281	2266	2266	2266	2281	2281	2266	2266	2281	2281	2281	2281	2281	2297	2297	2297	2297	2297	2297	2297	2297	2297	2297	2312	2312	2312	2312	2359	2376	2409	2392	2409	2409	2426	2426	2443	2443	2514	2496	2496	2570	2570	2589	2609	2609	2629	2649	2649	2649	2669	2690	2711	2711	2733	2733	2733	2733	2733	2733	2733	0	3864	3864	3864	3821	3821	3821	3821	3821	3779	3779	3779	3779	3738	3738	3738	3738	3738	3738	3738	3738	3738	3738	3779	3779	3738	3738	3738	3698	3698	3698	3698	3698	3698	3659	3698	3698	3738	3738	3738	3738	3738	3779	3779	3779	3779	3779	3779	3821	3779	3821	3821	3821	3864	3864	3907	3907	3864	3907	3907	3907	3907	3952	3952	3952	3998	3998	3998	3998	3998	4045	4045	4093	4142	4463	4463	4463	4521	4463	4463	4463	4463	4463	4463	4463	4463	4463	4521	4463	4463	4463	4463	4463	4463	4463	4463	4463	4463	4463	4463	4406	4296	4093	4093	4093	4142	4243	4463	4406	4463	4463	4463	4463	4463	4463	4521	4521	4521	4521	4521	4521	4521	4521	4521	4521	4521	4521	4521	4521	4521	4521	4521	4521	4521	4521	4521	4521	4463	4463	4350	4243	4243	4192	4093	3583	3583	3583	3583	3583	3583	3583	3583	3583	3583	3583	3583	3583	3583	3583	3583	3621	3621	3659	3698	3698	3698	3698	3698	3659	3659	3659	3621	3621	3621	3659	3659	3659	3659	3659	3698	3698	3698	3698	3698	3698	4243	4243	4192	4192	4243	4192	4243	4243	4192	4192	4243	4192	4243	4243	4243	4243	4243	4243	4243	4243	4243	4243	4243	4243	4243	4243	4243	4243	4243	4243	4243	4243	4243	4243	4243	4243	4243	4243	4243	4296	4243	4243	4243	4243	4192	4243	4192	4192	4243	4243	4243	4243	4243	4243	4243	4243	4243	4243	4243	4243	4243	4243	4243	4243	4243	4243	4296	4296	4296	4296	4296	4296	4296	4296	4296	4296	4296	4243	4243	4243	4243	4243	4296	4296	4296	4296	4296	4296	4296	4243	4192	4192	4192	4192	4192	4142	4192	4192	4192	4142	4142	4142	4142	4142	4142	4142	4142	4142	4142	4142	4142	4142	4142	4142	4142	4142	4142	4142	4142	4142	4142	4142	4142	4142	4142	4192	4142	4142	4142	4142	4192	4192	4192	4192	4192	4192	4192	4192	4192	4192	4142	4142	4142	4142	4192	4192	4192	4192	4142	4142	4192	4192	4192	4243	4243	4296	4296	4350	4350	4296	4350	4350	4350	4350	4350	4350	4406	4463	4463	6235	6124	6124	6235	6235	6124	6235	6235	6235	6235	6349	6349	6349	6349	6349	6349	6468	6468	6468	6468	6468	6468	6468	6592	0	0	0	0	0	0	0	0	0	0	0	0	0	0	0	0	0	0	0	0	0	0	0	0	1268	1268	1268	1268	1268	1268	1268	1268	1263	1263	1259	1259	1259	1259	1259	1259	1259	1259	1259	1259	1259	1259	1259	1259	1254	1254	1254	1259	1259	1259	1254	1259	1259	1259	1259	1254	1254	1254	1254	1254	1259	1254	1254	1259	1259	1153	1153	1157	1157	1157	1153	1153	1153	1153	0	0	0	0	0	0	0	0	0	0	0	0	0	0	0	0	0	0	0	0	0	0	0	0	0	0	563	562	562	562	560	556	555	555	555	555	0	0	0	0	0	0	0	0	0	0	0	0	0	0	0	0	0	0	0	0	0	0	0	0	0	0	0	0	0	0	0	0	0	0	0	0	0	0	0	0	0	0	0	0	0	0	0	0	0	0	0	0	0	0
0	0	0	0	0	0	0	0	0	0	0	0	0	0	0	0	2281	2281	2281	2266	2266	2252	2252	2266	2266	2281	2281	2281	2281	2281	2266	2281	2266	2266	2266	2266	2266	2266	2266	2266	2266	2281	2281	2281	2297	2297	2297	2297	2297	2312	2297	2312	2297	2297	2297	2297	2312	2312	2312	2312	2312	2312	2359	2376	2392	2409	2409	2426	2426	2443	2496	2514	2496	2551	2551	2570	2589	2589	2609	2629	2629	2649	2649	2669	2669	2690	2690	2711	2733	2733	2733	2711	2711	2711	0	3864	3864	3864	3821	3821	3821	3821	3779	3779	3779	3779	3779	3738	3738	3738	3738	3738	3738	3738	3738	3738	3779	3779	3738	3738	3738	3698	3698	3698	3698	3698	3698	3698	3659	3698	3698	3738	3738	3738	3779	3738	3779	3779	3779	3821	3779	3821	3821	3821	3821	3821	3864	3864	3864	3907	3864	3864	3907	3907	3907	3907	3952	3952	3952	3952	3998	3998	3998	3998	3998	4045	4093	4093	4463	4463	4463	4463	4463	4463	4463	4463	4463	4463	4463	4463	4463	4463	4463	4463	4463	4463	4463	4521	4463	4463	4463	4463	4463	4406	4406	4296	4142	4093	4093	4093	4296	4463	4463	4463	4463	4463	4463	4463	4521	4521	4521	4521	4521	4521	4521	4521	4521	4521	4521	4521	4521	4521	4521	4521	4521	4521	4521	4521	4521	4521	4521	4463	4463	4296	4243	4192	4142	4142	4093	3583	3583	3583	3583	3583	3583	3583	3583	3583	3583	3583	3583	3583	3583	3621	3621	3621	3621	3659	3698	3698	3698	3659	3659	3659	3659	3659	3621	3621	3659	3659	3659	3659	3659	3698	3698	3698	3698	3698	3698	4243	4243	4243	4243	4243	4243	4243	4243	4243	4192	4243	4192	4243	4243	4243	4243	4243	4243	4243	4243	4243	4243	4243	4243	4243	4243	4243	4243	4243	4243	4192	4192	4243	4243	4243	4243	4243	4243	4296	4296	4296	4243	4243	4243	4243	4243	4243	4243	4243	4243	4243	4243	4243	4243	4243	4243	4192	4192	4192	4192	4192	4243	4243	4243	4243	4243	4296	4243	4243	4296	4296	4296	4296	4296	4296	4296	4243	4243	4243	4243	4243	4243	4243	4243	4296	4296	4296	4296	4296	4243	4192	4192	4192	4192	4142	4142	4142	4142	4142	4142	4142	4142	4142	4142	4142	4142	4142	4142	4142	4142	4142	4142	4142	4142	4142	4142	4142	4142	4142	4142	4142	4142	4142	4142	4142	4192	4142	4142	4142	4142	4192	4192	4192	4192	4192	4192	4192	4192	4192	4192	4192	4142	4142	4192	4192	4192	4192	4142	4142	4142	4192	4192	4192	4243	4296	4296	4350	4350	4350	4350	4350	4350	4350	4350	4350	4350	4350	4350	6235	6235	6235	6124	6235	6124	6124	6124	6235	6235	6235	6349	6349	6349	6349	6349	6349	6468	6468	6468	6468	6468	6468	6468	0	0	0	0	0	0	0	0	0	0	0	0	0	0	0	0	0	0	0	0	0	0	0	0	1268	1272	1268	1268	1268	1268	1268	1268	1263	1263	1263	1259	1259	1259	1259	1259	1259	1259	1259	1259	1259	1259	1259	1254	1254	1254	1254	1254	1254	1254	1259	1254	1259	1259	1259	1259	1254	1254	1254	1254	1254	1259	1254	1254	1259	1259	1150	1150	1153	1153	1153	1153	1153	1153	0	0	0	0	0	0	0	0	0	0	0	0	0	0	0	0	0	0	0	0	0	0	0	0	0	0	0	562	561	561	561	559	558	557	555	555	555	0	0	0	0	0	0	0	0	0	0	0	0	0	0	0	0	0	0	0	0	0	0	0	0	0	0	0	0	0	0	0	0	0	0	0	0	0	0	0	0	0	0	0	0	0	0	0	0	0	0	0	0	0	0
0	0	0	0	0	0	0	0	0	0	0	0	0	0	0	0	2252	2252	2252	2252	2266	2266	2266	2266	2266	2266	2297	2297	2281	2281	2297	2297	2281	2266	2266	2266	2266	2266	2281	2281	2266	2281	2281	2297	2297	2297	2297	2297	2297	2312	2297	2312	2297	2297	2297	2297	2297	2312	2312	2297	2297	2312	2343	2359	2376	2392	2392	2392	2409	2443	2496	2514	2514	2551	2551	2551	2570	2570	2609	2609	2629	2649	2649	2649	2669	2669	2690	2711	2711	2711	2711	2711	2711	2711	0	3821	3821	3821	3821	3821	3779	3821	3779	3779	3738	3779	3779	3738	3738	3738	3738	3738	3779	3738	3779	3779	3779	3779	3779	3738	3738	3698	3698	3698	3698	3698	3698	3698	3698	3698	3698	3738	3738	3738	3779	3738	3779	3779	3779	3779	3821	3821	3821	3821	3864	3864	3864	3864	3864	3864	3864	3864	3907	3864	3907	3907	3907	3952	3952	3952	3952	3998	3952	3998	3998	4045	4093	4093	4406	4406	4406	4463	4463	4463	4463	4463	4463	4463	4463	4463	4463	4463	4463	4463	4463	4463	4463	4463	4463	4521	4521	4463	4463	4406	4406	4296	4142	4142	4142	4406	4406	4463	4463	4463	4463	4463	4521	4521	4521	4521	4521	4521	4521	4521	4521	4521	4521	4521	4521	4521	4521	4521	4521	4521	4521	4521	4521	4521	4521	4521	4521	4521	4463	4243	4192	4142	4142	4142	4093	3583	3583	3583	3583	3583	3583	3583	3583	3583	3583	3583	3583	3583	3583	3621	3621	3621	3659	3659	3659	3698	3698	3659	3659	3659	3659	3659	3659	3659	3659	3659	3659	3659	3659	3659	3698	3659	3659	3659	3659	4243	4243	4243	4243	4243	4243	4243	4243	4243	4243	4243	4192	4243	4243	4243	4243	4243	4243	4243	4243	4243	4243	4243	4243	4243	4243	4192	4192	4192	4243	4192	4243	4243	4243	4243	4243	4243	4243	4296	4296	4296	4296	4243	4243	4243	4243	4192	4192	4192	4192	4243	4243	4243	4243	4243	4243	4192	4192	4192	4192	4192	4243	4243	4243	4243	4243	4243	4243	4243	4296	4296	4296	4296	4296	4296	4296	4243	4243	4243	4243	4243	4243	4243	4243	4296	4296	4296	4296	4243	4243	4192	4192	4192	4192	4142	4142	4142	4142	4142	4142	4142	4142	4142	4142	4142	4142	4192	4142	4142	4142	4142	4142	4142	4142	4142	4142	4142	4142	4142	4142	4142	4142	4142	4142	4192	4192	4142	4142	4142	4142	4192	4142	4142	4142	4142	4142	4192	4192	4192	4192	4192	4142	4142	4142	4142	4142	4192	4142	4142	4142	4192	4192	4192	4243	4296	4296	4350	4350	4350	4350	4350	4406	4406	4406	4406	4406	4463	4463	6235	6235	6235	6235	6235	6235	6124	6124	6235	6235	6235	6235	6349	6468	6349	6468	6468	6468	6468	6468	6468	6468	6468	6468	0	0	0	0	0	0	0	0	0	0	0	0	0	0	0	0	0	0	0	0	0	0	0	1254	1272	1272	1268	1268	1272	1268	1268	1263	1263	1263	1263	1259	1259	1259	1259	1259	1259	1259	1259	1259	1259	1259	1259	1254	1254	1254	1254	1254	1254	1254	1259	1254	1259	1259	1259	1259	1254	1254	1254	1254	1259	1259	1254	1254	1259	1259	1150	1150	1153	1153	1153	1153	1153	1153	0	0	0	0	0	0	0	0	0	0	0	0	0	0	0	0	0	0	0	0	0	0	0	0	0	0	562	561	560	561	560	559	558	557	555	555	555	0	0	0	0	0	0	0	0	0	0	0	0	0	0	0	0	0	0	0	0	0	0	0	0	0	0	0	0	0	0	0	0	0	0	0	0	0	0	0	0	0	0	0	0	0	0	0	0	0	0	0	0	0	0
0	0	0	0	0	0	0	0	0	0	0	0	0	0	0	0	2252	2252	2252	2266	2266	2266	2266	2266	2266	2281	2281	2281	2281	2281	2297	2297	2281	2266	2266	2266	2266	2266	2281	2266	2266	2297	2281	2297	2297	2297	2297	2297	2297	2297	2297	2312	2297	2297	2297	2297	2297	2312	2312	2312	2312	2327	2343	2359	2376	2376	2392	2376	2392	2426	2496	2496	2514	2532	2532	2532	2551	2570	2589	2609	2629	2649	2649	2649	2669	2690	2711	2711	2711	2711	2711	2711	2733	2733	0	3821	3821	3821	3821	3779	3779	3779	3779	3738	3738	3738	3738	3738	3738	3738	3738	3738	3738	3738	3738	3698	3779	3779	3738	3738	3738	3698	3698	3698	3698	3698	3698	3698	3698	3698	3698	3738	3738	3738	3738	3738	3779	3779	3779	3821	3821	3821	3821	3821	3864	3864	3864	3864	3864	3864	3864	3864	3864	3864	3907	3907	3907	3907	3907	3952	3952	3952	3952	3952	3952	3998	4093	4093	4243	4406	4406	4463	4463	4463	4463	4463	4463	4463	4463	4463	4463	4463	4463	4406	4406	4463	4463	4463	4463	4463	4463	4463	4463	4463	4463	4406	4093	4045	4045	4406	4406	4463	4463	4463	4463	4463	4463	4521	4521	4521	4521	4521	4521	4521	4521	4521	4521	4521	4521	4521	4521	4521	4521	4463	4521	4521	4521	4521	4521	4521	4521	4521	4463	4296	4192	4142	4142	4093	4093	3583	3583	3583	3583	3583	3583	3583	3583	3583	3583	3583	3583	3583	3583	3621	3621	3659	3659	3698	3698	3698	3698	3698	3659	3659	3659	3659	3621	3621	3659	3659	3659	3659	3659	3659	3659	3659	3659	3659	3659	4296	4296	4243	4243	4243	4243	4243	4243	4243	4243	4243	4192	4243	4243	4243	4192	4192	4243	4243	4243	4243	4243	4243	4243	4243	4192	4192	4192	4192	4192	4192	4192	4243	4243	4192	4243	4243	4243	4296	4296	4296	4296	4296	4243	4243	4243	4192	4192	4192	4192	4192	4243	4243	4243	4243	4243	4192	4243	4192	4192	4192	4243	4243	4243	4243	4243	4243	4243	4243	4296	4296	4243	4243	4243	4243	4243	4296	4243	4192	4192	4192	4243	4243	4243	4243	4296	4296	4296	4243	4243	4192	4192	4142	4142	4142	4142	4142	4142	4142	4142	4142	4142	4142	4142	4142	4142	4142	4142	4142	4142	4142	4142	4142	4142	4142	4142	4142	4142	4142	4142	4142	4142	4142	4142	4142	4142	4142	4142	4142	4142	4142	4142	4142	4142	4142	4142	4142	4142	4142	4142	4142	4142	4142	4142	4142	4142	4142	4142	4142	4142	4142	4192	4192	4243	4243	4296	4350	4350	4350	4350	4406	4406	4463	4463	4406	4463	4463	4463	6235	6235	6235	6124	6235	6235	6124	6235	6235	6235	6235	6235	6349	6349	6468	6468	6468	6592	6592	6468	6468	6468	6468	6468	0	0	0	0	0	0	0	0	0	0	0	0	0	0	0	0	0	0	0	0	0	0	0	1254	1272	1272	1272	1272	1272	1268	1268	1263	1263	1263	1263	1259	1259	1259	1259	1259	1259	1259	1259	1259	1259	1259	1254	1254	1254	1254	1254	1254	1254	1254	1259	1254	1259	1259	1254	1254	1254	1254	1259	1254	1259	1259	1259	1259	1259	1259	1153	1153	1153	1153	1153	1153	1153	1153	0	0	0	0	0	0	0	0	0	0	0	0	0	0	0	0	0	0	0	0	0	0	0	0	0	562	561	560	559	560	559	558	557	556	555	555	555	0	0	0	0	0	0	0	0	0	0	0	0	0	0	0	0	0	0	0	0	0	0	0	0	0	0	0	0	0	0	0	0	0	0	0	0	0	0	0	0	0	0	0	0	0	0	0	0	0	0	0	0	0	0
0	0	0	0	0	0	0	0	0	0	0	0	0	0	0	0	2252	2252	2266	2266	2266	2266	2281	2266	2281	2281	2281	2281	2297	2281	2281	2281	2281	2266	2266	2266	2266	2266	2266	2266	2266	2281	2281	2281	2297	2297	2297	2297	2297	2297	2297	2312	2297	2297	2297	2297	2312	2312	2312	2312	2312	2312	2327	2343	2359	2376	2376	2376	2376	2392	2392	2496	2514	2532	2551	2532	2551	2551	2570	2589	2609	2649	2629	2669	2690	2690	2711	2711	2733	2733	2733	2733	2733	2754	2754	3821	3779	3779	3821	3779	3779	3779	3738	3738	3738	3738	3738	3738	3738	3738	3738	3738	3738	3738	3738	3738	3738	3738	3738	3738	3698	3698	3698	3698	3698	3698	3698	3698	3698	3698	3698	3738	3738	3738	3779	3738	3779	3779	3779	3821	3779	3779	3821	3821	3864	3864	3864	3864	3864	3864	3864	3864	3864	3864	3864	3907	3907	3907	3907	3907	3907	3907	3907	3907	3907	3952	4045	4093	4243	4296	4350	4406	4463	4463	4463	4463	4463	4463	4463	4463	4463	4406	4463	4406	4406	4406	4406	4406	4463	4463	4463	4463	4463	4463	4463	4463	4093	4045	4045	4045	4406	4463	4463	4463	4463	4463	4463	4521	4463	4521	4463	4521	4521	4521	4521	4521	4521	4521	4521	4521	4521	4521	4521	4463	4521	4521	4521	4521	4521	4521	4521	4521	4463	4406	4243	4192	4142	4142	3583	3583	3583	3583	3583	3583	3583	3583	3583	3583	3583	3583	3621	3583	3621	3621	3621	3659	3659	3698	3698	3698	3698	3698	3698	3659	3659	3659	3659	3621	3621	3659	3659	3659	3659	3659	3659	3659	3621	3621	4296	4296	4296	4243	4243	4243	4243	4243	4243	4243	4243	4243	4243	4243	4243	4243	4243	4243	4243	4243	4243	4243	4243	4243	4243	4243	4192	4192	4192	4192	4192	4192	4192	4192	4243	4192	4243	4243	4243	4296	4296	4296	4296	4296	4243	4243	4243	4192	4192	4192	4192	4192	4243	4243	4243	4243	4243	4192	4243	4243	4243	4243	4243	4243	4243	4243	4243	4243	4243	4243	4243	4243	4243	4243	4243	4243	4296	4296	4243	4192	4192	4192	4243	4243	4243	4296	4296	4296	4296	4243	4243	4192	4142	4142	4142	4142	4142	4142	4142	4142	4142	4142	4142	4142	4142	4142	4142	4142	4142	4142	4142	4142	4142	4142	4142	4142	4142	4142	4142	4142	4142	4142	4142	4142	4142	4142	4142	4142	4142	4142	4142	4142	4142	4142	4142	4142	4142	4142	4142	4142	4142	4142	4142	4142	4142	4142	4142	4142	4142	4142	4142	4192	4192	4192	4243	4243	4296	4296	4350	4350	4350	4406	4406	4463	4463	4463	4463	4521	4521	6235	6235	6235	6235	6235	6235	6235	6235	6235	6235	6235	6235	6349	6349	6468	6468	6468	6468	6468	6468	6468	6468	6468	6468	0	0	0	0	0	0	0	0	0	0	0	0	0	0	0	0	0	0	0	0	0	0	0	1268	1272	1272	1272	1272	1272	1272	1268	1263	1263	1263	1263	1259	1259	1259	1259	1259	1259	1259	1259	1259	1259	1259	1254	1254	1254	1254	1254	1254	1254	1254	1259	1254	1259	1259	1259	1254	1254	1254	1254	1254	1254	1259	1254	1254	1259	1259	1153	1153	1153	1153	1153	1153	1153	1153	0	0	0	0	0	0	0	0	0	0	0	0	0	0	0	0	0	0	0	0	0	0	0	0	0	562	561	560	559	559	557	557	557	555	555	555	555	0	0	0	0	0	0	0	0	0	0	0	0	0	0	0	0	0	0	0	0	0	0	0	0	0	0	0	0	0	0	0	0	0	0	0	0	0	0	0	0	0	0	0	0	0	0	0	0	0	0	0	0	0	0
0	0	0	0	0	0	0	0	0	0	0	0	0	0	0	0	2252	2252	2252	2266	2266	2266	2281	2281	2281	2281	2297	2297	2297	2297	2297	2297	2281	2281	2266	2266	2281	2266	2266	2266	2266	2266	2266	2281	2281	2281	2297	2297	2297	2297	2297	2297	2297	2297	2297	2297	2312	2312	2312	2312	2297	2297	2312	2327	2359	2359	2359	2376	2392	2409	2443	2460	2496	2514	2532	2532	2532	2570	2589	2589	2609	2649	2629	2669	2669	2690	2711	2711	2711	2711	2733	2733	2733	2754	2754	0	3821	3821	3821	3779	3779	3779	3738	3738	3738	3738	3738	3738	3738	3738	3738	3738	3738	3738	3738	3738	3738	3738	3738	3738	3698	3698	3698	3698	3698	3698	3698	3698	3738	3698	3738	3738	3738	3738	3779	3779	3779	3738	3738	3779	3779	3779	3821	3821	3864	3864	3864	3864	3864	3864	3864	3864	3864	3864	3907	3907	3907	3907	3907	3907	3907	3907	3907	3907	3952	3952	4045	4093	4142	4243	4296	4296	4350	4406	4406	4463	4463	4463	4406	4406	4406	4350	4350	4350	4350	4350	4406	4406	4463	4463	4463	4463	4463	4463	4463	4406	4093	4045	4045	4093	4093	4406	4463	4463	4463	4463	4463	4463	4463	4463	4463	4521	4521	4521	4521	4521	4521	4521	4521	4521	4521	4521	4521	4463	4521	4521	4521	4521	4521	4521	4521	4521	4463	4406	4192	4192	4142	4142	3583	3583	3583	3583	3583	3583	3583	3583	3583	3583	3583	3583	3583	3583	3621	3621	3621	3659	3659	3698	3698	3698	3698	3698	3698	3698	3698	3659	3659	3621	3621	3659	3659	3659	3659	3659	3659	3621	3621	3621	4296	4296	4296	4243	4243	4243	4243	4243	4243	4243	4243	4243	4243	4243	4243	4243	4243	4243	4192	4243	4243	4243	4243	4243	4243	4243	4243	4243	4192	4192	4192	4192	4243	4243	4243	4243	4243	4243	4243	4296	4296	4296	4296	4296	4296	4243	4243	4243	4192	4192	4192	4243	4243	4243	4243	4243	4243	4243	4243	4243	4243	4243	4243	4296	4296	4296	4243	4243	4243	4243	4243	4243	4243	4243	4243	4243	4243	4243	4243	4192	4192	4192	4243	4243	4243	4296	4296	4296	4296	4243	4243	4192	4192	4142	4142	4142	4142	4142	4142	4142	4142	4142	4142	4142	4142	4142	4142	4142	4142	4142	4142	4142	4142	4142	4142	4142	4142	4142	4142	4142	4142	4142	4142	4192	4192	4142	4142	4142	4142	4142	4142	4142	4142	4142	4142	4142	4142	4142	4142	4142	4142	4142	4142	4142	4142	4142	4142	4192	4142	4142	4142	4192	4192	4192	4192	4243	4296	4296	4350	4350	4350	4406	4406	4463	4463	4463	4406	4463	4463	6235	6235	6235	6235	6235	6235	6235	6235	6235	6349	6235	6349	6349	6468	6468	6468	6468	6468	6468	6468	6468	6468	6468	6468	0	0	0	0	0	0	0	0	0	0	0	0	0	0	0	0	0	0	0	0	0	0	0	1272	1272	1272	1272	1272	1272	1272	1268	1263	1263	1259	1259	1259	1259	1259	1259	1263	1259	1259	1259	1259	1259	1259	1254	1254	1254	1254	1254	1254	1254	1254	1259	1259	1259	1259	1254	1254	1254	1254	1254	1254	1254	1254	1254	1254	1259	1259	1153	1153	1153	1153	1153	1153	1153	1153	0	0	0	0	0	0	0	0	0	0	0	0	0	0	0	0	0	0	0	0	0	0	0	0	0	562	562	561	560	557	557	557	557	555	555	555	555	0	0	0	0	0	0	0	0	0	0	0	0	0	0	0	0	0	0	0	0	0	0	0	0	0	0	0	0	0	0	0	0	0	0	0	0	0	0	0	0	0	0	0	0	0	0	0	0	0	0	0	0	0	0
0	0	0	0	0	0	0	0	0	0	0	0	0	0	0	0	2237	2252	2252	2266	2266	2266	2281	2281	2281	2281	2297	2297	2297	2281	2281	2297	2281	2266	2266	2266	2266	2266	2266	2266	2266	2281	2266	2281	2297	2281	2281	2297	2297	2297	2297	2297	2297	2297	2297	2297	2297	2312	2312	2312	2297	2297	2312	2312	2327	2343	2359	2376	2376	2426	2443	2460	2496	2514	2514	2514	2532	2551	2570	2589	2589	2629	2629	2669	2669	2690	2711	2711	2711	2711	2711	2733	2733	2754	2754	2754	3821	3821	3821	3779	3779	3779	3779	3779	3779	3738	3738	3738	3779	3738	3738	3738	3738	3738	3738	3738	3738	3698	3698	3698	3698	3698	3698	3698	3698	3698	3698	3698	3738	3738	3738	3738	3738	3779	3779	3779	3779	3779	3779	3821	3779	3779	3779	3779	3821	3864	3864	3864	3864	3864	3864	3907	3907	3907	3907	3907	3907	3907	3907	3907	3907	3907	3907	3907	3952	3952	4045	4045	4093	4192	4243	4243	4296	4296	4350	4350	4350	4350	4350	4350	4350	4350	4350	4350	4350	4350	4350	4406	4406	4463	4463	4463	4463	4406	4463	4142	4093	4045	4045	4045	4406	4463	4463	4521	4463	4463	4463	4521	4521	4521	4463	4521	4521	4521	4521	4521	4521	4521	4521	4521	4521	4521	4521	4463	4463	4521	4521	4521	4521	4521	4521	4521	4521	4406	4243	4142	4142	4093	3621	3621	3621	3583	3583	3583	3583	3583	3583	3583	3583	3583	3583	3583	3621	3621	3621	3659	3659	3659	3698	3698	3698	3698	3698	3698	3698	3698	3659	3659	3659	3659	3659	3659	3659	3659	3659	3621	3621	3621	4296	4296	4296	4243	4243	4243	4243	4243	4243	4243	4243	4243	4243	4243	4243	4243	4243	4243	4192	4243	4243	4243	4243	4243	4243	4243	4243	4243	4243	4192	4243	4243	4243	4243	4243	4243	4243	4243	4243	4296	4296	4296	4296	4296	4243	4243	4243	4243	4192	4192	4192	4243	4243	4243	4243	4243	4243	4243	4243	4243	4243	4243	4243	4243	4296	4296	4296	4296	4243	4243	4243	4243	4243	4243	4243	4243	4243	4243	4192	4192	4192	4192	4192	4243	4243	4296	4243	4296	4296	4243	4243	4192	4192	4192	4142	4142	4142	4142	4142	4142	4142	4142	4142	4142	4142	4142	4142	4142	4142	4142	4142	4142	4142	4142	4142	4142	4142	4192	4192	4142	4142	4142	4142	4192	4192	4142	4142	4142	4142	4142	4142	4142	4142	4142	4142	4093	4142	4142	4142	4142	4142	4142	4142	4142	4142	4142	4142	4192	4192	4142	4142	4192	4192	4192	4243	4243	4296	4296	4350	4350	4406	4406	4406	4463	4463	4463	4406	4406	4406	6349	6235	6235	6235	6235	6235	6235	6235	6235	6235	6235	6349	6349	6468	6468	6468	6468	6468	6468	6468	6468	6468	6468	6468	0	0	0	0	0	0	0	0	0	0	0	0	0	0	0	0	0	0	0	0	0	0	1272	1272	1272	1272	1272	1272	1272	1272	1268	1263	1263	1259	1259	1259	1259	1259	1263	1263	1259	1263	1259	1259	1259	1259	1254	1254	1254	1254	1254	1254	1254	1254	1259	1259	1259	1259	1259	1254	1254	1254	1254	1254	1254	1254	1254	1254	1259	1259	1259	1153	1153	1153	1150	1150	0	0	0	0	0	0	0	0	0	0	0	0	0	0	0	0	0	0	0	0	0	0	0	0	0	0	0	561	560	560	559	558	558	557	556	556	555	554	554	0	0	0	0	0	0	0	0	0	0	0	0	0	0	0	0	0	0	0	0	0	0	0	0	0	0	0	0	0	0	0	0	0	0	0	0	0	0	0	0	0	0	0	0	0	0	0	0	0	0	0	0	0	0
0	0	0	0	0	0	0	0	0	0	0	0	0	0	0	0	2237	2252	2252	2266	2281	2281	2281	2281	2281	2281	2297	2297	2297	2281	2281	2281	2281	2266	2266	2266	2266	2266	2266	2266	2281	2266	2281	2281	2297	2281	2281	2281	2281	2297	2297	2297	2297	2297	2297	2297	2312	2312	2297	2297	2297	2297	2312	2312	2327	2343	2359	2376	2409	2426	2443	2460	2478	2496	2496	2514	2532	2551	2570	2570	2589	2609	2629	2649	2690	2690	2711	2711	2711	2711	2711	2733	2733	2733	2733	2754	3779	3779	3779	3738	3738	3779	3779	3738	3779	3779	3738	3738	3738	3738	3738	3738	3738	3738	3738	3738	3738	3698	3698	3698	3698	3659	3698	3659	3698	3698	3698	3698	3738	3738	3738	3738	3738	3738	3779	3779	3779	3738	3738	3779	3779	3779	3779	3779	3821	3864	3864	3864	3864	3864	3864	3864	3864	3907	3907	3907	3907	3907	3907	3907	3907	3907	3907	3907	3952	3952	3998	4045	4093	4142	4142	4243	4243	4296	4296	4350	4350	4350	4350	4350	4350	4296	4350	4350	4350	4350	4350	4350	4463	4463	4463	4463	4406	4406	4142	4093	4045	4045	4045	4045	4521	4521	4521	4521	4521	4521	4521	4521	4521	4521	4521	4521	4521	4521	4521	4521	4521	4521	4521	4521	4521	4521	4521	4521	4521	4521	4521	4521	4521	4521	4521	4521	4463	4406	4243	4192	4192	4142	4142	3621	3583	3583	3583	3583	3583	3583	3583	3583	3583	3583	3583	3583	3621	3621	3621	3659	3659	3659	3659	3698	3698	3698	3698	3698	3698	3659	3659	3659	3621	3659	3659	3659	3659	3659	3659	3621	3621	3621	4296	4296	4243	4243	4243	4243	4243	4243	4243	4243	4243	4243	4243	4243	4243	4243	4243	4243	4192	4243	4243	4243	4243	4243	4243	4243	4243	4243	4243	4192	4192	4192	4243	4243	4243	4243	4243	4243	4243	4296	4296	4296	4296	4243	4243	4243	4243	4243	4243	4192	4192	4243	4243	4243	4243	4243	4192	4243	4243	4243	4243	4243	4243	4296	4296	4296	4296	4296	4296	4296	4243	4296	4243	4243	4243	4243	4243	4243	4192	4192	4192	4192	4243	4243	4243	4296	4243	4296	4296	4243	4243	4192	4142	4142	4142	4142	4142	4142	4142	4142	4142	4142	4142	4142	4142	4142	4142	4142	4142	4142	4142	4142	4142	4142	4142	4142	4192	4192	4192	4142	4142	4142	4142	4142	4142	4142	4142	4142	4142	4142	4142	4142	4142	4142	4142	4093	4142	4142	4142	4142	4142	4142	4142	4142	4142	4142	4142	4142	4142	4142	4142	4192	4192	4192	4192	4243	4296	4296	4350	4406	4406	4406	4406	4406	4463	4463	4463	4463	4463	6235	6124	6235	6235	6235	6235	6235	6235	6235	6235	6349	6349	6349	6349	6468	6468	6468	6468	6468	6468	6468	6468	6468	6468	0	0	0	0	0	0	0	0	0	0	0	0	0	0	0	0	0	0	0	0	0	0	1277	1277	1277	1272	1272	1272	1272	1272	1268	1263	1263	1259	1263	1263	1259	1259	1263	1263	1263	1263	1263	1259	1259	1259	1254	1254	1254	1254	1254	1254	1254	1254	1259	1259	1259	1259	1254	1254	1254	1254	1254	1254	1254	1254	1259	1254	1254	1259	1259	0	1153	1153	1150	1150	0	0	0	0	0	0	0	0	0	0	0	0	0	0	0	0	0	0	0	0	0	0	0	0	0	561	561	560	560	560	559	557	556	555	554	553	553	554	554	0	0	0	0	0	0	0	0	0	0	0	0	0	0	0	0	0	0	0	0	0	0	0	0	0	0	0	0	0	0	0	0	0	0	0	0	0	0	0	0	0	0	0	0	0	0	0	0	0	0	0	0	0	0
0	0	0	0	0	0	0	0	0	0	0	0	0	0	0	0	2237	2252	2252	2252	2266	2266	2266	2266	2281	2281	2297	2297	2281	2297	2281	2281	2281	2266	2266	2266	2266	2266	2266	2266	2266	2281	2281	2281	2281	2266	2281	2281	2281	2297	2297	2297	2297	2297	2297	2297	2297	2312	2297	2297	2297	2297	2312	2327	2327	2343	2359	2376	2409	2426	2443	2460	2478	2496	2496	2514	2532	2551	2551	2570	2570	2589	2609	2649	2669	2690	2711	2711	2711	2711	2711	2733	2733	2733	2733	3698	3779	3779	3779	3779	3779	3779	3779	3779	3779	3779	3779	3779	3779	3779	3779	3779	3779	3779	3779	3738	3738	3698	3698	3698	3698	3659	3659	3659	3738	3738	3698	3698	3738	3698	3698	3698	3738	3738	3779	3779	3738	3738	3738	3779	3738	3738	3738	3779	3821	3864	3864	3907	3907	3907	3907	3907	3907	3907	3907	3907	3907	3907	3907	3907	3907	3907	3907	3952	3952	3998	4045	4045	4142	4192	4243	4243	4296	4296	4296	4296	4296	4296	4296	4296	4296	4296	4296	4296	4350	4350	4350	4350	4406	4463	4463	4406	4406	4142	4142	4093	4093	4093	4093	4093	4521	4521	4521	4521	4521	4521	4521	4521	4521	4521	4521	4521	4521	4521	4521	4521	4521	4521	4521	4521	4521	4521	4521	4521	4463	4521	4521	4521	4521	4521	4521	4521	4463	4406	4243	4192	4192	4192	3621	3621	3583	3583	3583	3583	3583	3583	3583	3621	3583	3583	3583	3583	3583	3621	3621	3659	3659	3659	3698	3698	3698	3698	3698	3698	3698	3659	3659	3659	3621	3659	3659	3659	3659	3659	3659	3659	3659	4296	4243	4243	4243	4243	4243	4243	4243	4243	4243	4243	4243	4243	4243	4243	4243	4243	4243	4243	4243	4243	4243	4243	4243	4243	4243	4243	4243	4243	4243	4192	4243	4243	4243	4243	4243	4243	4243	4243	4243	4296	4296	4296	4296	4243	4243	4243	4243	4243	4243	4243	4243	4243	4243	4243	4243	4243	4243	4243	4243	4243	4243	4243	4243	4296	4296	4296	4296	4296	4296	4296	4296	4296	4296	4243	4243	4243	4243	4243	4192	4192	4192	4192	4243	4243	4243	4296	4243	4296	4243	4243	4243	4192	4142	4142	4142	4142	4142	4142	4142	4142	4142	4142	4142	4142	4142	4142	4142	4142	4142	4142	4142	4142	4142	4142	4142	4192	4192	4192	4192	4192	4142	4142	4142	4142	4142	4142	4142	4192	4142	4142	4142	4142	4142	4142	4142	4142	4142	4142	4142	4142	4142	4142	4142	4142	4142	4142	4142	4142	4142	4142	4142	4142	4192	4192	4192	4243	4296	4296	4350	4350	4350	4406	4406	4463	4463	4521	4463	4463	4463	4463	6124	6235	6235	6235	6235	6235	6235	6235	6235	6235	6235	6349	6349	6349	6349	6468	6468	6349	6468	6468	6468	6468	0	0	0	0	0	0	0	0	0	0	0	0	0	0	0	0	0	0	0	0	0	0	0	1277	1277	1277	1277	1272	1272	1272	1272	1268	1263	1263	1259	1263	1263	1263	1263	1263	1268	1263	1263	1263	1259	1259	1259	1254	1254	1254	1254	1254	1254	1254	1254	1259	1259	1259	1259	1259	1254	1254	1254	1254	1254	1254	1254	1254	1254	1254	1259	1259	0	0	0	0	0	0	0	0	0	0	0	0	0	0	0	0	0	0	0	0	0	0	0	0	0	0	0	0	0	0	561	561	560	560	560	560	557	556	555	554	553	554	554	554	0	0	0	0	0	0	0	0	0	0	0	0	0	0	0	0	0	0	0	0	0	0	0	0	0	0	0	0	0	0	0	0	0	0	0	0	0	0	0	0	0	0	0	0	0	0	0	0	0	0	0	0	0	0
0	0	0	0	0	0	0	0	0	0	0	0	0	0	0	0	2252	2252	2252	2252	2252	2252	2252	2266	2266	2266	2281	2281	2281	2281	2281	2281	2281	2281	2266	2266	2266	2266	2281	2281	2281	2281	2281	2281	2281	2266	2281	2281	2297	2297	2297	2297	2297	2312	2312	2312	2312	2312	2297	2297	2297	2312	2312	2327	2343	2359	2359	2376	2392	2426	2443	2460	2460	2496	2496	2514	2532	2551	2570	2570	2589	2589	2629	2649	2669	2711	2711	2711	2711	2711	2711	2711	2711	2733	2733	3738	3779	3738	3779	3779	3738	3738	3738	3779	3779	3779	3779	3779	3779	3779	3779	3779	3779	3738	3779	3738	3698	3698	3698	3698	3698	3698	3698	3698	3738	3738	3698	3698	3698	3698	3698	3698	3698	3738	3738	3779	3738	3738	3738	3779	3779	3738	3738	3779	3821	3864	3864	3907	3907	3907	3907	3907	3907	3907	3907	3907	3907	3907	3907	3907	3952	3907	3907	3952	4045	4045	4093	4093	4142	4192	4243	4243	4296	4296	4296	4296	4296	4296	4296	4296	4296	4296	4296	4296	4296	4296	4296	4296	4406	4406	4406	4406	4406	4142	4093	4093	4093	4093	4093	4093	4521	4521	4521	4521	4521	4521	4521	4521	4521	4521	4521	4521	4521	4521	4521	4581	4521	4521	4521	4521	4521	4521	4521	4521	4521	4521	4521	4521	4521	4521	4521	4521	4463	4406	4243	4243	4192	4192	3621	3621	3621	3583	3583	3583	3583	3583	3583	3583	3583	3583	3583	3583	3621	3621	3621	3659	3659	3659	3698	3698	3698	3698	3698	3698	3698	3659	3659	3621	3621	3621	3621	3621	3659	3659	3659	3698	3698	4296	4243	4243	4243	4243	4243	4192	4243	4243	4243	4243	4243	4243	4243	4243	4243	4243	4243	4243	4243	4243	4243	4243	4243	4243	4243	4243	4243	4243	4243	4243	4243	4243	4243	4243	4192	4192	4243	4192	4243	4296	4296	4296	4243	4243	4243	4243	4243	4243	4243	4243	4243	4243	4243	4243	4243	4243	4192	4243	4243	4192	4243	4243	4243	4243	4296	4296	4296	4296	4296	4296	4296	4296	4243	4243	4243	4243	4243	4243	4243	4243	4192	4243	4243	4243	4243	4296	4296	4296	4296	4243	4243	4192	4142	4192	4142	4142	4142	4142	4142	4142	4142	4142	4142	4142	4142	4142	4142	4142	4142	4142	4142	4142	4142	4142	4142	4142	4192	4192	4192	4142	4142	4142	4142	4142	4142	4142	4142	4192	4192	4142	4142	4142	4142	4142	4142	4142	4142	4142	4142	4142	4142	4142	4142	4142	4142	4142	4142	4142	4142	4142	4142	4142	4192	4192	4192	4192	4243	4296	4350	4350	4350	4350	4406	4406	4463	4463	4463	4463	4521	4521	6124	6235	6235	6235	6235	6235	6235	6235	6235	6349	6349	6349	6349	6349	6349	6349	6349	6349	6468	6468	6468	0	0	0	0	0	0	0	0	0	0	0	0	0	0	0	0	0	0	0	0	0	0	0	0	1282	1282	1282	1277	1272	1272	1272	1272	1268	1268	1268	1259	1263	1263	1263	1259	1263	1263	1263	1263	1263	1259	1259	1259	1254	1254	1254	1254	1254	1254	1249	1254	1254	1259	1259	1259	1259	1254	1254	1254	1254	1254	1254	1254	1254	1254	1254	1259	1259	0	0	0	0	0	0	0	0	0	0	0	0	0	0	0	0	0	0	0	0	0	0	0	0	0	0	0	0	0	0	562	561	560	559	560	558	557	556	555	555	554	554	554	554	0	0	0	0	0	0	0	0	0	0	0	0	0	0	0	0	0	0	0	0	0	0	0	0	0	0	0	0	0	0	0	0	0	0	0	0	0	0	0	0	0	0	0	0	0	0	0	0	0	0	0	0	0	0
0	0	0	0	0	0	0	0	0	0	0	0	0	0	0	0	2252	2252	2252	2252	2252	2252	2266	2266	2266	2266	2281	2281	2281	2281	2281	2297	2297	2281	2281	2281	2266	2266	2281	2281	2281	2281	2281	2281	2281	2266	2281	2281	2281	2297	2297	2297	2297	2297	2297	2297	2297	2297	2297	2297	2297	2297	2312	2327	2343	2343	2359	2376	2409	2426	2443	2443	2460	2478	2496	2532	2551	2551	2570	2570	2570	2570	2609	2649	2711	2711	2711	2711	2711	2711	2711	2690	2690	2690	3779	3738	3738	3738	3738	3738	3738	3738	3779	3779	3821	3821	3779	3779	3779	3779	3779	3779	3738	3738	3738	3738	3698	3698	3698	3698	3698	3698	3698	3698	3738	3738	3738	3738	3698	3698	3698	3698	3698	3738	3738	3738	3779	3738	3779	3779	3779	3738	3738	3779	3821	3864	3864	3907	3907	3907	3907	3907	3907	3907	3907	3907	3907	3907	3907	3952	3907	3952	3952	3998	4045	4093	4093	4093	4142	4192	4243	4243	4243	4296	4296	4243	4243	4296	4296	4296	4243	4243	4243	4296	4296	4296	4296	4296	4296	4296	4296	4296	4296	4093	4093	4093	4045	4045	4093	4093	4463	4463	4521	4521	4521	4521	4521	4521	4521	4521	4521	4521	4521	4521	4581	4581	4581	4581	4521	4581	4521	4521	4521	4521	4521	4521	4521	4521	4521	4521	4521	4521	4463	4406	4350	4243	4243	3621	3621	3621	3621	3583	3583	3583	3583	3583	3583	3583	3583	3583	3583	3583	3583	3621	3621	3621	3659	3659	3698	3698	3698	3698	3698	3698	3698	3659	3659	3659	3621	3621	3659	3659	3659	3659	3659	3659	3659	4296	4243	4243	4243	4243	4243	4192	4243	4243	4243	4243	4243	4243	4243	4243	4243	4243	4243	4243	4243	4243	4243	4243	4243	4243	4243	4243	4243	4243	4243	4243	4243	4243	4243	4192	4192	4192	4192	4192	4192	4243	4243	4243	4243	4243	4243	4243	4243	4243	4243	4243	4243	4243	4243	4192	4192	4243	4192	4243	4243	4243	4243	4243	4243	4296	4296	4296	4296	4296	4296	4296	4296	4243	4243	4243	4243	4243	4243	4243	4243	4243	4243	4243	4243	4296	4296	4296	4296	4296	4296	4243	4243	4192	4192	4192	4142	4142	4142	4142	4142	4142	4142	4142	4142	4142	4142	4142	4142	4142	4142	4142	4142	4142	4142	4142	4142	4142	4142	4142	4142	4142	4142	4142	4142	4142	4142	4142	4142	4142	4142	4142	4142	4142	4142	4142	4142	4142	4142	4142	4142	4142	4142	4142	4142	4142	4142	4142	4142	4142	4142	4142	4142	4142	4192	4192	4192	4243	4243	4296	4296	4350	4350	4350	4350	4406	4463	4463	4521	4521	4521	4521	6235	6235	6235	6235	6235	6235	6349	6349	6349	6349	6349	6349	6468	6349	6349	6349	6349	6468	6468	6468	0	0	0	0	0	0	0	0	0	0	0	0	0	0	0	0	0	0	0	0	0	0	0	0	0	1282	1282	1282	1277	1277	1272	1272	1268	1268	1263	1263	1259	1263	1263	1263	1263	1263	1263	1263	1263	1259	1259	1259	1259	1254	1254	1254	1254	1254	1249	1249	1249	1254	1254	1254	1254	1254	1254	1254	1259	1254	1254	1254	1254	1254	1259	1259	1259	1259	0	0	0	0	0	0	0	0	0	0	0	0	0	0	0	0	0	0	0	0	0	0	0	0	0	0	0	0	0	0	562	560	560	559	559	560	557	556	555	554	554	554	554	554	0	0	0	0	0	0	0	0	0	0	0	0	0	0	0	0	0	0	0	0	0	0	0	0	0	0	0	0	0	0	0	0	0	0	0	0	0	0	0	0	0	0	0	0	0	0	0	0	0	0	0	0	0	0
0	0	0	0	0	0	0	0	0	0	0	0	0	0	0	0	2252	2237	2266	2252	2252	2252	2252	2266	2266	2266	2281	2281	2281	2281	2281	2281	2281	2281	2281	2281	2281	2281	2281	2281	2281	2281	2281	2281	2281	2281	2266	2281	2281	2297	2297	2297	2297	2297	2297	2297	2297	2297	2297	2297	2312	2312	2312	2327	2327	2359	2359	2376	2392	2409	2426	2443	2443	2460	2478	2514	2532	2551	2551	2570	2570	2570	2609	2629	2690	2690	2711	2690	2711	2711	2711	2711	2690	2690	3864	3821	3738	3738	3738	3738	3738	3738	3779	3779	3821	3779	3779	3779	3779	3779	3779	3779	3738	3738	3738	3738	3738	3698	3698	3698	3738	3738	3698	3698	3779	3738	3738	3738	3698	3698	3698	3738	3738	3738	3738	3738	3779	3738	3779	3779	3779	3779	3779	3821	3821	3864	3864	3907	3907	3907	3907	3907	3907	3907	3907	3907	3907	3907	3907	3952	3952	3952	3998	4045	4045	4093	4093	4093	4142	4192	4192	4243	4243	4243	4243	4243	4243	4243	4243	4243	4243	4243	4243	4243	4296	4296	4243	4243	4243	4296	4296	4296	4296	4093	4093	4093	4093	4093	4093	4243	4350	4463	4521	4521	4521	4521	4521	4521	4521	4521	4521	4521	4521	4521	4521	4581	4581	4581	4521	4581	4521	4521	4521	4521	4521	4521	4521	4521	4521	4521	4521	4521	4463	4406	4192	4142	4142	4142	3621	3621	3583	3583	3583	3583	3583	3583	3583	3583	3583	3583	3583	3583	3621	3621	3621	3659	3659	3659	3659	3659	3698	3698	3698	3698	3698	3659	3659	3659	3621	3621	3621	3621	3621	3659	3621	3659	3659	4296	4243	4243	4192	4243	4243	4192	4243	4243	4243	4243	4243	4243	4243	4243	4243	4243	4243	4243	4243	4243	4243	4243	4243	4243	4243	4243	4243	4243	4243	4243	4243	4243	4243	4243	4192	4192	4192	4192	4192	4296	4296	4243	4243	4243	4243	4243	4243	4243	4243	4243	4243	4243	4243	4243	4243	4243	4243	4243	4243	4243	4243	4243	4243	4296	4243	4296	4296	4296	4296	4296	4296	4243	4243	4243	4243	4243	4243	4243	4243	4243	4243	4243	4296	4296	4296	4296	4296	4296	4296	4243	4243	4192	4192	4192	4142	4142	4142	4142	4142	4142	4142	4142	4142	4142	4142	4142	4142	4142	4142	4142	4142	4142	4142	4142	4142	4142	4142	4142	4142	4142	4142	4142	4142	4142	4142	4142	4142	4142	4142	4142	4142	4142	4142	4142	4142	4142	4142	4142	4142	4142	4142	4142	4142	4142	4142	4142	4142	4142	4142	4142	4142	4142	4192	4192	4192	4243	4243	4296	4296	4350	4350	4350	4350	4406	4463	4463	4463	4521	4521	4521	6124	6124	6235	6235	6235	6235	6235	6235	6349	6349	6349	6349	6468	6349	6349	6349	6349	6349	6468	6468	0	0	0	0	0	0	0	0	0	0	0	0	0	0	0	0	0	0	1254	1254	1249	1249	0	0	1287	1287	1282	1282	1277	1277	1272	1272	1268	1268	1263	1263	1259	1263	1263	1263	1263	1268	1268	1263	1263	1263	1259	1259	1259	1254	1254	1254	1254	1254	1254	1254	1254	1254	1254	1254	1259	1254	1254	1254	1259	1259	1259	1259	1259	1259	1259	1254	1259	1259	0	0	0	0	0	0	0	0	0	0	0	0	0	0	0	0	0	0	0	0	0	0	0	0	0	0	0	0	0	0	561	560	559	559	559	559	558	556	555	555	555	555	555	555	0	0	0	0	0	0	0	0	0	0	0	0	0	0	0	0	0	0	0	0	0	0	0	0	0	0	0	0	0	0	0	0	0	0	0	0	0	0	0	0	0	0	0	0	0	0	0	0	0	0	0	0	0	0
0	0	0	0	0	0	0	0	0	0	0	0	0	0	0	0	2252	2252	2252	2252	2252	2266	2266	2266	2266	2266	2281	2281	2281	2281	2281	2281	2297	2281	2281	2281	2266	2281	2281	2281	2281	2281	2281	2281	2281	2281	2281	2281	2281	2297	2297	2297	2297	2297	2297	2297	2297	2297	2297	2297	2312	2312	2312	2312	2327	2343	2359	2376	2409	2409	2426	2443	2443	2443	2460	2496	2532	2551	2551	2570	2570	2570	2609	2629	2649	2690	2711	2690	2711	2711	2711	2711	2711	2711	3864	3821	3821	3738	3738	3738	3738	3738	3779	3779	3821	3779	3779	3779	3779	3779	3779	3779	3779	3738	3738	3738	3738	3698	3698	3698	3738	3738	3698	3698	3779	3779	3738	3738	3738	3738	3738	3738	3738	3738	3738	3738	3738	3738	3779	3779	3779	3779	3821	3821	3821	3821	3864	3864	3907	3864	3907	3907	3907	3907	3907	3907	3907	3907	3907	3952	3952	3952	3998	3998	4045	4093	4093	4142	4192	4243	4243	4296	4243	4296	4243	4243	4192	4192	4192	4243	4243	4243	4243	4243	4243	4243	4243	4243	4243	0	0	0	0	0	4093	4093	4093	4093	4192	4243	4350	4463	4463	4521	4521	4521	4521	4521	4463	4521	4521	4521	4521	4521	4521	4581	4581	4581	4581	4581	4581	4521	4521	4521	4521	4521	4521	4521	4521	4521	4521	4521	4463	4463	4192	4192	4093	3659	3621	3621	3583	3621	3583	3583	3583	3583	3583	3583	3583	3583	3583	3621	3583	3583	3583	3621	3621	3659	3659	3698	3698	3698	3698	3659	3659	3659	3659	3659	3621	3621	3621	3621	3659	3659	3621	3621	3621	4296	4243	4243	4243	4243	4243	4192	4192	4243	4243	4243	4243	4243	4243	4243	4192	4192	4192	4243	4243	4243	4243	4243	4243	4243	4243	4243	4243	4243	4243	4243	4243	4243	4243	4192	4192	4192	4192	4192	4192	4296	4296	4243	4243	4243	4243	4243	4243	4243	4243	4243	4243	4243	4243	4243	4243	4243	4243	4243	4243	4192	4192	4243	4243	4243	4243	4296	4296	4296	4296	4296	4296	4243	4243	4243	4243	4243	4243	4243	4243	4296	4243	4243	4296	4296	4296	4296	4296	4296	4296	4243	4243	4192	4192	4142	4142	4142	4142	4142	4142	4142	4142	4142	4142	4142	4142	4142	4142	4142	4142	4142	4142	4142	4142	4142	4142	4142	4142	4142	4142	4142	4142	4142	4142	4142	4142	4142	4142	4142	4142	4142	4142	4142	4142	4142	4142	4142	4142	4142	4142	4142	4142	4142	4142	4142	4142	4142	4142	4142	4142	4142	4142	4192	4192	4192	4192	4243	4243	4296	4296	4350	4350	4350	4406	4406	4463	4521	4521	4521	4521	4521	6124	6124	6124	6124	6235	6235	6235	6235	6235	6235	6349	6468	6468	6468	6349	6468	6468	6468	6468	6468	0	0	0	0	0	0	0	0	0	0	0	0	0	0	0	0	0	1254	1254	1254	1249	1249	0	0	1287	1287	1282	1282	1277	1277	1272	1272	1268	1268	1263	1268	1268	1263	1263	1263	1263	1268	1268	1263	1263	1259	1259	1259	1259	1254	1254	1254	1254	1254	1254	1254	1254	1254	1254	1254	1259	1254	1254	1259	1259	1259	1259	1259	1259	1259	1259	1259	1259	1259	0	0	0	0	0	0	0	0	0	0	0	0	0	0	0	0	0	0	0	0	0	0	0	0	0	0	0	0	0	0	561	560	560	559	559	559	558	556	555	555	555	555	555	555	0	0	0	0	0	0	0	0	0	0	0	0	0	0	0	0	0	0	0	0	0	0	0	0	0	0	0	0	0	0	0	0	0	0	0	0	0	0	0	0	0	0	0	0	0	0	0	0	0	0	0	0	0	0
0	0	0	0	0	0	0	0	0	0	0	0	0	0	0	0	2252	2252	2266	2252	2252	2266	2266	2266	2252	2252	2252	2266	2266	2266	2266	2281	2281	2281	2281	2281	2266	2266	2266	2266	2281	2281	2281	2281	2281	2281	2281	2281	2297	2297	2297	2297	2297	2297	2297	2297	2297	2297	2297	2297	2312	2297	2312	2312	2327	2343	2359	2376	2409	2409	2426	2443	2443	2443	2460	2496	2532	2551	2551	2570	2570	2570	2589	2629	2649	2649	2711	2711	2733	2733	2711	2711	2711	2711	3864	3779	3779	3738	3738	3738	3738	3738	3738	3779	3779	3779	3779	3738	3779	3779	3779	3779	3738	3738	3738	3738	3738	3698	3698	3698	3738	3738	3738	3698	3779	3738	3779	3738	3738	3738	3698	3738	3738	3738	3738	3738	3738	3738	3779	3779	3779	3779	3821	3821	3864	3864	3864	3864	3864	3864	3864	3907	3907	3907	3907	3907	3907	3907	3907	3952	3952	3952	3998	3998	4045	4093	4093	4142	4243	4243	4243	4296	4296	4296	4243	4243	4192	4192	4192	4192	4192	4243	4243	4243	4243	4243	4243	4243	4243	0	0	0	0	0	0	4192	4142	4192	4192	4192	4296	4463	4521	4521	4521	4521	4521	4521	4463	4521	4521	4521	4521	4521	4521	4581	4581	4581	4581	4581	4581	4521	4521	4521	4521	4521	4521	4521	4521	4521	4521	4521	4463	4463	4350	4296	3621	3621	3621	3621	3583	3583	3583	3583	3583	3546	3583	3583	3583	3583	3583	3583	3583	3583	3583	3583	3659	3659	3659	3698	3698	3698	3698	3659	3659	3659	3659	3621	3621	3621	3621	3621	3621	3621	3621	3621	4296	4296	4243	4243	4243	4243	4243	4192	4192	4243	4243	4243	4243	4192	4192	4243	4192	4192	4192	4243	4243	4243	4243	4243	4243	4243	4243	4243	4243	4243	4243	4243	4192	4243	4192	4192	4192	4192	4192	4192	4192	4243	4243	4243	4243	4243	4243	4243	4243	4243	4243	4243	4243	4243	4243	4243	4243	4243	4243	4243	4243	4192	4192	4192	4192	4243	4243	4243	4243	4296	4243	4243	4296	4243	4243	4243	4243	4296	4243	4243	4243	4243	4243	4243	4243	4296	4296	4296	4296	4296	4296	4243	4192	4192	4192	4142	4142	4142	4142	4142	4142	4142	4142	4142	4142	4142	4142	4142	4142	4142	4142	4142	4142	4142	4142	4142	4142	4142	4142	4142	4142	4192	4142	4142	4142	4142	4142	4142	4142	4142	4142	4142	4142	4142	4142	4142	4142	4142	4142	4142	4142	4142	4142	4142	4142	4142	4142	4142	4142	4142	4142	4142	4142	4192	4142	4192	4192	4243	4243	4296	4296	4296	4350	4350	4350	4406	4463	4463	4521	4521	4521	4521	6018	6124	6124	6124	6124	6124	6235	6235	6235	6235	6349	6468	6468	6468	6349	6349	6349	6468	0	0	0	0	0	0	0	0	0	0	0	0	0	0	0	0	0	0	1254	1254	1254	1254	1249	1249	0	0	1287	1287	1282	1282	1282	1277	1272	1268	1268	1268	1263	1268	1268	1263	1263	1263	1263	1263	1263	1263	1263	1259	1259	1259	1254	1254	1254	1254	1254	1254	1254	1254	1254	1254	1254	1254	1254	1259	1259	1259	1259	1259	1259	1259	1259	1259	1259	1254	1259	1259	0	0	0	0	0	0	0	0	0	0	0	0	0	0	0	0	0	0	0	0	0	0	0	0	0	0	0	0	0	1153	1153	561	560	560	558	556	556	556	555	555	555	555	555	555	0	0	0	0	0	0	0	0	0	0	0	0	0	0	0	0	0	0	0	0	0	0	0	0	0	0	0	0	0	0	0	0	0	0	0	0	0	0	0	0	0	0	0	0	0	0	0	0	0	0	0	0	0	0
0	0	0	0	0	0	0	0	0	0	0	0	0	0	0	0	2252	2252	2266	2252	2252	2252	2252	2252	2252	2252	2252	2266	2266	2266	2266	2281	2281	2281	2281	2281	2281	2266	2281	2281	2281	2281	2281	2281	2281	2281	2281	2281	2281	2281	2281	2297	2297	2297	2297	2297	2297	2297	2297	2297	2297	2297	2312	2312	2327	2343	2359	2376	2409	2409	2426	2443	2443	2443	2478	2514	2532	2551	2551	2551	2570	2570	2629	2649	2669	2669	2711	2711	2733	2733	2733	2733	2733	2733	3864	3821	3779	3779	3779	3779	3779	3738	3738	3779	3821	3779	3779	3779	3779	3779	3779	3779	3738	3738	3738	3738	3738	3698	3698	3738	3738	3738	3698	3698	3738	3738	3738	3738	3738	3698	3698	3698	3738	3738	3738	3738	3738	3738	3738	3779	3779	3821	3864	3864	3864	3864	3864	3907	3907	3864	3864	3907	3907	3907	3907	3907	3907	3907	3907	3907	3952	3952	3952	3998	4045	4045	4093	4142	4243	4243	4296	4296	4296	4296	4243	4192	4192	4192	4192	4192	4192	4243	4243	4243	4243	4243	4243	4243	4243	0	0	4350	4350	4296	4296	4243	4142	4142	4142	4192	4243	4463	4521	4521	4521	4521	4521	4521	4463	4463	4463	4463	4521	4521	4521	4581	4581	4581	4581	4581	4521	4521	4521	4521	4521	4521	4521	4521	4521	4521	4521	4521	4463	4463	4350	4296	3621	3621	3621	3583	3583	3583	3583	3583	3583	3546	3546	3583	3583	3583	3583	3583	3583	3583	3583	3659	3659	3659	3698	3698	3698	3698	3698	3659	3659	3659	3659	3621	3621	3621	3621	3621	3621	3621	3583	3583	4296	4296	4243	4243	4243	4243	4243	4192	4192	4243	4243	4243	4243	4192	4192	4243	4192	4192	4192	4243	4243	4243	4243	4243	4243	4243	4243	4243	4243	4243	4243	4243	4243	4243	4192	4192	4192	4192	4192	4192	4192	4243	4243	4243	4243	4243	4296	4243	4243	4243	4243	4243	4243	4243	4243	4243	4243	4243	4243	4243	4243	4192	4192	4192	4192	4192	4243	4243	4243	4243	4243	4243	4243	4243	4192	4192	4243	4243	4243	4243	4243	4243	4243	4243	4296	4296	4296	4296	4296	4296	4296	4243	4192	4192	4192	4142	4142	4142	4142	4142	4142	4142	4142	4142	4142	4142	4142	4142	4142	4142	4142	4142	4142	4142	4142	4142	4142	4142	4142	4142	4142	4142	4142	4142	4142	4142	4142	4142	4142	4142	4142	4142	4142	4142	4142	4142	4142	4142	4142	4142	4142	4142	4142	4142	4142	4142	4142	4142	4142	4142	4142	4142	4142	4142	4192	4192	4243	4243	4243	4296	4296	4296	4350	4350	4406	4406	4463	4521	4521	4521	4521	4521	6124	6124	6124	6124	6124	6235	6235	6235	6235	6235	6349	6468	6468	6468	6349	6349	6349	0	0	0	0	0	0	0	0	0	0	0	0	0	0	0	0	0	1259	1254	1254	1254	1254	1254	1249	1249	0	0	1287	1287	1282	1282	1282	1277	1272	1268	1268	1268	1263	1268	1268	1263	1263	1263	1263	1263	1259	1259	1259	1259	1259	1254	1254	1254	1259	1254	1254	1254	1254	1254	1254	1254	1254	1254	1259	1259	1259	1259	1259	1259	1259	1259	1259	1259	1259	1254	1254	1259	1259	0	0	0	0	0	0	0	0	0	0	0	0	0	0	0	0	0	0	0	0	0	0	0	0	0	0	0	0	1153	1153	561	559	559	558	556	555	555	555	554	555	555	555	555	0	0	0	0	0	0	0	0	0	0	0	0	0	0	0	0	0	0	0	0	0	0	0	0	0	0	0	0	0	0	0	0	0	0	0	0	0	0	0	0	0	0	0	0	0	0	0	0	0	0	0	0	0	0
0	0	0	0	0	0	0	0	0	0	0	0	0	0	0	0	2252	2252	2266	2252	2252	2252	2266	2266	2266	2252	2252	2266	2252	2266	2266	2281	2281	2281	2281	2281	2281	2281	2281	2281	2281	2281	2281	2281	2281	2281	2281	2281	2266	2281	2281	2281	2297	2297	2297	2297	2297	2297	2297	2312	2312	2312	2312	2327	2327	2343	2343	2376	2409	2409	2426	2443	2443	2443	2478	2478	2551	2551	2570	2570	2589	2589	2649	2669	2669	2690	2711	2711	2711	2711	2711	2711	2733	2733	3864	3821	3779	3779	3779	3779	3779	3738	3738	3779	3779	3779	3779	3779	3779	3779	3779	3779	3738	3738	3738	3738	3698	3698	3698	3698	3738	3698	3698	3698	3779	3779	3738	3738	3738	3698	3698	3698	3698	3698	3698	3738	3738	3738	3779	3779	3779	3821	3864	3864	3864	3864	3864	3864	3864	3864	3864	3907	3907	3907	3907	3907	3907	3907	3864	3864	3907	3907	3952	3998	3998	4045	4093	4192	4192	4192	4296	4296	4296	4296	4296	4192	4192	4192	4192	4192	4192	4192	4243	4243	4243	4192	4192	4192	4243	4296	4296	4350	4350	4350	4296	4296	4192	4192	4142	4192	4192	4406	4406	4521	4521	4521	4521	4521	4463	4521	4521	4521	4521	4521	4521	4581	4521	4521	4521	4581	4521	4521	4521	4521	4521	4521	4521	4521	4521	4521	4521	4521	4463	4463	4350	4243	4093	3621	3621	3583	3583	3583	3583	3583	3583	3583	3583	3583	3583	3583	3583	3583	3583	3583	3659	3659	3698	3698	3698	3698	3698	3698	3698	3659	3659	3659	3659	3621	3621	3621	3621	3621	3621	3583	3583	3583	4296	4243	4243	4243	4243	4243	4243	4192	4192	4243	4243	4243	4243	4243	4192	4243	4192	4192	4192	4192	4243	4243	4243	4243	4243	4243	4243	4243	4243	4243	4243	4243	4192	4192	4192	4192	4192	4192	4192	4192	4192	4243	4296	4296	4243	4296	4296	4243	4243	4243	4243	4243	4296	4243	4243	4243	4243	4243	4243	4243	4192	4192	4192	4243	4192	4192	4192	4243	4243	4243	4243	4243	4243	4243	4192	4243	4243	4243	4243	4243	4243	4243	4243	4243	4296	4296	4296	4350	4350	4296	4296	4243	4192	4192	4192	4142	4142	4142	4142	4142	4142	4142	4142	4142	4142	4142	4142	4142	4093	4142	4142	4142	4142	4142	4142	4142	4192	4142	4142	4142	4192	4192	4142	4142	4142	4142	4142	4142	4142	4142	4142	4142	4142	4142	4142	4142	4142	4142	4142	4142	4142	4142	4142	4142	4142	4142	4142	4142	4142	4142	4142	4142	4142	4192	4192	4243	4243	4296	4296	4296	4296	4296	4350	4350	4350	4406	4406	4463	4463	4521	4463	4463	6235	6124	6124	6124	6124	6124	6235	6235	6235	6235	6235	6235	6468	6468	6468	6349	0	0	0	0	0	0	0	0	0	0	0	0	0	0	0	0	0	0	1259	1259	1254	1254	1254	1254	1254	1254	0	0	1287	1287	1282	1282	1277	1277	1272	1268	1268	1263	1263	1263	1268	1263	1263	1263	1263	1263	1259	1259	1259	1259	1259	1254	1254	1254	1259	1254	1254	1254	1254	1254	1254	1254	1254	1254	1254	1254	1259	1259	1259	1259	1259	1259	1259	1259	1259	1259	1254	1259	1259	0	0	0	0	0	0	0	0	0	0	0	0	0	0	0	0	0	0	0	0	0	0	0	0	0	0	0	0	1153	1153	560	558	558	558	556	555	555	554	554	555	555	555	555	0	0	0	0	0	0	0	0	0	0	0	0	0	0	0	0	0	0	0	0	0	0	0	0	0	0	0	0	0	0	0	0	0	0	0	0	0	0	0	0	0	0	0	0	0	0	0	0	0	0	0	0	0	0
0	0	0	0	0	0	0	0	0	0	0	0	0	0	0	0	2252	2252	2266	2266	2266	2266	2266	2281	2266	2266	2252	2266	2266	2266	2281	2281	2281	2281	2281	2266	2281	2281	2266	2281	2281	2281	2281	2281	2281	2281	2281	2266	2266	2281	2281	2281	2297	2281	2297	2297	2297	2297	2297	2297	2312	2312	2312	2312	2327	2327	2359	2376	2409	2409	2409	2443	2443	2460	2478	2532	2551	2570	2570	2589	2609	2629	2629	2669	2669	2690	2711	2733	2733	2733	2733	2733	2733	2733	3864	3821	3821	3779	3779	3779	3779	3779	3738	3779	3779	3779	3779	3779	3779	3779	3779	3738	3738	3698	3738	3698	3698	3698	3698	3698	3698	3698	3698	3698	3738	3738	3738	3738	3738	3698	3698	3698	3738	3738	3738	3738	3738	3738	3738	3779	3779	3821	3864	3864	3864	3864	3864	3864	3864	3864	3864	3907	3907	3864	3907	3864	3864	3821	3821	3821	3864	3864	3907	3907	3907	3738	3738	3698	3698	3698	3698	3698	3698	3698	4243	4243	4192	4243	4192	4192	4192	4243	4243	4243	4243	4243	4243	4243	4296	4296	4406	4406	4350	4296	4296	4243	4192	4192	4142	4192	4192	4350	4463	4463	4521	4521	4463	4463	4463	4521	4463	4463	4463	4521	4521	4521	4521	4521	4521	4521	4521	4521	4521	4521	4521	4521	4521	4521	4521	4521	4521	4463	4463	4406	4296	4142	4093	4045	3998	3998	3583	3621	3583	3583	3583	3583	3583	3583	3583	3583	3583	3583	3621	3621	3659	3659	3698	3698	3698	3698	3698	3659	3698	3659	3659	3659	3659	3659	3621	3621	3621	3621	3621	3583	3583	3583	4296	4243	4243	4243	4243	4192	4192	4192	4192	4243	4243	4243	4243	4243	4192	4192	4243	4192	4192	4243	4243	4243	4243	4243	4243	4243	4243	4243	4243	4243	4243	4243	4192	4192	4192	4243	4192	4192	4192	4192	4192	4243	4296	4296	4243	4296	4296	4296	4296	4296	4296	4243	4296	4243	4243	4243	4192	4192	4243	4192	4192	4192	4192	4243	4192	4192	4192	4243	4243	4192	4192	4243	4243	4243	4243	4243	4243	4243	4243	4243	4243	4243	4243	4243	4243	4296	4296	4350	4350	4296	4296	4243	4192	4192	4142	4142	4142	4142	4142	4142	4142	4142	4142	4142	4142	4142	4142	4093	4093	4093	4142	4142	4142	4142	4142	4142	4192	4192	4192	4192	4192	4192	4192	4142	4142	4142	4142	4142	4142	4142	4142	4142	4142	4142	4142	4142	4142	4142	4142	4142	4142	4142	4142	4142	4142	4142	4142	4142	4142	4142	4192	4192	4192	4192	4192	4243	4243	4296	4296	4296	4296	4296	4350	4350	4350	4406	4406	4463	4463	4463	4463	4463	6124	6124	6018	6018	6124	6124	6124	6124	6235	6235	6235	6349	6468	6468	6468	0	0	0	0	0	0	0	0	0	0	0	0	0	0	0	0	0	0	0	1263	1259	1254	1259	1259	1259	1254	1254	1254	1287	1287	1287	1287	1282	1277	1272	1272	1268	1268	1263	1263	1268	1268	1268	1263	1263	1263	1263	1259	1259	1259	1259	1259	1254	1254	1254	1259	1259	1254	1254	1254	1254	1254	1254	1254	1254	1254	1254	1259	1259	1259	1259	1259	1259	1259	1259	1259	1259	1259	1259	1259	0	0	0	0	0	0	0	0	0	0	0	0	0	0	0	0	0	0	0	0	0	0	0	0	0	0	0	1153	1153	559	560	558	558	557	556	555	555	555	554	555	555	555	555	0	0	0	0	0	0	0	0	0	0	0	0	0	0	0	0	0	0	0	0	0	0	0	0	0	0	0	0	0	0	0	0	0	0	0	0	0	0	0	0	0	0	0	0	0	0	0	0	0	0	0	0	0	0
0	0	0	0	0	0	0	0	0	0	0	0	0	0	0	0	2252	2252	2266	2266	2266	2266	2266	2281	2266	2252	2252	2252	2266	2266	2281	2281	2281	2281	2281	2281	2281	2281	2281	2281	2281	2297	2281	2281	2281	2281	2281	2281	2281	2281	2297	2281	2297	2281	2297	2297	2297	2297	2297	2312	2312	2312	2312	2312	2312	2327	2359	2359	2409	2426	2426	2443	2460	2460	2496	2532	2551	2570	2570	2609	2609	2629	2649	2669	2669	2711	2733	2733	2733	2733	2733	2711	2711	2711	3864	3821	3821	3821	3779	3779	3779	3779	3738	3779	3779	3738	3738	3779	3779	3779	3738	3738	3738	3738	3738	3738	3698	3698	3698	3698	3698	3698	3698	3698	3738	3738	3738	3738	3738	3698	3738	3698	3738	3738	3738	3738	3738	3738	3738	3738	3738	3779	3864	3864	3864	3864	3864	3864	3864	3864	3864	3907	3907	3864	3864	3864	3821	3864	3779	3738	3864	3821	3779	3779	3738	3738	3738	3698	3698	3698	3698	3698	3698	3698	3659	3659	4243	4243	4192	4243	4243	4243	4243	4243	4243	4243	4296	4296	4296	4350	4350	4406	4350	4350	4296	4243	4192	4142	4142	4142	4192	4192	4463	4521	4463	4521	4463	4463	4463	4463	4463	4463	4463	4463	4463	4521	4521	4521	4521	4521	4521	4521	4521	4521	4521	4521	4521	4521	4521	4521	4521	4463	4463	4406	4350	4192	4093	4045	4045	3621	3621	3621	3583	3583	3583	3583	3583	3583	3583	3583	3583	3583	3621	3659	3659	3659	3698	3698	3698	3698	3698	3659	3698	3659	3659	3659	3659	3659	3659	3621	3621	3621	3621	3583	3583	3583	4296	4296	4243	4243	4243	4243	4192	4192	4192	4192	4243	4243	4243	4243	4243	4243	4243	4192	4192	4243	4243	4243	4243	4243	4243	4243	4243	4243	4243	4243	4243	4243	4192	4243	4243	4243	4243	4243	4192	4243	4243	4296	4296	4296	4243	4296	4296	4243	4296	4296	4296	4243	4296	4243	4243	4243	4243	4192	4192	4192	4192	4192	4192	4192	4192	4192	4243	4243	4243	4243	4243	4243	4243	4243	4243	4243	4243	4243	4243	4243	4243	4192	4243	4243	4243	4296	4296	4350	4350	4296	4243	4243	4192	4142	4142	4142	4142	4142	4142	4142	4142	4142	4142	4142	4142	4142	4142	4093	4093	4093	4142	4093	4142	4142	4142	4142	4192	4192	4192	4192	4192	4192	4192	4142	4192	4142	4142	4142	4142	4142	4142	4142	4142	4142	4142	4142	4142	4142	4142	4142	4142	4142	4142	4142	4142	4142	4142	4142	4142	4142	4192	4192	4192	4192	4192	4243	4243	4243	4296	4296	4296	4350	4350	4350	4350	4406	4406	4463	4463	4406	4406	4406	4406	6018	6018	6124	6124	6124	6124	6124	6124	6235	6235	6349	6349	6349	6468	0	0	0	0	0	0	0	0	0	0	0	0	0	0	0	0	0	0	1263	1263	1263	1259	1259	1263	1263	1259	1259	1259	1287	1287	1287	1287	1277	1272	1272	1272	1268	1268	1263	1263	1268	1268	1268	1263	1263	1263	1263	1259	1259	1259	1259	1259	1254	1254	1259	1259	1259	1259	1259	1254	1254	1254	1254	1254	1254	1254	1254	1259	1259	1259	1259	1259	1259	1259	1259	1259	1254	1254	1254	1259	0	0	0	0	0	0	0	0	0	0	0	0	0	0	0	0	0	0	0	0	0	0	0	0	0	0	0	1150	558	558	559	558	558	557	556	555	555	554	554	555	555	555	555	0	0	0	0	0	0	0	0	0	0	0	0	0	0	0	0	0	0	0	0	0	0	0	0	0	0	0	0	0	0	0	0	0	0	0	0	0	0	0	0	0	0	0	0	0	0	0	0	0	0	0	0	0	0
0	0	0	0	0	0	0	0	0	0	0	0	0	0	0	0	2252	2252	2252	2266	2252	2266	2266	2266	2252	2252	2252	2252	2266	2266	2281	2281	2297	2281	2281	2281	2281	2281	2281	2281	2281	2297	2297	2297	2297	2297	2297	2297	2281	2281	2297	2297	2297	2297	2297	2297	2297	2297	2297	2297	2297	2312	2312	2312	2312	2327	2359	2376	2392	2426	2443	2460	2460	2478	2496	2532	2551	2570	2570	2609	2609	2629	2649	2669	2690	2711	2733	2733	2733	2733	2733	2711	2711	2711	2711	3821	3821	3779	3779	3779	3779	3779	3738	3779	3779	3779	3779	3779	3779	3779	3738	3738	3738	3738	3738	3738	3698	3698	3698	3698	3698	3698	3698	3698	3738	3738	3738	3738	3698	3698	3698	3698	3738	3738	3738	3738	3738	3738	3738	3738	3738	3779	3864	3864	3864	3864	3864	3864	3864	3864	3864	3864	3864	3864	3864	3821	3779	3738	3738	3738	3738	3779	3738	3738	3738	3738	3738	3698	3698	3698	3698	3698	3698	3659	3659	3659	4406	4296	4243	4243	4243	4192	4192	4243	4243	4243	4243	4296	4296	4296	4296	4350	4296	4296	4296	4243	4142	4093	4093	4142	4142	4142	4521	4521	4463	4521	4463	4463	4463	4463	4463	4463	4463	4463	4463	4463	4521	4521	4521	4521	4521	4521	4521	4521	4521	4463	4463	4463	4521	4521	4521	4463	4463	4463	4406	4296	4142	4093	4093	3621	3583	3621	3621	3583	3583	3583	3583	3583	3583	3583	3583	3583	3583	3621	3621	3659	3659	3698	3698	3698	3698	3659	3698	3659	3659	3659	3659	3659	3659	3621	3621	3621	3583	3583	3583	4350	4296	4296	4243	4243	4243	4243	4192	4192	4192	4243	4243	4243	4243	4243	4243	4243	4243	4243	4192	4243	4243	4243	4243	4192	4243	4243	4243	4243	4243	4243	4243	4243	4192	4192	4192	4243	4243	4243	4192	4243	4192	4243	4296	4296	4243	4243	4243	4243	4296	4296	4296	4243	4296	4243	4243	4243	4192	4192	4192	4192	4192	4192	4192	4192	4192	4192	4243	4243	4243	4243	4243	4243	4243	4243	4243	4243	4243	4243	4243	4243	4243	4192	4243	4243	4243	4296	4296	4350	4350	4296	4296	4243	4192	4142	4142	4142	4142	4142	4142	4142	4142	4142	4142	4142	4142	4142	4142	4142	4093	4142	4142	4142	4142	4142	4142	4192	4192	4192	4192	4192	4192	4192	4192	4142	4142	4142	4142	4142	4142	4142	4142	4142	4142	4142	4142	4142	4142	4142	4142	4142	4142	4142	4142	4142	4142	4142	4142	4142	4142	4142	4142	4142	4142	4192	4192	4192	4192	4243	4296	4296	4296	4350	4350	4406	4406	4406	4406	4406	4406	4406	4406	4406	4406	6124	6124	6124	6124	6124	6124	6124	6124	6235	6235	6235	6349	6349	0	0	0	0	0	0	0	0	0	0	0	0	0	0	0	0	0	0	0	1263	1268	1263	1263	1263	1268	1268	1268	1268	1268	1291	1291	1291	1287	1277	1277	1272	1272	1268	1268	1263	1263	1268	1268	1263	1263	1263	1263	1259	1259	1259	1259	1259	1259	1254	1254	1254	1254	1259	1254	1259	1254	1254	1254	1254	1254	1254	1259	1254	1259	1259	1259	1254	1259	1254	1254	1254	1259	1254	1249	1249	0	0	0	0	0	0	0	0	0	0	0	0	0	0	0	0	0	0	0	0	0	0	0	0	0	0	0	1150	1150	558	558	559	558	558	556	556	555	555	555	554	555	554	554	554	0	0	0	0	0	0	0	0	0	0	0	0	0	0	0	0	0	0	0	0	0	0	0	0	0	0	0	0	0	0	0	0	0	0	0	0	0	0	0	0	0	0	0	0	0	0	0	0	0	0	0	0	0	0
0	0	0	0	0	0	0	0	0	0	0	0	0	0	0	0	2252	2252	2297	2297	2297	2281	2281	2281	2252	2252	2266	2252	2266	2281	2281	2297	2297	2281	2281	2281	2281	2281	2281	2281	2281	2297	2297	2297	2297	2297	2281	2281	2281	2281	2281	2281	2281	2297	2297	2297	2297	2297	2297	2297	2312	2312	2312	2312	2312	2327	2359	2376	2392	2426	2443	2460	2460	2496	2514	2532	2570	2570	2589	2609	2629	2649	2669	2690	2690	2711	2733	2733	2733	2733	2733	2711	2711	2711	2711	3821	3821	3779	3779	3779	3779	3779	3738	3779	3779	3779	3779	3779	3779	3779	3779	3738	3698	3698	3698	3698	3698	3698	3698	3698	3698	3659	3698	3698	3738	3738	3698	3738	3698	3698	3698	3698	3698	3738	3738	3738	3738	3738	3738	3738	3738	3779	3779	3821	3864	3864	3864	3864	3864	3864	3864	3864	3864	3821	3779	3779	3738	3698	3698	3698	3698	3698	3698	3659	3659	3659	3659	3698	3698	3659	3698	3698	3659	3659	3659	3583	3583	4296	4296	4243	4243	4243	4192	4243	4243	4243	4243	4243	4243	4243	4243	4296	4243	4243	4142	4093	4093	4093	4093	4093	4093	4142	4521	4521	4463	4521	4463	4463	4463	4463	4463	4463	4463	4463	4463	4463	4463	4521	4521	4521	4463	4463	4463	4463	4463	4463	4463	4463	4463	4463	4463	4463	4406	4406	4350	4296	4142	4093	4045	4045	3583	3621	3621	3621	3583	3583	3583	3583	3583	3583	3583	3583	3583	3621	3621	3659	3698	3698	3698	3698	3698	3698	3698	3659	3659	3659	3659	3621	3621	3621	3621	3621	3583	3583	3583	3583	4296	4296	4243	4243	4243	4192	4243	4192	4192	4243	4192	4243	4243	4192	4192	4243	4243	4243	4243	4243	4192	4243	4243	4192	4192	4243	4243	4243	4243	4243	4243	4243	4243	4243	4243	4243	4243	4243	4243	4243	4192	4243	4243	4243	4243	4243	4243	4243	4243	4243	4296	4243	4243	4243	4243	4192	4192	4192	4192	4142	4142	4192	4192	4192	4243	4243	4243	4243	4243	4243	4243	4243	4243	4243	4243	4243	4243	4243	4243	4243	4243	4192	4243	4243	4243	4296	4296	4350	4350	4296	4243	4243	4192	4142	4142	4142	4142	4142	4142	4142	4142	4142	4142	4142	4142	4142	4142	4142	4093	4142	4093	4093	4142	4142	4142	4142	4192	4192	4192	4192	4192	4192	4142	4142	4142	4142	4142	4142	4142	4142	4142	4142	4142	4142	4142	4142	4142	4142	4142	4142	4142	4142	4142	4192	4192	4142	4192	4192	4142	4142	4142	4142	4142	4142	4142	4192	4192	4243	4296	4296	4296	4296	4296	4350	4350	4350	4406	4406	4406	4406	4350	4350	4406	6124	6124	6124	6124	6124	6124	6124	6235	6235	6235	6235	6349	6349	0	0	0	0	0	0	0	0	0	0	0	0	0	0	0	0	0	0	0	1268	1268	1263	1263	1268	1268	1277	1287	1287	1296	1296	1291	1291	1287	1277	1277	1272	1272	1268	1268	1263	1263	1268	1268	1263	1263	1263	1263	1259	1259	1259	1259	1259	1259	1254	1254	1254	1254	1254	1254	1259	1254	1254	1254	1254	1254	1254	1259	1254	1259	1259	1254	1254	1259	1254	1254	1254	1254	1254	1249	1249	0	0	0	0	0	0	0	0	0	0	0	0	0	0	0	0	0	0	0	0	0	0	0	0	0	0	0	1150	1150	557	557	558	557	557	556	555	555	555	554	554	554	554	554	554	0	0	0	0	0	0	0	0	0	0	0	0	0	0	0	0	0	0	0	0	0	0	0	0	0	0	0	0	0	0	0	0	0	0	0	0	0	0	0	0	0	0	0	0	0	0	0	0	0	0	0	0	0	0
0	0	0	0	0	0	0	0	0	0	0	0	0	0	0	0	0	2252	2297	2297	2297	2281	2281	2297	2281	2266	2266	2266	2281	2281	2281	2281	2281	2281	2281	2281	2266	2266	2281	2266	2281	2281	2297	2297	2297	2297	2297	2297	2281	2281	2281	2297	2297	2297	2297	2297	2312	2297	2297	2297	2312	2312	2312	2327	2327	2359	2359	2376	2409	2409	2426	2460	2478	2496	2514	2532	2551	2570	2589	2589	2609	2629	2649	2690	2711	2711	2733	2733	2733	2711	2711	2711	2711	2711	3864	3821	3821	3821	3779	3779	3779	3738	3738	3738	3779	3779	3779	3779	3779	3779	3738	3738	3698	3698	3698	3698	3659	3698	3659	3659	3659	3659	3659	3659	3698	3698	3698	3698	3698	3698	3698	3698	3698	3738	3738	3738	3738	3738	3738	3738	3738	3779	3779	3779	3821	3864	3864	3864	3864	3864	3864	3864	3821	3779	3738	3738	3698	3698	3659	3659	3621	3621	3621	3621	3659	3659	3659	3659	3659	3659	3659	3659	3659	3659	3659	3621	3583	3583	4296	4296	4243	4243	4192	4243	4243	4192	4243	4243	4243	4243	4192	4243	4243	4192	4093	4093	4093	4093	4093	4093	4093	0	0	4521	4463	4521	4463	4463	4463	4463	4463	4463	4463	4463	4463	4463	4463	4463	4521	4463	4463	4463	4463	4463	4463	4463	4463	4406	4463	4463	4463	4406	4406	4350	4296	4296	4192	4093	4093	4093	3621	3621	3621	3621	3583	3583	3583	3583	3583	3583	3583	3583	3583	3621	3621	3659	3659	3698	3698	3659	3698	3659	3659	3659	3659	3659	3659	3659	3659	3621	3621	3621	3621	3583	3583	3583	4296	4296	4243	4243	4192	4192	4192	4192	4192	4243	4192	4243	4243	4243	4243	4243	4243	4243	4243	4243	4243	4243	4192	4192	4192	4243	4243	4243	4243	4243	4243	4243	4243	4243	4243	4243	4243	4243	4243	4243	4192	4243	4243	4243	4243	4243	4243	4243	4243	4296	4296	4296	4296	4243	4243	4192	4192	4142	4142	4142	4142	4192	4192	4192	4243	4243	4243	4243	4243	4243	4243	4243	4243	4243	4243	4243	4243	4243	4243	4243	4243	4243	4296	4296	4296	4296	4296	4350	4350	4296	4243	4296	4192	4192	4142	4142	4142	4142	4142	4142	4142	4142	4142	4142	4142	4142	4142	4142	4142	4142	4142	4093	4142	4142	4142	4142	4192	4142	4142	4192	4142	4142	4142	4142	4142	4142	4142	4142	4142	4142	4142	4142	4142	4142	4142	4142	4142	4142	4142	4142	4142	4142	4142	4142	4142	4142	4192	4142	4142	4142	4142	4142	4142	4142	4142	4142	4192	4192	4243	4296	4296	4296	4296	4350	4350	4350	4406	4463	4463	4406	4406	4406	4406	6124	6124	6124	6124	6124	6124	6235	6235	6235	6235	6235	6235	6349	0	0	0	0	0	0	0	0	0	0	0	0	0	0	0	0	0	0	0	1268	1268	1263	1268	1272	1277	1282	1287	1291	1291	1291	1291	1291	1287	1287	1277	1272	1268	1268	1268	1263	1263	1268	1268	1268	1263	1263	1263	1259	1263	1263	1259	1259	1259	1259	1254	1259	1254	1259	1254	1259	1254	1254	1254	1254	1254	1254	1254	1254	1259	1254	1254	1254	1254	1254	1254	1254	1254	1254	1254	1249	0	0	0	0	0	0	0	0	0	0	0	0	0	0	0	0	0	0	0	0	0	0	0	0	0	0	0	1150	1150	1150	1150	558	557	557	556	555	555	555	554	554	554	554	554	554	0	0	0	0	0	0	0	0	0	0	0	0	0	0	0	0	0	0	0	0	0	0	0	0	0	0	0	0	0	0	0	0	0	0	0	0	0	0	0	0	0	0	0	0	0	0	0	0	0	0	0	0	0	0
0	0	0	0	0	0	0	0	0	0	0	0	0	0	0	0	0	2312	2312	2312	2297	2297	2297	2297	2297	2281	2281	2281	2281	2281	2281	2297	2281	2281	2281	2266	2266	2266	2266	2266	2266	2281	2297	2297	2297	2297	2297	2297	2281	2297	2297	2297	2297	2297	2297	2312	2312	2297	2297	2312	2312	2312	2327	2327	2327	2359	2376	2376	2392	2409	2426	2460	2478	2496	2496	2514	2532	2551	2570	2609	2629	2649	2649	2669	2711	2711	2733	2733	2733	2711	2711	2711	2711	2711	2711	3864	3864	3821	3821	3779	3779	3779	3738	3738	3738	3779	3779	3779	3779	3779	3738	3738	3738	3698	3698	3698	3659	3659	3659	3659	3659	3659	3659	3659	3738	3738	3698	3698	3698	3698	3698	3698	3698	3698	3738	3738	3738	3738	3738	3738	3738	3779	3779	3779	3821	3821	3864	3864	3864	3864	3821	3821	3738	3738	3738	3698	3621	3621	3621	3621	3583	3621	3621	3621	3621	3659	3659	3659	3659	3659	3659	3659	3659	3659	3659	3621	3621	3621	4243	4243	4192	4192	4142	4192	4192	4192	4192	4192	4192	4192	4192	4142	4142	4093	4093	4045	4093	4045	4045	4045	4045	0	0	0	4463	4521	4463	4463	4463	4406	4406	4406	4406	4406	4406	4406	4463	4463	4463	4463	4463	4406	4406	4406	4406	4406	4350	4406	4406	4406	4406	4406	4406	4350	4296	4243	4192	4142	4045	4045	3621	3621	3621	3621	3583	3583	3583	3583	3583	3583	3583	3583	3583	3583	3621	3621	3659	3698	3698	3659	3659	3659	3659	3659	3659	3659	3659	3659	3659	3659	3659	3621	3621	3583	3583	3583	4296	4296	4243	4243	4192	4192	4192	4192	4192	4192	4192	4243	4243	4243	4243	4243	4243	4243	4243	4243	4243	4192	4192	4192	4192	4243	4243	4243	4243	4243	4243	4243	4243	4243	4243	4243	4243	4243	4243	4243	4243	4243	4243	4243	4243	4243	4243	4243	4296	4296	4296	4296	4296	4296	4243	4192	4192	4192	4192	4142	4142	4192	4192	4192	4243	4243	4243	4243	4243	4243	4243	4243	4243	4243	4243	4243	4296	4296	4296	4296	4296	4296	4296	4296	4296	4296	4296	4350	4350	4296	4243	4296	4192	4192	4192	4192	4142	4142	4142	4142	4142	4142	4142	4142	4142	4142	4142	4142	4142	4142	4142	4142	4142	4142	4142	4142	4142	4142	4142	4192	4142	4142	4142	4142	4142	4142	4142	4142	4142	4142	4142	4142	4142	4142	4142	4093	4093	4142	4142	4142	4142	4142	4142	4142	4142	4142	4142	4142	4142	4142	4142	4142	4142	4142	4142	4142	4142	4192	4243	4243	4296	4296	4296	4296	4350	4350	4350	4463	4463	4406	4406	4406	4406	0	0	0	6124	6124	6124	6235	6235	6235	6235	6235	6235	0	0	0	0	0	0	0	0	0	0	0	0	0	0	0	0	0	0	0	0	0	1268	1268	1272	1272	1277	1282	1287	1291	1291	1296	1291	1291	1291	1291	1282	1277	1272	1268	1268	1263	1268	1268	1268	1268	1263	1263	1263	1263	1263	1263	1259	1259	1259	1259	1254	1254	1254	1254	1254	1254	1254	1259	1254	1254	1254	1254	1254	1254	1254	1254	1254	1254	1254	1254	1254	1254	1254	1254	1254	0	0	0	0	0	0	0	0	0	0	0	0	0	0	0	0	0	0	0	0	0	0	0	0	0	0	0	1146	1146	1146	1146	1146	558	558	557	556	556	555	555	555	554	554	554	554	554	0	0	0	0	0	0	0	0	0	0	0	0	0	0	0	0	0	0	0	0	0	0	0	0	0	0	0	0	0	0	0	0	0	0	0	0	0	0	0	0	0	0	0	0	0	0	0	0	0	0	0	0	0	0
0	0	0	0	0	0	0	0	0	0	0	0	0	0	0	0	0	2312	2252	2266	2297	2281	2297	2297	2281	2281	2281	2281	2281	2281	2281	2297	2297	2281	2281	2281	2281	2281	2281	2281	2281	2281	2297	2297	2297	2297	2297	2297	2281	2297	2297	2297	2297	2297	2297	2312	2312	2297	2312	2312	2312	2312	2327	2327	2327	2359	2359	2376	2392	2409	2426	2443	2460	2478	2496	2514	2532	2551	2570	2589	2609	2629	2649	2669	2711	2711	2733	2733	2733	2733	2733	2711	2711	2711	2711	3864	3864	3821	3779	3779	3738	3738	3738	3738	3779	3779	3779	3779	3779	3779	3738	3738	3698	3698	3698	3698	3659	3659	3659	3659	3659	3659	3659	3659	3738	3738	3698	3698	3698	3698	3698	3698	3698	3698	3738	3738	3738	3738	3738	3738	3779	3779	3779	3821	3821	3864	3821	3864	3821	3821	3738	3738	3738	3698	3659	3698	3621	3621	3621	3621	3583	3621	3621	3621	3621	3621	3621	3621	3659	3621	3659	3659	3659	3659	3621	3621	3621	3621	3621	4243	4142	4142	4093	4142	4142	4142	4142	4142	4142	4142	4093	4093	4093	4045	4045	4045	4045	4045	4045	4045	4045	0	0	0	0	4406	4350	4350	4406	4350	4350	4296	4296	4296	4406	4406	4406	4463	4463	4463	4463	4463	4406	4296	4296	4296	4296	4350	4350	4406	4463	4406	4406	4350	4296	4243	4192	4093	4045	4045	4045	3621	3621	3621	3583	3583	3583	3583	3583	3583	3583	3583	3583	3621	3621	3621	3659	3659	3659	3659	3659	3659	3659	3659	3659	3621	3659	3621	3659	3659	3659	3621	3621	3583	3583	3583	4296	4296	4243	4192	4192	4192	4192	4192	4192	4243	4243	4243	4243	4243	4243	4243	4243	4243	4243	4192	4192	4192	4192	4192	4192	4243	4243	4243	4243	4243	4243	4243	4243	4243	4243	4243	4243	4243	4243	4243	4243	4243	4243	4243	4243	4243	4243	4243	4296	4296	4296	4296	4296	4296	4243	4243	4243	4192	4192	4192	4192	4192	4192	4192	4243	4243	4243	4243	4243	4243	4243	4243	4243	4243	4243	4243	4243	4243	4296	4296	4296	4296	4296	4296	4296	4296	4296	4296	4296	4296	4243	4243	4192	4192	4142	4142	4142	4142	4142	4142	4142	4142	4142	4142	4142	4142	4142	4142	4142	4192	4142	4142	4142	4192	4142	4142	4142	4142	4142	4192	4142	4142	4142	4142	4142	4142	4142	4142	4142	4142	4142	4142	4142	4142	4142	4093	4093	4093	4142	4142	4142	4142	4142	4142	4142	4142	4142	4142	4142	4142	4142	4142	4142	4142	4142	4142	4142	4142	4192	4192	4243	4243	4243	4296	4296	4350	4350	0	0	0	0	0	0	0	0	0	0	0	0	0	6235	6235	6235	6235	0	0	0	0	0	0	0	0	0	0	0	0	0	0	0	0	0	0	0	0	0	0	1268	1268	1272	1272	1282	1287	1291	1291	1291	1296	1291	1291	1291	1291	1287	1287	1277	1272	1268	1263	1263	1263	1263	1263	1259	1259	1263	1259	1263	1259	1259	1259	1259	1259	1254	1254	1254	1254	1254	1254	1254	1254	1254	1254	1254	1254	1254	1254	1254	1259	1259	1254	1254	1259	1254	1254	1254	1254	0	0	0	0	0	0	0	0	0	0	0	0	0	0	0	0	0	0	0	0	0	0	0	0	0	0	0	0	1146	1146	558	558	558	558	558	557	556	556	555	555	555	555	555	555	0	0	0	0	0	0	0	0	0	0	0	0	0	0	0	0	0	0	0	0	0	0	0	0	0	0	0	0	0	0	0	0	0	0	0	0	0	0	0	0	0	0	0	0	0	0	0	0	0	0	0	0	0	0	0	0
0	0	0	0	0	0	0	0	0	0	0	0	0	0	0	0	0	0	2252	2281	2281	2297	2297	2281	2281	2281	2281	2297	2281	2281	2281	2297	2297	2281	2281	2281	2281	2281	2281	2281	2281	2297	2297	2297	2297	2297	2297	2297	2281	2297	2297	2297	2297	2297	2312	2312	2312	2312	2312	2312	2312	2312	2312	2327	2327	2359	2359	2376	2392	2409	2426	2443	2460	2496	2496	2514	2532	2551	2570	2589	2589	2609	2649	2669	2711	2733	2733	2733	2754	2733	2733	2733	2711	2711	2733	2733	3821	3779	3738	3738	3738	3738	3738	3738	3779	3779	3779	3738	3738	3779	3738	3698	3698	3698	3698	3698	3659	3659	3659	3659	3659	3659	3698	3698	3738	3738	3698	3698	3698	3698	3698	3698	3698	3738	3738	3738	3738	3738	3779	3779	3779	3821	3821	3821	3864	3779	3738	3738	3698	3698	3738	3738	3659	3659	3659	3659	3621	3621	3621	3621	3621	3621	3621	3621	3621	3621	3621	3621	3621	3621	3621	3621	3621	3621	3621	3659	3659	3698	3698	4192	4142	4093	4093	4093	4093	4093	4093	4142	4093	4093	4093	4093	4045	4045	4045	3998	3998	3998	3998	3998	3952	3952	3907	3907	0	4406	4296	4296	4296	4296	4243	4243	4142	4093	4093	4093	4406	0	0	0	4463	4463	0	4296	4243	4243	4243	4243	4296	4296	4406	4406	4350	4296	4296	4243	4192	4142	4093	4093	4093	3659	3659	3621	3621	3621	3583	3583	3583	3583	3583	3583	3583	3583	3583	3621	3621	3659	3659	3659	3659	3659	3659	3659	3621	3621	3621	3621	3621	3659	3659	3621	3621	3621	3583	3583	4296	4296	4243	4192	4192	4192	4192	4192	4192	4243	4243	4243	4243	4243	4243	4243	4243	4243	4243	4192	4192	4192	4192	4192	4192	4192	4192	4243	4243	4243	4243	4243	4243	4243	4243	4243	4243	4243	4243	4243	4243	4243	4243	4243	4243	4243	4243	4243	4296	4296	4296	4296	4296	4296	4243	4243	4243	4243	4243	4192	4192	4192	4192	4243	4243	4243	4243	4243	4243	4243	4243	4243	4243	4243	4243	4243	4243	4296	4296	4296	4296	4296	4296	4296	4296	4296	4296	4296	4296	4243	4243	4296	4243	4192	4142	4142	4142	4142	4142	4142	4142	4142	4142	4142	4142	4142	4142	4142	4142	4192	4192	4142	4142	4192	4142	4142	4142	4142	4142	4142	4142	4142	4142	4142	4142	4142	4142	4142	4192	4192	4192	4192	4142	4142	4142	4142	4142	4142	4142	4142	4142	4142	4142	4142	4142	4142	4142	4142	4142	4142	4142	4142	4142	4142	4142	4142	4093	4142	4142	4142	4192	4192	4243	4296	4296	0	0	0	0	0	0	0	0	0	0	0	0	0	0	0	0	0	0	0	0	0	0	0	0	0	0	0	0	0	0	0	0	0	0	0	0	0	0	0	0	0	0	1268	1272	1272	1282	1291	1296	1296	1296	1296	1291	1291	1291	1291	1287	1282	1277	1272	1268	1263	1263	1268	1263	1263	1259	1259	1259	1259	1259	1259	1259	1259	1259	1259	1254	1254	1254	1254	1254	1254	1254	1254	1254	1259	1254	1254	1259	1259	1254	1259	1259	1259	1259	1259	1249	1249	1249	1254	0	0	0	0	0	0	0	0	0	0	0	0	0	0	0	0	0	0	0	0	0	0	0	0	0	0	1157	1153	1150	558	558	558	558	558	557	557	556	555	555	554	554	554	554	551	551	551	0	0	0	0	0	0	0	0	0	0	0	0	0	0	0	0	0	0	0	0	0	0	0	0	0	0	0	0	0	0	0	0	0	0	0	0	0	0	0	0	0	0	0	0	0	0	0	0	0	0	0	0	0	0
0	0	0	0	0	0	0	0	0	0	0	0	0	0	0	0	0	0	2297	2297	2297	2297	2297	2297	2281	2281	2281	2281	2297	2281	2281	2281	2281	2266	2266	2266	2281	2266	2266	2266	2266	2281	2281	2281	2297	2297	2297	2297	2281	2297	2297	2297	2297	2312	2312	2312	2312	2312	2312	2312	2312	2312	2312	2327	2343	2359	2359	2376	2392	2409	2426	2443	2460	2478	2496	2496	2514	2532	2570	2570	2589	2609	2649	2669	2711	2733	2733	2733	2733	2733	2733	2733	2733	2733	2733	2733	3821	3779	3779	3779	3779	3779	3738	3779	3779	3779	3779	3779	3779	3779	3738	3738	3698	3698	3698	3698	3659	3659	3659	3698	3659	3698	3698	3698	3738	3738	3698	3698	3698	3698	3698	3698	3698	3698	3738	3738	3738	3738	3779	3821	3821	3821	3779	3779	3779	3779	3738	3698	3698	3698	3659	3659	3659	3659	3621	3659	3621	3621	3621	3583	3583	3621	3621	3621	3621	3621	3621	3621	3621	3621	3621	3659	3659	3659	3659	3659	3659	3698	3738	4093	4093	4093	4045	4045	4045	4093	4093	4093	4093	4093	4045	4045	4045	3998	3998	3998	3952	3952	3952	3907	3952	3952	3907	3952	3952	0	4296	4045	4045	4192	4192	4192	4093	4093	4093	4093	4093	0	0	0	0	0	0	0	4192	4192	4192	4192	4243	4243	4350	4350	4296	4243	4243	4192	4142	4093	4093	4045	4045	3659	3659	3621	3621	3621	3583	3583	3583	3583	3583	3583	3583	3583	3621	3621	3621	3659	3659	3659	3659	3659	3659	3621	3621	3621	3621	3621	3621	3621	3659	3621	3621	3621	3621	3583	4296	4243	4243	4192	4192	4192	4192	4192	4192	4243	4243	4243	4243	4243	4243	4192	4243	4243	4243	4192	4192	4192	4192	4192	4192	4192	4192	4243	4243	4243	4243	4243	4243	4243	4243	4243	4243	4243	4243	4243	4243	4243	4243	4296	4296	4296	4296	4296	4296	4296	4296	4296	4296	4296	4296	4243	4296	4296	4243	4243	4243	4243	4243	4243	4296	4243	4296	4296	4296	4296	4243	4243	4243	4243	4243	4243	4243	4243	4296	4296	4296	4296	4296	4296	4296	4296	4350	4350	4296	4296	4296	4296	4296	4243	4192	4142	4142	4142	4142	4142	4142	4142	4142	4142	4142	4142	4142	4142	4142	4142	4142	4142	4192	4192	4142	4142	4142	4142	4142	4142	4142	4142	4142	4142	4142	4142	4142	4142	4142	4192	4192	4142	4142	4142	4142	4142	4142	4093	4093	4142	4142	4142	4142	4142	4142	4142	4142	4142	4142	4142	4142	4142	4142	4142	4142	4142	4093	4142	4142	4142	4142	4192	0	0	0	0	0	0	0	0	0	0	0	0	0	0	0	0	0	0	0	0	0	0	0	0	0	0	0	0	0	0	0	0	0	0	0	0	0	0	0	0	0	0	0	0	0	0	1272	1272	1287	1301	1296	1296	1296	1296	1291	1291	1291	1287	1287	1282	1282	1277	1272	1268	1268	1268	1263	1263	1259	1259	1259	1259	1259	1259	1259	1259	1259	1259	1254	1254	1254	1254	1254	1254	1254	1254	1254	1259	1254	1254	1254	1254	1254	1254	1254	1254	1259	1259	1259	1249	1249	0	0	0	0	0	0	0	0	0	0	0	0	0	0	0	0	0	0	0	0	0	0	0	0	0	0	0	1157	1150	1142	558	558	557	557	557	557	556	556	555	555	555	551	551	551	551	551	551	0	0	0	0	0	0	0	0	0	0	0	0	0	0	0	0	0	0	0	0	0	0	0	0	0	0	0	0	0	0	0	0	0	0	0	0	0	0	0	0	0	0	0	0	0	0	0	0	0	0	0	0	0	0
0	0	0	0	0	0	0	0	0	0	0	0	0	0	0	0	0	0	2297	2297	2297	2297	2297	2297	2297	2281	2281	2281	2281	2266	2266	2281	2281	2266	2266	2266	2281	2266	2266	2266	2266	2281	2281	2297	2297	2297	2297	2297	2281	2297	2297	2297	2297	2312	2312	2297	2312	2297	2297	2297	2312	2312	2327	2327	2327	2359	2359	2376	2392	2409	2443	2443	2460	2478	2496	2496	2514	2532	2551	2551	2570	2589	2609	2649	2649	2733	2733	2754	2754	2754	2733	2733	2733	2733	2733	2733	3779	3779	3779	3779	3779	3779	3779	3779	3779	3779	3779	3779	3779	3779	3738	3738	3698	3698	3698	3698	3659	3659	3698	3698	3698	3698	3698	3698	3738	3738	3698	3698	3698	3698	3698	3698	3698	3698	3738	3738	3738	3738	3779	3779	3821	3821	3779	3779	3779	3779	3698	3738	3698	3659	3659	3659	3659	3659	3621	3659	3621	3621	3621	3583	3583	3583	3621	3621	3583	3583	3583	3621	3621	3621	3621	3659	3659	3698	3698	3698	3738	3738	3779	3864	4045	4045	4045	4045	4045	4045	4045	4045	4045	4045	3998	3998	3998	3952	3952	3952	3952	3952	3952	3952	3952	3952	3952	3952	3952	0	4045	4045	4045	4142	4142	4142	4093	4093	4045	4045	4045	0	0	0	0	0	0	4045	4045	4142	4142	4142	4142	4192	4192	4296	4296	4192	4192	4142	4142	4093	4093	4045	4045	3698	3659	3659	3621	3583	3583	3583	3583	3583	3583	3583	3583	3621	3621	3621	3621	3659	3659	3659	3621	3621	3659	3621	3621	3621	3621	3621	3621	3621	3621	3621	3621	3621	3621	3621	4243	4243	4243	4192	4192	4192	4192	4192	4192	4192	4243	4243	4243	4192	4192	4192	4192	4192	4243	4192	4192	4192	4192	4192	4192	4243	4243	4243	4243	4243	4243	4243	4243	4243	4243	4243	4243	4243	4243	4243	4243	4243	4243	4296	4296	4296	4296	4296	4296	4296	4296	4296	4296	4296	4296	4243	4296	4296	4296	4243	4243	4243	4243	4296	4296	4296	4296	4296	4296	4243	4243	4243	4243	4296	4243	4243	4243	4243	4296	4296	4296	4296	4350	4350	4296	4296	4350	4296	4296	4296	4296	4296	4243	4243	4192	4192	4142	4142	4142	4142	4093	4093	4142	4142	4142	4142	4142	4142	4142	4142	4192	4142	4192	4192	4142	4142	4142	4142	4142	4192	4192	4142	4142	4142	4142	4142	4142	4142	4142	4142	4192	4192	4142	4142	4142	4142	4093	4093	4093	4142	4093	4093	4093	4142	4142	4142	4142	4142	4142	4142	4142	4142	4142	4142	4142	4142	4142	4142	4142	4142	4142	0	0	0	0	0	0	0	0	0	0	0	0	0	0	0	0	0	0	0	0	0	0	0	0	0	0	0	0	0	0	0	0	0	0	0	0	0	0	0	0	0	0	0	0	0	0	0	0	1272	1287	1301	1296	1296	1296	1291	1291	1291	1291	1287	1287	1282	1282	1277	1272	1272	1272	1263	1263	1263	1259	1259	1259	1259	1259	1259	1259	1259	1259	1259	1254	1254	1254	1254	1254	1254	1254	1254	1254	1254	1254	1254	1254	1254	1254	1254	1254	1259	1254	1259	1259	1259	1249	0	0	0	0	0	0	0	0	0	0	0	0	0	0	0	0	0	0	0	0	0	0	0	0	0	0	0	0	1146	1142	558	557	557	557	557	556	555	555	555	551	551	551	551	551	550	550	550	0	0	0	0	0	0	0	0	0	0	0	0	0	0	0	0	0	0	0	0	0	0	0	0	0	0	0	0	0	0	0	0	0	0	0	0	0	0	0	0	0	0	0	0	0	0	0	0	0	0	0	0	0	0
0	0	0	0	0	0	0	0	0	0	0	0	0	0	0	0	0	0	2297	2297	2297	2297	2297	2297	2281	2281	2281	2281	2266	2266	2266	2266	2281	2266	2281	2266	2281	2281	2266	2266	2266	2281	2281	2281	2297	2281	2297	2297	2297	2297	2297	2297	2312	2312	2297	2297	2297	2297	2297	2297	2312	2312	2327	2327	2343	2343	2359	2376	2392	2409	2426	2443	2460	2460	2478	2496	2514	2514	2532	2551	2551	2570	2609	2629	2690	2754	2754	2754	2754	2754	2754	2754	2754	2754	2754	2754	3779	3779	3779	3779	3779	3779	3779	3821	3821	3821	3821	3779	3779	3738	3738	3738	3698	3698	3698	3698	3698	3698	3698	3698	3698	3698	3698	3698	3738	3738	3698	3698	3698	3698	3698	3698	3698	3738	3738	3738	3779	3779	3779	3864	3864	3864	3821	3821	3821	3821	3698	3659	3659	3659	3659	3659	3659	3621	3621	3621	3583	3621	3621	3583	3583	3583	3583	3621	3583	3583	3583	3621	3621	3621	3621	3659	3659	3698	3698	3698	3738	3738	3821	3864	3998	4045	4045	4045	4045	3998	3998	3998	3998	4045	4045	3998	3998	3952	3952	3952	3952	3952	3907	3907	3952	3998	3998	3998	3998	0	4045	4045	4093	4045	4093	4093	4045	4045	4045	4045	4045	0	0	0	0	0	0	4045	4045	4093	4093	4093	4093	4093	4243	4243	4192	4142	4093	4093	4093	4093	4093	4045	3998	3998	3659	3659	3621	3583	3583	3583	3583	3583	3583	3583	3583	3621	3583	3621	3621	3659	3621	3659	3621	3621	3659	3621	3621	3621	3621	3621	3621	3621	3621	3621	3621	3621	3659	3659	4243	4243	4243	4192	4192	4192	4192	4192	4243	4243	4243	4243	4243	4243	4243	4192	4192	4192	4192	4192	4192	4192	4192	4243	4243	4243	4243	4243	4243	4243	4243	4243	4243	4243	4243	4192	4243	4192	4192	4243	4243	4192	4243	4296	4296	4296	4296	4296	4296	4296	4296	4296	4296	4296	4296	4296	4296	4296	4296	4296	4243	4243	4243	4296	4243	4243	4296	4296	4296	4296	4296	4243	4243	4296	4296	4243	4243	4296	4296	4296	4296	4296	4350	4296	4296	4296	4296	4296	4243	4243	4296	4296	4243	4243	4192	4142	4142	4142	4142	4142	4093	4142	4142	4142	4142	4142	4142	4142	4142	4142	4192	4142	4192	4192	4192	4142	4192	4142	4192	4192	4192	4142	4142	4142	4142	4142	4142	4142	4142	4192	4192	4142	4142	4142	4142	4142	4142	4093	4093	4142	4093	4142	4093	4142	4142	4142	4142	4142	4142	4142	4142	4142	4142	4142	4142	4142	4142	4142	4142	4093	4093	0	0	0	0	0	0	0	0	0	0	0	0	0	0	0	0	0	0	0	0	0	0	0	0	0	0	0	0	0	0	0	0	0	0	0	0	0	0	0	0	0	0	0	0	0	0	0	0	0	1287	1296	1296	1291	1291	1291	1291	1291	1287	1287	1287	1282	1282	1282	1282	1272	1272	1263	1263	1249	1249	1254	1254	1259	1259	1259	1254	1254	1254	1254	1254	1254	1254	1254	1254	1254	1254	1254	1254	1254	1254	1254	1254	1254	1254	1254	1259	1254	1254	1259	1259	1259	0	0	0	0	0	0	0	0	0	0	0	0	0	0	0	0	0	0	0	0	0	0	0	0	0	0	0	0	0	1138	558	557	557	556	557	557	556	555	555	555	555	552	554	551	551	550	550	550	0	0	0	0	0	0	0	0	0	0	0	0	0	0	0	0	0	0	0	0	0	0	0	0	0	0	0	0	0	0	0	0	0	0	0	0	0	0	0	0	0	0	0	0	0	0	0	0	0	0	0	0	0	0
0	0	0	0	0	0	0	0	0	0	0	0	0	0	0	0	0	0	0	2297	2297	2297	2297	2281	2281	2266	2281	2252	2252	2252	2252	2266	2281	2266	2281	2281	2281	2281	2266	2266	2281	2281	2281	2281	2281	2281	2297	2297	2297	2297	2312	2312	2312	2312	2297	2297	2297	2297	2297	2297	2297	2312	2312	2327	2327	2343	2359	2376	2392	2409	2426	2443	2460	2460	2478	2496	2496	2532	2551	2551	2570	2570	2609	2629	2649	2754	2754	2754	2754	2754	2754	2754	2754	2754	2754	2754	3779	3821	3821	3821	3821	3821	3779	3821	3821	3821	3779	3779	3738	3738	3738	3738	3698	3698	3698	3698	3698	3698	3698	3698	3698	3698	3698	3698	3738	3738	3738	3698	3698	3698	3698	3698	3738	3738	3738	3738	3779	3779	3779	3864	3864	3864	3864	3864	3821	3821	3698	3659	3659	3659	3659	3621	3659	3659	3621	3621	3583	3583	3583	3546	3583	3583	3583	3583	3583	3583	3621	3621	3621	3621	3621	3659	3698	3698	3698	3738	3779	3821	3779	3864	3952	3952	3998	3998	3998	3998	3998	3998	4045	3998	3998	3998	3952	3952	3907	3907	3907	3907	3907	3907	3907	3998	3998	3998	3998	0	3998	4045	4045	4045	4045	4045	3998	4045	3998	3998	3998	0	0	0	0	0	0	3998	3998	4045	4045	4045	4093	4093	4093	4093	4093	4093	4045	3952	4045	4045	4045	4045	4045	4045	4045	3659	3621	3583	3583	3583	3583	3583	3583	3583	3583	3621	3621	3621	3621	3659	3659	3659	3621	3621	3659	3621	3621	3621	3621	3621	3621	3621	3621	3621	3621	3621	3621	3621	3583	4243	4243	4243	4243	4192	4192	4192	4243	4243	4243	4243	4243	4243	4243	4192	4243	4243	4192	4192	4192	4192	4192	4192	4243	4243	4243	4243	4243	4243	4243	4243	4243	4243	4192	4192	4192	4192	4192	4192	4192	4192	4243	4296	4296	4296	4296	4296	4296	4296	4296	4296	4296	4296	4296	4296	4296	4296	4296	4243	4243	4243	4243	4243	4243	4243	4243	4296	4296	4296	4296	4296	4296	4296	4296	4296	4243	4296	4296	4296	4296	4296	4296	4296	4296	4296	4296	4296	4243	4243	4243	4243	4192	4192	4142	4142	4142	4142	4093	4142	4093	4093	4093	4142	4142	4142	4142	4142	4142	4142	4142	4142	4192	4192	4192	4142	4192	4192	4192	4192	4192	4142	4142	4142	4142	4142	4142	4142	4142	4192	4192	4192	4142	4142	4142	4142	4142	4142	4142	4142	4142	4142	4142	4142	4142	4142	4142	4142	4142	4142	4142	4142	4142	4142	4142	4142	4142	4142	4093	4093	4093	0	0	0	0	0	0	0	0	0	0	0	0	0	0	0	0	0	0	0	0	0	0	0	0	0	0	0	0	0	0	0	0	0	0	0	0	0	0	0	0	0	0	0	0	0	0	0	0	0	0	1301	1301	1296	1296	1296	1291	1291	1287	1287	1287	1282	1287	1282	1282	0	1227	1227	1227	1240	1240	1249	1254	1259	1259	1254	1254	1254	1254	1254	1254	1254	1254	1254	1254	1254	1254	1254	1254	1254	1254	1254	1254	1254	1254	1254	1254	1254	1254	1254	1259	1259	0	0	0	0	0	0	0	0	0	0	0	0	0	0	0	0	0	0	0	0	0	0	0	0	0	0	0	0	0	1138	558	557	557	557	557	556	555	555	555	555	555	554	554	553	551	550	551	551	0	0	0	0	0	0	0	0	0	0	0	0	0	0	0	0	0	0	0	0	0	0	0	0	0	0	0	0	0	0	0	0	0	0	0	0	0	0	0	0	0	0	0	0	0	0	0	0	0	0	0	0	0	0
