0	0	0	0	0	0	0	0	0	0	0	1287	1291	1291	1296	1301	1296	1301	1301	1301	1306	0	0	0	0	0	0	0	0	0	0	0	0	0	0	0	0	0	0	0	0	0	0	0	0	0	0	0	0	0	0	0	0	0	0	0	0	0	0	0	0	0	0	0	0	0	0	0	0	0	0	0	0	0	0	0	0	0	0	0	0	0	0	0	0	0	0	0	0	0	0	0	0	0	0	0	0	0	0	0	0	0	0	0	0	0	0	0	0	0	0	0	0	0	0	0	0	0	0	0	0	0	0	0	0	0	0	0	0	0	0	0	0	1657	1665	1649	1649	1641	0	0	0	0	1706	1706	1706	1706	1706	1732	1750	1768	1777	1777	1777	1786	1786	0	0	0	0	0	0	2733	2711	2711	2690	2690	2690	2690	2690	2690	2690	2733	2690	2690	2669	2669	2669	2669	2669	2669	2669	2733	2733	2777	2777	2777	2754	2754	2754	2754	2754	2777	2777	2777	2799	2799	2845	2845	2845	2845	2869	2869	2869	2869	2917	2917	0	0	0	0	0	0	0	0	0	0	0	0	0	0	0	0	0	0	0	0	0	0	0	0	0	0	4142	4192	4296	4296	4350	4350	4406	4463	4463	4463	4463	6468	6592	6468	6468	6468	6468	6468	6468	6349	6349	6349	6349	0	0	0	0	0	0	0	0	0	0	0	0	0	0	0	0	0	0	0	0	0	0	0	0	5915	5915	0	0	0	0	0	0	0	0	0	5364	5364	5364	5364	5364	5364	5364	5282	5202	5202	5125	5050	5050	4977	4977	4977	4977	3583	3583	3546	3546	3546	3546	3510	3510	3475	3510	3510	3510	3510	3510	3510	3510	3510	3546	3546	3546	3546	3546	3546	3546	3546	3510	3546	3546	3546	3546	3510	3510	3510	3510	3475	3475	3475	3475	3475	3475	3475	3475	3440	3440	3475	3440	3440	3440	3440	3440	3440	3440	3440	3440	3406	3406	3341	3341	0	6235	6124	6124	6124	6124	6124	6124	6124	6124	6124	6124	6124	6235	6235	6235	6235	6235	6349	6349	6349	6349	6349	6349	6349	6235	6349	6235	6349	6235	6349	6349	6349	6349	6349	6468	6468	6468	6349	6349	6349	8343	8146	8343	8343	8343	8146	8146	8146	8146	8146	8146	8146	8146	8146	8146	7959	7779	7444	7287	7287	6992	6853	6853	6853	6853	6853	6853	6853	6853	6853	6853	6853	6992	6992	6853	6992	7137	7137	7137	7287	7287	7287	7287	7287	7287	7287	7287	7287	7287	0	0	0	0	0	0	0	0	0	0	0	0	0	0	0	0	0	0	0	0	0	0	0	0	2822	2822	2822	2822	2822	2799	2799	2799	0	0	0	0	0	0	0	0	0	0	0	0	0	0	0	0	0	0	0	0	2359	2343	2327	2327	2327	2327	2312	2312	2312	2312	2327	1786	1786	1786	2609	1786	2669	2711	2711	2711	2690	2711	2690	2669	2649	2649	2649	2669	2649	2649	2649	2629	0	0	0	0	0	0	0	0	0	2297	2297	2252	2237	2237	2223	2223	2223	2208	2194	2194	2181	2181	2181	2194	2194	2194	2194	2167	2167	2153	2153	2140	2140	2140	2140	2127	2127	2127	2127	0	0	0	0	0	0	0	0	0	0	0	0	0	0	0	0	0	0	0	0	0	0	0	0	0	0	0	0	0	0	0	0	0	0	0	0	0	0	0	0	0	0	0	0	0	0	0	0	0	0	0	0	0	0	0	0	0	0	0	0	0	0
0	0	0	0	0	0	0	0	0	0	0	1291	1291	1291	1291	1296	1296	1301	1301	1301	1301	0	0	0	0	0	0	0	0	0	0	0	0	0	0	0	0	0	0	0	0	0	0	0	0	0	0	0	0	0	0	0	0	0	0	0	0	0	0	0	0	0	0	0	0	0	0	0	0	0	0	0	0	0	0	0	0	0	0	0	0	0	0	0	0	0	0	0	0	0	0	0	0	0	0	0	0	0	0	0	0	0	0	0	0	0	0	0	0	0	0	0	0	0	0	0	0	0	0	0	0	0	0	0	0	0	0	0	0	0	0	0	0	0	1665	1649	1649	0	0	0	0	0	0	1706	1706	1706	1706	0	0	0	0	0	0	0	0	0	0	0	0	0	0	2733	2733	2711	2711	2711	2690	2690	2733	2690	2690	2733	2690	2690	2669	2669	2669	2669	2669	2669	2669	2754	2754	2777	2777	2754	2754	2754	2754	2754	2754	2754	2777	2799	2799	2799	2845	2845	2869	2869	2869	2869	2869	2893	2942	2993	2942	2942	0	0	0	0	0	0	0	0	0	0	0	0	0	0	0	0	0	0	0	0	0	0	0	0	4142	4192	4296	4296	4350	4406	4463	4521	4521	4463	4463	6592	6592	6468	6468	6468	6468	6468	6468	6349	6349	6349	0	0	0	0	0	0	0	0	0	0	0	0	0	0	0	0	0	0	0	0	0	0	0	0	0	0	0	0	0	0	0	0	0	0	0	0	5364	5364	5364	5364	5364	5364	5364	5282	5202	5202	5125	5050	5050	5050	4977	4977	4977	3583	3583	3546	3546	3546	3546	3510	3510	3510	3546	3546	3510	3510	3510	3510	3510	3510	3510	3546	3546	3546	3546	3546	3546	3546	3546	3546	3546	3546	3546	3546	3546	3546	3546	3510	3510	3475	3475	3475	3475	3475	3475	3475	3475	3475	3475	3440	3440	3440	3440	3440	3440	3475	3440	3406	3406	3406	3341	6235	6235	6124	6124	6124	6124	6124	6124	6124	6124	6124	6124	6124	6235	6235	6235	6235	6235	6349	6349	6349	6349	6349	6349	6349	6349	6349	6349	6349	6349	6349	6349	6349	6349	6349	6349	6592	6592	6468	6592	6592	6592	8343	8343	8343	8343	8343	8146	8146	8146	8146	8146	8146	8146	8146	8146	7959	7779	7608	7287	7287	6992	6853	6853	6853	6853	6853	6853	6853	6853	6853	6853	6853	6853	6853	6853	6853	6992	7137	7137	7137	7287	7287	7287	7137	7137	7287	7287	7287	7287	0	0	0	0	0	0	0	0	0	0	0	0	0	0	0	0	0	0	0	0	0	0	0	0	2822	2845	2845	2822	2822	2822	2822	2799	0	0	0	0	0	0	0	0	0	0	0	0	0	0	0	0	0	0	0	0	2359	2343	2343	2327	2327	2327	2312	2312	2297	2297	2312	2312	2312	2609	2669	2669	2690	2733	2711	2711	2711	2711	2711	2669	2669	2669	2669	2669	2649	2649	2649	0	0	0	0	0	0	0	2252	2252	2266	2252	2252	2252	2237	2237	2223	2223	2223	2208	2194	2194	2181	2181	2181	2194	2194	2194	2181	2167	2153	2153	2153	2140	2140	2140	2140	2140	2140	2140	2140	2140	0	0	0	0	0	0	0	0	0	0	0	0	0	0	0	0	0	0	0	0	0	0	0	0	0	0	0	0	0	0	0	0	0	0	0	0	0	0	0	0	0	0	0	0	0	0	0	0	0	0	0	0	0	0	0	0	0	0	0	0	0
0	0	0	0	0	0	0	0	0	0	0	1287	1291	1291	1291	1291	1291	1306	1301	1301	1301	0	0	0	0	0	0	0	0	0	0	0	0	0	0	0	0	0	0	0	0	0	0	0	0	0	0	0	0	0	0	0	0	0	0	0	0	0	0	0	0	0	0	0	0	0	0	0	0	0	0	0	0	0	0	0	0	0	0	0	0	0	0	0	0	0	0	0	0	0	0	0	0	0	0	0	0	0	0	0	0	0	0	0	0	0	0	0	0	0	0	0	0	0	0	0	0	0	0	0	0	0	0	0	0	0	0	0	0	0	0	0	0	0	0	0	0	0	0	0	0	0	0	0	0	0	0	0	0	0	0	0	0	0	0	0	0	0	0	0	0	2733	2711	2711	2711	2711	2690	2690	2733	2690	2690	2690	2690	2733	2669	2669	2669	2669	2669	2669	2669	2690	2733	2754	2754	2754	2754	2754	2754	2754	2754	2754	2754	2799	2799	2799	2822	2822	2845	2845	2869	2893	2893	2893	2942	2942	2942	2942	0	0	0	0	0	0	0	0	0	0	0	0	0	0	0	0	0	0	0	0	0	0	0	0	0	4192	4296	4350	4406	4521	4521	4521	4463	4463	4463	6720	6592	6592	6468	6468	6468	6468	6468	6349	6349	6349	0	0	0	0	0	0	0	0	0	0	0	0	0	0	0	0	0	0	0	0	0	0	0	0	0	0	0	0	0	0	0	0	0	0	0	0	0	5364	5364	5364	5364	5364	5364	5282	5202	5125	5125	5050	4977	4977	4977	4977	4977	3583	3583	3546	3546	3546	3546	3510	3510	3510	3546	3510	3510	3510	3510	3510	3510	3510	3510	3546	3546	3546	3546	3546	3546	3546	3510	3546	3546	3546	3546	3510	3510	3510	3510	3510	3510	3475	3475	3475	3475	3475	3475	3475	3475	3475	3475	3440	3440	3440	3440	3440	3440	3440	3440	3440	3440	3440	0	6124	6124	6124	6124	6124	6124	6124	6124	6124	6124	6124	6124	6124	6124	6235	6235	6235	6235	6349	6349	6349	6349	6349	6349	6349	6349	6349	6349	6349	6349	6349	6349	6349	6349	6349	6468	6592	6592	6592	6592	6592	6592	8343	8343	8343	8343	8343	8146	8146	8146	8146	8146	8146	8146	8146	8146	7959	7779	7608	7444	7287	6992	6853	6853	6853	6853	6853	6853	6853	6853	6853	6853	6853	6853	6853	6853	6853	6992	7137	7137	7137	7137	7287	7287	7137	7137	7287	7287	7287	7287	0	0	0	0	0	0	0	0	0	0	0	0	0	0	0	0	0	0	0	0	0	0	0	2822	2822	2845	2845	2845	2822	2822	2822	0	0	0	0	0	0	0	0	0	0	0	0	0	0	0	0	0	0	0	0	0	0	2343	2343	2343	2327	2327	2312	2312	2297	2297	2312	2297	2297	2669	2669	2690	2690	2711	2711	2711	2711	2711	2711	2669	2669	2669	2669	2669	2669	2669	2669	2669	0	0	0	2312	2297	2281	2266	2252	2252	2252	2252	2252	2237	2237	2223	2208	2208	2194	2181	2181	2181	2181	2181	2181	2194	2194	2181	2167	2153	2153	2153	2153	2140	2153	2140	2140	2140	2153	2140	2140	0	0	0	0	0	0	0	0	0	0	0	0	0	0	0	0	0	0	0	0	0	0	0	0	0	0	0	0	0	0	0	0	0	0	0	0	0	0	0	0	0	0	0	0	0	0	0	0	0	0	0	0	0	0	0	0	0	0	0	0	0
0	0	0	0	0	0	0	0	0	0	0	1287	1291	1287	1291	1291	1291	1296	1296	1296	0	0	0	0	0	0	0	0	0	0	0	0	0	0	0	0	0	0	0	0	0	0	0	0	0	0	0	0	0	0	0	0	0	0	0	0	0	0	0	0	0	0	0	0	0	0	0	0	0	0	0	0	0	0	0	0	0	0	0	0	0	0	0	0	0	0	0	0	0	0	0	0	0	0	0	0	0	0	0	0	0	0	0	0	0	0	0	0	0	0	0	0	0	0	0	0	0	0	0	0	0	0	0	0	0	0	0	0	0	0	0	0	0	0	0	0	0	0	0	0	0	0	0	0	0	0	0	0	0	0	0	0	0	0	0	0	0	0	0	0	0	2733	2711	2733	2711	2711	2690	2690	2690	2690	2690	2690	2690	2669	2669	2669	2669	2669	2669	2669	2669	2669	2733	2754	2754	2754	2754	2754	2754	2754	2754	2777	2799	2799	2822	2822	2822	2822	2869	2869	2869	2893	2893	2917	2942	2942	2942	2942	0	0	0	0	0	0	0	0	0	0	0	0	0	0	0	0	0	0	0	0	0	0	0	0	0	0	0	4463	4463	4521	4521	4521	4463	4463	4463	6720	6592	6592	6592	6468	6468	6468	6468	6349	6349	0	0	0	0	0	0	0	0	0	0	0	0	0	0	0	0	0	0	0	0	0	0	0	0	0	0	0	0	0	0	0	0	0	0	0	0	0	0	5448	5364	5364	5364	5364	5364	5282	5125	5125	5050	5050	4977	4977	4977	4977	4977	3583	3583	3583	3546	3546	3546	3510	3510	3510	3546	3510	3510	3510	3510	3510	3510	3510	3510	3546	3510	3546	3546	3546	3546	3546	3510	3510	3510	3510	3510	3510	3510	3510	3546	3510	3510	3475	3475	3475	3475	3475	3475	3475	3475	3475	3475	3440	3440	3440	3440	3440	3440	3475	3440	3440	3440	3440	6124	6124	6124	6124	6124	6124	6124	6124	6124	6124	6124	6124	6124	6124	6235	6235	6349	6349	6349	6349	6349	6349	6349	6349	6349	6349	6349	6349	6349	6349	6349	6349	6349	6349	6349	6349	6468	6592	6592	6592	6592	6720	8343	8343	8343	8343	8343	8146	8146	8146	8146	8146	8146	8146	8146	8146	8146	7779	7608	7444	7444	7287	7137	6992	6853	6853	6853	6853	6853	6853	6853	6853	6853	6853	6853	6853	6853	6853	6992	6992	7137	7287	7287	7287	7287	7287	7287	7287	7287	7287	0	0	0	0	0	0	0	0	0	0	0	0	0	0	0	0	0	0	0	0	0	0	0	0	2822	2822	2845	2845	2845	2822	2822	0	0	0	0	0	0	0	0	0	0	0	0	0	0	2993	2993	0	0	0	0	0	0	2376	2343	2343	2327	2327	2312	2312	2297	2297	2281	2312	2297	2297	2669	2669	2690	2690	2711	2711	2711	2711	2711	2711	2669	2669	2669	2669	2669	2669	2669	2649	2649	2376	2359	2359	2312	2297	2281	2252	2252	2252	2252	2237	2237	2237	2237	2223	2208	2208	2194	2194	2181	2181	2181	2181	2181	2194	2181	2181	2167	2153	2153	2153	2140	2140	2140	2140	2140	2140	2140	2140	2140	0	0	0	0	0	0	0	0	0	0	0	0	0	0	0	0	0	0	0	0	0	0	0	0	0	0	0	0	0	0	0	0	0	0	0	0	0	0	0	0	0	0	0	0	0	0	0	0	0	0	0	0	0	0	0	0	0	0	0	0	0
0	0	0	0	0	0	0	0	0	0	0	1287	1287	1287	1291	1291	1291	1301	1301	1301	0	0	0	0	0	0	0	0	0	0	0	0	0	0	0	0	0	0	0	0	0	0	0	0	0	0	0	0	0	0	0	0	0	0	0	0	0	0	0	0	0	0	0	0	0	0	0	0	0	0	0	0	0	0	0	0	0	0	0	0	0	0	0	0	0	0	0	0	0	0	0	0	0	0	0	0	0	0	0	0	0	0	0	0	0	0	0	0	0	0	0	0	0	0	0	0	0	0	0	0	0	0	0	0	0	0	0	0	0	0	0	0	0	0	0	0	0	0	0	0	0	0	0	0	0	0	0	0	0	0	0	0	0	0	0	0	0	0	0	0	2711	2711	2711	2711	2711	2711	2690	2711	2690	2690	2690	2690	2690	2669	2669	2669	2669	2669	2669	2669	2669	2669	2733	2754	2733	2777	2777	2754	2754	2754	2754	2754	2799	2799	2822	2822	2822	2822	2845	2845	2845	2869	2869	2917	2942	2942	2942	2942	0	0	0	0	0	0	0	0	0	0	0	0	0	0	0	0	0	0	0	0	0	0	0	0	0	0	0	4521	4463	4521	4463	4521	4463	4463	4463	6720	6592	6592	6592	6468	6468	6349	6468	6468	6349	0	0	0	0	0	0	0	0	0	0	0	0	0	0	0	0	0	0	0	0	0	0	0	0	0	0	0	0	0	0	0	0	0	0	0	0	0	0	5448	5448	5448	5364	5364	5364	5282	5202	5125	5050	5050	5050	4977	4977	4977	4977	3583	3583	3583	3583	3546	3546	3546	3510	3510	3546	3546	3546	3510	3510	3510	3546	3510	3510	3546	3510	3510	3510	3546	3546	3546	3546	3510	3510	3510	3510	3510	3510	3546	3546	3475	3510	3475	3475	3475	3475	3475	3475	3475	3475	3475	3475	3475	3440	3440	3475	3440	3475	3475	3440	3440	3440	3440	6124	6124	6124	6124	6235	6124	6124	6124	6124	6124	6124	6124	6124	6124	6235	6235	6349	6235	6349	6349	6349	6349	6349	6349	6349	6349	6349	6349	6349	6468	6349	6468	6349	6349	6349	6349	6468	6468	6468	6468	6468	6468	8146	8146	8146	8343	8343	8146	8146	8146	7959	7959	8146	8146	8146	8146	8146	7779	7608	7444	7444	7287	7137	6992	6853	6853	6853	6853	6853	6992	6992	6992	6992	6853	6853	6853	6853	6853	6992	6992	6992	7137	7287	7287	7287	7287	7287	7287	7287	7287	0	0	0	0	0	0	0	0	0	0	0	0	0	0	0	0	0	0	0	0	0	0	0	0	2822	2822	2845	2845	2845	2845	2845	0	0	0	0	0	0	0	0	0	0	0	0	0	0	2942	2942	2942	2942	2917	2917	0	0	2376	2343	2312	2312	2312	2312	2297	2297	2281	2281	2297	2297	2297	2669	2690	2690	2690	2711	2711	2690	2711	2711	2690	2690	2669	2669	2669	2669	2669	2669	2669	2376	2376	2359	2343	2312	2297	2281	2252	2252	2237	2237	2237	2237	2237	2237	2223	2208	2208	2194	2181	2181	2181	2181	2181	2181	2194	2181	2181	2167	2153	2153	2153	2153	2140	2153	2153	2140	2140	2140	2140	2140	0	0	0	0	0	1589	1589	0	0	0	0	0	0	0	0	0	0	0	0	0	0	0	0	0	0	0	0	0	0	0	0	0	0	0	0	0	0	0	0	0	0	0	0	0	0	0	0	0	0	0	0	0	0	0	0	0	0	0	0	0	0
0	0	0	0	0	0	0	0	0	0	0	1287	1287	1287	1287	1287	1287	1296	1296	1296	0	0	0	0	0	0	0	0	0	0	0	0	0	0	0	0	0	0	0	0	0	0	0	0	0	0	0	0	0	0	0	0	0	0	0	0	0	0	0	0	0	0	0	0	0	0	0	0	0	0	0	0	0	0	0	0	0	0	0	0	0	0	0	0	0	0	0	0	0	0	0	0	0	0	0	0	0	0	0	0	0	0	0	0	0	0	0	0	0	0	0	0	0	0	0	0	0	0	0	0	0	0	0	0	0	0	0	0	0	0	0	0	0	0	0	0	0	0	0	0	0	0	0	0	0	0	0	0	0	0	0	0	0	0	0	0	0	0	0	0	2711	2711	2711	2711	2711	2711	2733	2711	2690	2690	2669	2690	2690	2690	2669	2669	2669	2690	2690	2690	2733	2733	0	0	2777	2777	2777	2754	2754	2754	2777	2777	2799	2799	2822	2822	2822	2822	2845	2845	2845	2845	2845	2869	2942	2942	2942	0	0	0	0	0	0	0	0	0	0	0	0	0	0	0	0	0	0	0	0	0	0	0	0	0	0	0	0	4521	4463	4521	4521	4463	4463	4463	4406	4406	6592	6592	6468	6468	6468	6349	6349	6349	0	0	0	0	0	0	0	0	0	0	0	0	0	0	0	0	0	0	0	0	0	0	0	0	0	0	0	0	0	0	0	0	0	0	0	0	0	0	0	5448	5448	5448	5364	5448	5364	5282	5202	5125	5050	5050	5050	4977	4977	5050	5050	5050	3583	3583	3583	3546	3546	3510	3510	3510	3546	3510	3510	3510	3510	3510	3510	3475	3475	3475	3510	3510	3546	3546	3546	3546	3546	3546	3546	3510	3510	3510	3510	3546	3546	3510	3510	3475	3475	3475	3475	3475	3475	3475	3475	3475	3475	3475	3440	3440	3440	3440	3440	3475	3475	3475	3475	3475	0	6235	6124	6124	6124	6124	6124	6124	6124	6124	6124	6124	6124	6235	6235	6235	6235	6235	6235	6349	6349	6349	6349	6235	6349	6349	6349	6349	6349	6468	6349	6349	6349	6349	6349	6349	6349	6468	6468	6349	6349	6349	8146	8146	8146	8343	8343	8146	8146	8146	7959	7959	8146	8146	8146	8146	8146	7959	7608	7444	7287	7287	7137	6992	6992	6853	6853	6853	6853	6853	6853	6992	6992	6992	6853	6853	6853	6853	6853	6992	6992	7137	7287	7287	7287	7287	7137	7287	7287	7287	0	0	0	0	0	0	0	0	0	0	0	0	0	0	0	0	0	0	0	0	0	0	0	2822	2822	2822	2845	2845	2845	2845	2845	2845	0	0	0	0	0	0	0	0	0	0	0	0	0	2942	2942	2917	2917	2917	2917	2917	0	0	0	2327	2312	2297	2297	2281	2281	2281	2266	2297	2312	2312	2312	2690	2690	2711	2711	2711	2690	2690	2690	2690	2669	2669	2669	2669	2669	2669	2669	2376	2376	2376	2359	2343	2312	2312	2297	2281	2252	2252	2237	2237	2237	2237	2237	2208	2194	2194	2194	2181	2181	2181	2181	2181	2181	2194	2181	2181	2153	2153	2153	2153	2140	2140	2140	2153	2140	2153	2153	2153	2140	0	0	0	0	0	1596	1589	1596	1589	1603	1596	1596	0	0	0	0	0	0	0	0	0	0	0	0	0	0	0	0	0	0	0	0	0	0	0	0	0	0	0	0	0	0	0	0	0	0	0	0	0	0	0	0	0	0	0	0	0	0	0	0	0
0	0	0	0	0	0	0	0	0	0	0	1287	1287	1282	1282	1287	1287	1287	1287	1287	0	0	0	0	0	0	0	0	0	0	0	0	0	0	0	0	0	0	0	0	0	0	0	0	0	0	0	0	0	0	0	0	0	0	0	0	0	0	0	0	0	0	0	0	0	0	0	0	0	0	0	0	0	0	0	0	0	0	0	0	0	0	0	0	0	0	0	0	0	0	0	0	0	0	0	0	0	0	0	0	0	0	0	0	0	0	0	0	0	0	0	0	0	0	0	0	0	0	0	0	0	0	0	0	0	0	0	0	0	0	0	0	0	0	0	0	0	0	0	0	0	0	0	0	0	0	0	0	0	0	0	0	0	0	0	0	0	0	0	0	2711	2711	2711	2711	2711	2711	2711	2711	2690	2690	2690	2690	2669	2669	2669	2669	2669	2690	2690	2711	2711	2733	0	0	2777	2799	2777	2754	2754	2754	2754	2799	2822	2822	2822	2822	2822	2822	2822	2822	2845	2845	2845	2869	2869	2942	2942	0	0	0	0	0	0	0	0	0	0	0	0	0	0	0	0	0	0	0	0	0	0	0	0	0	0	0	0	0	0	4521	4521	4521	4463	4463	4406	4406	6592	6592	6468	6468	6349	6349	6349	6349	0	0	0	0	0	0	0	0	0	0	0	0	0	0	0	0	0	0	0	0	0	0	0	0	0	0	0	0	0	0	0	0	0	0	0	0	0	0	0	5448	5448	5448	5448	5448	5364	5282	5282	5125	5050	5050	5050	4977	4977	5050	5050	5050	3583	3583	3583	3546	3546	3510	3510	3510	3546	3510	3510	3510	3510	3475	3475	3475	3475	3475	3510	3510	3546	3546	3546	3546	3546	3546	3546	3546	3546	3510	3546	3546	3510	3510	3510	3475	3475	3475	3475	3475	3475	3475	3475	3475	3475	3475	3440	3440	3440	3440	3475	3475	3475	3475	3475	3475	0	6235	6235	6124	6124	6124	6124	6124	6124	6124	6124	6235	6124	6235	6235	6235	6235	6235	6235	6349	6349	6349	6349	6235	6235	6349	6349	6349	6349	6468	6468	6349	6349	6349	6349	6349	6468	6468	6468	6468	6468	6468	8146	7959	8146	8146	8146	8146	8146	8146	8146	8146	8146	8146	8146	8146	8146	7959	7608	7444	7444	7287	7287	7137	6992	6853	6853	6853	6853	6853	6853	6853	6992	6992	6853	6853	6853	6992	6992	6992	6992	7137	7287	7287	7287	7287	7287	7287	7444	7444	0	0	0	0	0	0	0	0	0	0	0	0	0	0	0	0	0	0	0	0	0	0	2822	2822	2822	2845	2845	2845	2869	2845	2845	2845	2845	0	0	0	0	0	0	0	0	0	2893	2869	2869	2917	2893	2893	2893	2893	2893	2917	0	0	0	2327	2312	2297	2297	2281	2281	2281	2281	2281	2297	2297	2297	2711	2711	2711	2711	2711	2690	2690	2711	2690	2669	2669	2669	2669	2669	2376	2376	2376	2359	2359	2343	2312	2312	2312	2297	2297	2252	2252	2237	2237	2237	2237	2223	2223	2208	2208	2194	2181	2181	2181	2181	2181	2181	2194	2194	2181	2153	2153	2153	2140	2140	2140	2140	2140	2140	2140	2140	2153	0	0	0	1581	1581	1589	1589	1589	1589	1589	1589	1589	1589	0	0	0	0	0	0	0	0	0	0	0	0	0	0	0	0	0	0	0	0	0	0	0	0	0	0	0	0	0	0	0	0	0	0	0	0	0	0	0	0	0	0	0	0	0	0	0	0	0
0	0	0	0	0	0	0	0	0	0	0	1287	1287	1282	1282	1282	1287	1287	1277	1287	1287	0	0	0	0	0	0	0	0	0	0	0	0	0	0	0	0	0	0	0	0	0	0	0	0	0	0	0	0	0	0	0	0	0	0	0	0	0	0	0	0	0	0	0	0	0	0	0	0	0	0	0	0	0	0	0	0	0	0	0	0	0	0	0	0	0	0	0	0	0	0	0	0	0	0	0	0	0	0	0	0	0	0	0	0	0	0	0	0	0	0	0	0	0	0	0	0	0	0	0	0	0	0	0	0	0	0	0	0	0	0	0	0	0	0	0	0	0	0	0	0	0	0	0	0	0	0	0	0	0	0	0	0	0	0	0	0	0	0	0	2711	2711	2711	2711	2711	2711	2711	2711	2690	2690	2690	2690	2669	2669	2669	2669	2669	2690	2690	2690	2711	0	0	0	0	2799	2777	2754	2754	2754	2754	2822	2845	2822	2822	2822	2822	2822	2822	2822	2822	2822	2822	2822	2845	0	0	0	0	0	0	0	0	0	0	0	0	0	0	0	0	0	0	0	0	0	0	0	0	0	0	0	0	0	0	0	0	0	4521	4463	4463	4463	4406	4406	6720	6468	6468	6468	6349	6349	6349	6349	0	0	0	0	0	0	0	0	0	0	0	0	0	0	0	0	0	0	0	0	0	0	0	0	0	0	0	0	0	0	0	0	0	0	0	0	0	0	0	0	5448	5535	5448	5448	5364	5282	5125	5050	5050	5050	5050	4977	5050	5050	5050	5050	5282	3583	3583	3546	3546	3510	3510	3510	3510	3510	3510	3510	3510	3510	3475	3475	3475	3510	3510	3546	3546	3546	3546	3546	3583	3546	3583	3546	3583	3510	3546	3546	3510	3510	3510	3475	3475	3475	3475	3475	3475	3475	3475	3475	3475	3475	3475	3440	3440	3440	3440	3475	3440	3440	3440	3475	6235	6235	6235	6124	6124	6124	6124	6124	6124	6235	6235	6235	6235	6235	6235	6235	6235	6235	6235	6349	6349	6349	6349	6235	6349	6349	6349	6468	6349	6468	6349	6349	6349	6349	6235	6235	6468	6468	6468	6468	6468	6468	7959	7959	8146	8146	8146	8146	8146	8146	7959	7959	7959	7959	7959	8146	8146	7959	7779	7444	7287	7287	7287	7137	6992	6992	6853	6853	6992	6992	6992	6992	6992	7137	6992	6992	6992	6992	6992	6992	6992	7137	7287	7287	7287	7287	7287	7444	7608	7608	0	0	0	0	0	0	0	0	0	0	0	0	0	0	0	0	0	0	0	0	0	0	2822	2822	2822	2845	2845	2845	2869	2845	2845	2822	2822	0	0	0	0	0	0	0	0	2917	2893	2869	2869	2869	2869	2869	2869	2869	2869	0	0	0	0	0	2312	2297	2297	2281	2281	2281	2297	2297	2297	2297	2297	2711	2711	2733	2711	2711	2690	2690	2690	2690	2669	2669	2669	2669	2669	2376	2376	2376	2359	2359	2327	2312	2312	2312	2297	2281	2252	2252	2252	2237	2237	2237	2237	2223	2223	2223	2223	2194	2181	2181	2181	2181	2194	2181	2181	2181	2167	2153	2153	2140	2140	2140	2140	2140	2140	2140	2140	0	0	1581	1589	1589	1589	1589	1589	1589	1589	1589	1574	1574	1567	1560	1560	0	0	0	0	0	0	0	0	0	0	0	0	0	0	0	0	0	0	0	0	0	0	0	0	0	0	0	0	0	0	0	0	0	0	0	0	0	0	0	0	0	0	0	0	0	0	0
0	0	0	0	0	0	0	0	0	0	0	1287	1287	1282	1282	1287	1287	1287	1277	1282	1282	0	0	0	0	0	0	0	0	0	0	0	0	0	0	0	0	0	0	0	0	0	0	0	0	0	0	0	0	0	0	0	0	0	0	0	0	0	0	0	0	0	0	0	0	0	0	0	0	0	0	0	0	0	0	0	0	0	0	0	0	0	0	0	0	0	0	0	0	0	0	0	0	0	0	0	0	0	0	0	0	0	0	0	0	0	0	0	0	0	0	0	0	0	0	0	0	0	0	0	0	0	0	0	0	0	0	0	0	0	0	0	0	0	0	0	0	0	0	0	0	0	0	0	0	0	0	0	0	0	0	0	0	0	0	0	0	0	0	0	2690	2690	2690	2690	2690	2711	2690	2690	2690	2690	2669	2669	2669	2669	2669	2669	2669	2690	2690	2690	0	0	0	0	0	0	0	0	0	0	2822	2822	2845	2822	2822	2822	2799	2799	2799	2799	2799	2822	2822	2822	2822	0	0	0	0	0	0	0	0	0	0	0	0	0	0	0	0	0	0	0	0	0	0	0	0	0	0	0	0	0	0	0	0	0	4521	4463	4463	4463	4406	4406	6592	6468	6349	6349	6124	6124	6018	6018	0	0	0	0	0	0	0	0	0	0	0	0	0	0	0	0	0	0	0	0	0	0	0	0	0	0	0	0	0	0	0	0	0	0	0	0	0	0	0	0	0	5535	5448	5448	5448	5282	5125	5050	5050	5050	5050	4977	5050	5050	5050	5202	5282	3546	3546	3546	3546	3510	3510	3510	3546	3510	3510	3510	3510	3510	3510	3475	3510	3510	3510	3546	3546	3546	3546	3546	3546	3583	3583	3583	3583	3510	3510	3510	3510	3510	3475	3475	3475	3475	3475	3475	3475	3475	3475	3475	3475	3475	3475	3440	3440	3440	3440	3440	3440	3440	3440	0	6235	6235	6124	6124	6124	6124	6124	6124	6124	6124	6235	6235	6235	6235	6235	6235	6235	6235	6235	6349	6349	6349	6235	6235	6349	6349	6349	6349	6349	6349	6349	6349	6349	6349	6349	6235	6349	6349	6349	6349	6349	6349	8146	8146	8550	8550	8343	8146	8146	8146	8146	7959	7959	7959	8146	8146	8146	8146	7779	7608	7444	7287	7287	7137	6992	6992	6853	6992	6853	6992	6992	6992	7137	7137	7137	7137	7137	7137	7137	7137	6992	7137	7287	7287	7137	7444	7444	7444	7608	7608	0	0	0	0	0	0	0	0	0	0	0	0	0	0	0	0	0	0	0	0	0	0	2822	2845	2845	2822	2845	2845	2845	2845	2845	2845	2845	2845	0	0	0	0	0	0	0	2893	2893	2869	2869	2869	2869	2869	2845	2845	2845	2845	0	0	0	0	2312	2297	2281	2281	2266	2281	2281	2281	2312	2312	2312	2312	2312	2711	2711	2690	2690	2669	2690	2669	2669	2669	2669	2669	2376	2376	2376	2359	2359	2343	2327	2312	2312	2297	2297	2281	2252	2237	2237	2237	2237	2237	2223	2208	2208	2208	2208	2181	2181	2181	2181	2181	2194	2194	2194	2181	2167	2153	2153	2140	2140	2140	2140	2140	2140	2127	2127	0	1589	1589	1589	1589	1596	1589	1589	1589	1589	1574	1567	1567	1560	1553	1553	1553	0	0	0	0	0	0	0	0	0	0	0	0	0	0	0	0	0	0	0	0	0	0	0	0	0	0	0	0	0	0	0	0	0	0	0	0	0	0	0	0	0	0	0	0	0	0
0	0	0	0	0	0	0	0	0	0	0	1287	1287	1287	1287	1291	1291	1291	1287	1287	1291	1291	0	0	0	0	0	0	0	0	0	0	0	0	0	0	0	0	0	0	0	0	0	0	0	0	0	0	0	0	0	0	0	0	0	0	0	0	0	0	0	0	0	0	0	0	0	0	0	0	0	0	0	0	0	0	0	0	0	0	0	0	0	0	0	0	0	0	0	0	0	0	0	0	0	0	0	0	0	0	0	0	0	0	0	0	0	0	0	0	0	0	0	0	0	0	0	0	0	0	0	0	0	0	0	0	0	0	0	0	0	0	0	0	0	0	0	0	0	0	0	0	0	0	0	0	0	0	0	0	0	0	0	0	0	0	0	0	0	0	2690	2711	2690	2711	2711	2711	2711	2690	2690	2669	2669	2669	2669	2669	2669	2669	2669	2669	2690	2690	0	0	0	0	0	0	0	0	0	0	2822	2822	2822	2822	2822	2799	2799	2799	2799	2799	2822	2799	2822	2822	2822	0	0	0	0	0	0	0	0	0	0	0	0	0	0	0	0	0	0	0	0	0	0	0	0	0	0	0	0	0	0	0	0	0	4521	4521	4521	4463	4463	4463	6468	6349	6235	6235	6124	6018	6018	6018	0	0	0	0	0	0	0	0	0	0	0	0	0	0	0	0	0	0	0	0	0	0	0	0	0	0	0	0	0	0	0	0	0	0	0	0	0	0	0	0	0	5535	5448	5448	5364	5282	5125	5125	5050	5050	5050	4977	5050	4977	5050	5125	5125	3546	3546	3546	3546	3546	3510	3546	3546	3546	3546	3510	3510	3510	3475	3510	3510	3510	3510	3546	3546	3546	3546	3546	3546	3546	3583	3583	3583	3510	3510	3510	3510	3475	3475	3475	3475	3475	3475	3475	3475	3475	3475	3475	3475	3475	3475	3440	3440	3475	3475	3440	3440	3440	3440	0	6235	6235	6124	6124	6124	6124	6124	6124	6124	6124	6124	6124	6124	6235	6235	6235	6235	6235	6235	6349	6349	6349	6235	6235	6349	6349	6349	6349	6349	6349	6349	6349	6349	6349	6349	6349	6468	6349	6349	6349	6235	6235	8146	8146	8550	8343	8343	8146	8146	8146	8146	7959	8146	8146	8146	8146	8146	8146	7959	7608	7444	7287	7287	6992	6992	6992	6853	6853	6992	6992	6992	7137	7137	7287	7137	7137	7137	7137	7137	7137	6992	7137	7287	7287	7287	7444	7444	7444	7608	7608	0	0	0	0	0	0	0	0	0	0	0	0	0	0	0	0	0	0	0	0	0	0	0	2845	2845	2822	2845	2845	2845	2845	2822	2822	2822	2845	2845	0	0	0	0	2942	2917	2917	2893	2869	2869	2869	2869	2869	2845	2845	2845	2845	0	0	0	0	2312	2281	2281	2281	2281	2281	2281	2281	2297	2297	2297	2297	2297	2297	2711	2711	2690	2669	2690	2669	2669	2669	2669	2669	2376	2376	2376	2376	2359	2359	2312	2312	2312	2297	2297	2281	2266	2252	2252	2237	2237	2237	2237	2208	2194	2194	2208	2181	2181	2181	2181	2194	2194	2194	2194	2194	2167	2153	2153	2140	2140	2127	2127	2127	2101	2101	1596	1596	1589	1589	1589	1589	1596	1589	1589	1589	1574	1567	1567	1567	1560	1553	1553	1553	0	0	0	0	0	0	0	0	0	0	0	0	0	0	0	0	0	0	0	0	0	0	0	0	0	0	0	0	0	0	0	0	0	0	0	0	0	0	0	0	0	0	0	0	0	0
0	0	0	0	0	0	0	0	0	0	0	1287	1287	1287	1287	1287	1287	1287	1287	1287	1287	1291	0	0	0	0	0	0	0	0	0	0	0	0	0	0	0	0	0	0	0	0	0	0	0	0	0	0	0	0	0	0	0	0	0	0	0	0	0	0	0	0	0	0	0	0	0	0	0	0	0	0	0	0	0	0	0	0	0	0	0	0	0	0	0	0	0	0	0	0	0	0	0	0	0	0	0	0	0	0	0	0	0	0	0	0	0	0	0	0	0	0	0	0	0	0	0	0	0	0	0	0	0	0	0	0	0	0	0	0	0	0	0	0	0	0	0	0	0	0	0	0	0	0	0	0	0	0	0	0	0	0	0	0	0	0	0	0	0	0	2690	2711	2711	2711	2711	2711	2711	2690	2711	2669	2669	2669	2669	2669	2669	2669	2669	2669	2669	2669	0	0	0	0	0	0	0	0	0	0	2822	2822	2822	2777	2799	2799	2799	2799	2777	2777	2799	2777	2822	2799	2799	0	0	0	0	0	0	0	0	0	0	0	0	0	0	0	0	0	0	0	0	0	0	0	0	0	0	0	0	0	0	0	0	0	4521	4521	4521	4521	4463	4463	6349	6235	6124	6124	6124	6018	6018	6018	0	0	0	0	0	0	0	0	0	0	0	0	0	0	0	0	0	0	0	0	0	0	0	0	0	0	0	0	0	0	0	0	0	0	0	0	0	0	0	0	0	0	5364	5364	5282	5202	5125	5125	5050	5050	5050	5050	5050	5125	5050	5202	5282	3546	3546	3546	3546	3546	3510	3546	3546	3546	3510	3510	3510	3510	3475	3475	3510	3510	3510	3546	3546	3546	3546	3546	3546	3583	3583	3583	3583	3583	3510	3510	3475	3475	3475	3475	3475	3475	3475	3475	3475	3475	3475	3475	3475	3475	3475	3440	3440	3475	3440	3440	3440	3440	3440	0	6235	6235	6124	6124	6124	6124	6124	6124	6124	6124	6124	6124	6124	6124	6124	6235	6235	6235	6235	6349	6468	6349	6235	6349	6349	6349	6349	6349	6349	6349	6468	6468	6349	6349	6235	6235	6468	6468	6349	6349	6235	6235	6235	8343	8343	8343	8146	8146	8146	8146	7959	7959	7959	8146	8146	8146	8146	8146	7959	7779	7444	7287	7137	6992	6992	6992	6992	6992	6992	6992	7137	7137	7287	7287	7137	7137	7137	7137	7137	6992	6992	7137	7287	7287	7287	7444	7444	7444	7608	7608	0	0	0	0	0	0	0	0	0	0	0	0	0	0	0	0	0	0	0	0	0	0	0	0	2845	2822	2845	2822	2845	2845	2822	2822	2822	2822	2822	2822	0	0	0	2967	2917	2917	2893	2893	2869	2869	2869	2869	2845	2845	2822	2822	2822	0	0	0	2312	2297	2281	2281	2281	2281	2281	2281	2297	2312	2312	2312	2312	2297	2711	2711	2669	2669	2669	2669	2669	2669	2669	2669	2376	2376	2376	2376	2359	2359	2312	2312	2312	2297	2297	2281	2266	2237	2237	2237	2237	2237	2237	2208	2194	2194	0	0	2181	2194	2194	2208	2223	2223	2223	2194	0	0	0	2140	2140	2127	2127	2127	2101	2101	1596	1596	1596	1589	1589	1589	1596	1589	1589	1589	1567	1567	1567	1567	1560	1560	1560	0	0	0	0	0	0	0	0	0	0	0	0	0	0	0	0	0	0	0	0	0	0	0	0	0	0	0	0	0	0	0	0	0	0	0	0	0	0	0	0	0	0	0	0	0	0	0
0	0	0	0	0	0	0	0	0	0	0	1287	1287	1287	1287	1287	1287	1287	1282	1287	1282	1282	0	0	0	0	0	0	0	0	0	0	0	0	0	0	0	0	0	0	0	0	0	0	0	0	0	0	0	0	0	0	0	0	0	0	0	0	0	0	0	0	0	0	0	0	0	0	0	0	0	0	0	0	0	0	0	0	0	0	0	0	0	0	0	0	0	0	0	0	0	0	0	0	0	0	0	0	0	0	0	0	0	0	0	0	0	0	0	0	0	0	0	0	0	0	0	0	0	0	0	0	0	0	0	0	0	0	0	0	0	0	0	0	0	0	0	0	0	0	0	0	0	0	0	0	0	0	0	0	0	0	0	0	0	0	0	0	0	0	0	2690	2690	2690	2690	2690	2690	2690	2690	2669	2669	2669	2669	2669	2669	2669	2669	2669	2690	2690	2754	2777	2754	2754	2733	2754	2733	2733	0	0	2733	2799	2799	2777	2799	2799	2799	2799	2777	2777	2777	2777	2822	2822	2822	0	0	0	0	0	0	0	0	0	0	0	0	0	0	0	0	0	0	0	0	0	0	0	0	0	0	0	0	0	0	0	0	0	4521	4521	4521	4463	4463	6468	6349	6235	6124	6124	6124	6124	6124	0	0	0	0	0	0	0	0	0	0	0	0	0	0	0	0	0	0	0	0	0	0	0	0	0	0	0	0	0	0	0	0	0	0	0	0	0	0	0	0	0	0	0	5364	5364	5282	5202	5202	5202	5050	5050	5050	5050	5050	5050	5050	5125	5202	3546	3546	3546	3546	3546	3546	3510	3546	3546	3510	3510	3510	3475	3510	3510	3510	3510	3510	3546	3546	3546	3546	3546	3583	3583	3583	3583	3583	3583	3510	3510	3510	3475	3475	3475	3475	3475	3475	3475	3475	3475	3475	3475	3475	3475	3475	3440	3475	3475	3475	3440	3440	3440	3440	0	6124	6124	6124	6124	6124	6124	6124	6235	6124	6124	6124	6124	6124	6124	6235	6235	6235	6235	6235	6349	6468	6235	6235	6349	6349	6349	6349	6349	6349	6349	6468	6468	6349	6349	6235	6235	6468	6468	6349	6349	6235	6235	6235	6235	8343	8343	8146	8146	8146	8146	7959	7959	7959	7959	8146	8146	8146	7959	7959	7608	7444	7287	7287	6992	6992	6992	6992	6853	6853	6992	7287	7137	7287	7137	7137	7137	7137	7137	6992	6992	6853	6992	7137	7287	7287	7444	7444	7444	0	0	0	0	0	0	0	0	0	0	0	0	0	0	4406	4406	4406	4406	4406	4406	0	0	0	0	0	0	2845	2822	2822	2845	2845	2845	2822	2822	2822	2822	2822	2822	0	0	0	2942	2917	2893	2893	2869	2869	2845	2845	2845	2845	2822	2799	2799	2822	0	0	0	2312	2312	2297	2297	2281	2281	2297	2281	2297	2297	2312	2312	2312	2312	0	0	2669	2669	2669	2669	2669	2649	2649	2669	2392	2392	2376	2359	2359	2327	2312	2312	2312	2312	2297	2297	2266	2266	2266	2237	2237	0	0	0	0	0	0	0	0	2194	2194	2208	2237	2237	2237	0	0	0	0	0	0	0	0	0	0	0	1596	1596	1596	1596	1589	1589	1589	1589	1581	1581	1567	1567	1567	1567	1560	1560	1560	0	0	0	0	0	0	0	0	0	0	0	0	0	0	0	0	0	0	0	0	0	0	0	0	0	0	0	0	0	0	0	0	0	0	0	0	0	0	0	0	0	0	0	0	0	0	0
0	0	0	0	0	0	0	0	0	0	0	1287	1287	1287	1287	1287	1287	1287	1282	1282	1282	1282	0	0	0	0	0	0	0	0	0	0	0	0	0	0	0	0	0	0	0	0	0	0	0	0	0	0	0	0	0	0	0	0	0	0	0	0	0	0	0	0	0	0	0	0	0	0	0	0	0	0	0	0	0	0	0	0	0	0	0	0	0	0	0	0	0	0	0	0	0	0	0	0	0	0	0	0	0	0	0	0	0	0	0	0	0	0	0	0	0	0	0	0	0	0	0	0	0	0	0	0	0	0	0	0	0	0	0	0	0	0	0	0	0	0	0	0	0	0	0	0	0	0	0	0	0	0	0	0	0	0	0	0	0	0	0	0	0	0	2690	2690	2690	2690	2690	2690	2690	2690	2711	2669	2669	2669	2669	2669	2669	2669	2669	2669	2690	2690	2754	2754	2754	2754	2733	2754	2733	2733	2733	2754	2799	2799	2799	2799	2799	2799	2777	2777	2777	2754	2777	2777	2822	2822	2822	0	0	0	0	0	0	0	0	0	0	0	0	0	0	0	0	0	0	0	0	0	0	0	0	0	0	0	0	0	0	0	0	0	4521	4581	4581	4581	4581	6468	6468	6235	6235	6124	6124	6124	6124	6124	0	0	0	0	0	0	0	0	0	0	0	0	0	0	0	0	0	0	0	0	0	0	0	0	0	0	0	0	0	0	0	0	0	0	0	0	0	0	0	0	0	0	0	5282	5282	5202	5202	5202	5125	5125	5050	5050	5050	5050	5050	5125	5050	3546	3546	3546	3546	3510	3510	3510	3546	3510	3510	3510	3510	3510	3510	3510	3510	3510	3510	3583	3546	3546	3546	3546	3583	3583	3621	3621	3621	3583	3510	3510	3510	3475	3475	3475	3475	3475	3475	3475	3475	3475	3475	3475	3475	3475	3475	3440	3475	3475	3475	3475	3440	3583	3583	0	6124	6124	6124	6124	6124	6124	6124	6124	6124	6235	6124	6124	6235	6235	6235	6235	6349	6349	6349	6349	6349	6349	6235	6235	6235	6349	6349	6349	6349	6349	6349	6349	6349	6349	6349	6349	6349	6468	6349	6349	6349	6235	6235	6235	8343	8343	8146	8146	8146	8146	7959	7959	7959	7959	8146	8146	7959	7959	7959	7779	7444	7287	6992	6992	6992	6992	6992	6992	6992	6992	7287	7137	7137	7287	7137	7137	7137	7137	6992	6853	6853	7137	7137	7287	7287	7444	7444	0	0	0	0	0	0	0	0	0	0	0	0	0	0	4406	4406	4406	4406	4406	4406	4350	4350	0	0	0	0	0	2845	2822	2822	2845	2845	2845	2822	2822	2822	2822	2822	2822	0	0	2942	2942	2917	2917	2893	2869	2869	2845	2845	2845	2822	2822	2777	2754	2754	0	0	2327	2312	2312	2297	2297	2281	2281	2281	2281	2281	2297	2312	2312	2312	2312	0	0	0	0	0	2669	2669	2669	2649	0	2409	2409	2409	2376	2359	2359	2327	2312	2312	2312	2312	2297	2297	2297	2266	0	0	0	0	0	0	0	0	0	0	0	0	0	2237	2237	2237	0	0	0	0	0	0	0	0	0	0	0	1596	1596	1589	1589	1589	1589	1589	1589	1589	1581	1574	1574	1574	1567	1567	1567	1560	0	0	0	0	0	0	0	0	0	0	0	0	0	0	0	0	0	0	0	0	0	0	0	0	0	0	0	0	0	0	0	0	0	0	0	0	0	0	0	0	0	0	0	0	0	0	0
0	0	0	0	0	0	0	0	0	0	0	1291	1287	1287	1287	1287	1287	1287	1282	1282	1282	1282	0	0	0	0	0	0	0	0	0	0	0	0	0	0	0	0	0	0	0	0	0	0	0	0	0	0	0	0	0	0	0	0	0	0	0	0	0	0	0	0	0	0	0	0	0	0	0	0	0	0	0	0	0	0	0	0	0	0	0	0	0	0	0	0	0	0	0	0	0	0	0	0	0	0	0	0	0	0	0	0	0	0	0	0	0	0	0	0	0	0	0	0	0	0	0	0	0	0	0	0	0	0	0	0	0	0	0	0	0	0	0	0	0	0	0	0	0	0	0	0	0	0	0	0	0	0	0	0	0	0	0	0	0	0	0	0	0	0	2669	2669	2690	2690	2690	2690	2690	2690	2711	2711	2669	2669	2669	2669	2669	2669	2669	2690	2690	2711	2733	2754	2754	2754	2733	2754	2733	2733	2754	2777	2799	2799	2799	2799	2799	2799	2777	2777	2777	2777	2777	2777	2822	2845	2845	0	0	0	0	0	0	0	0	0	0	0	0	0	0	0	0	0	0	0	0	0	0	0	0	0	0	0	0	0	0	0	0	4521	4521	4581	4581	4581	6592	6468	6468	6235	6235	6235	6124	6124	6124	6124	0	0	0	0	0	0	0	0	0	0	0	0	0	0	0	0	0	0	0	0	0	0	0	0	0	0	0	0	0	0	0	0	0	0	0	0	0	0	0	0	0	0	0	5282	5282	5202	5202	5202	5125	5125	5125	5050	5050	5050	5050	5050	5050	3510	3510	3510	3546	3510	3510	3510	3546	3546	3510	3546	3510	3510	3510	3510	3510	3510	3510	3546	3546	3546	3583	3583	3583	3583	3621	3621	3621	3583	3510	3510	3475	3475	3475	3475	3475	3475	3475	3475	3475	3475	3475	3475	3475	3475	3475	3440	3475	3475	3475	3475	3546	3583	3583	0	6124	6124	6124	6124	6124	6124	6124	6124	6124	6124	6124	6124	6124	6124	6235	6235	6235	6235	6235	6235	6349	6235	6235	6235	6235	6235	6349	6349	6349	6349	6349	6349	6349	6349	6349	6349	6468	6468	6468	6468	6349	6349	6349	6349	8146	8146	8146	8146	8146	8146	7959	7959	8146	8146	8146	8146	8146	8146	7959	7779	7444	7137	6992	6853	6853	6992	6853	6853	6853	6853	6992	7137	7137	7137	7137	7137	7137	6992	6853	6853	6853	6853	6992	7287	7287	7444	7444	0	0	0	0	0	0	0	0	0	0	0	0	4296	4406	4406	4406	4406	4406	4406	4406	4406	4406	0	0	0	0	0	0	2822	2822	2822	2822	2822	2799	2822	2822	2822	2822	2822	2942	2942	2942	2942	2917	2917	2893	2869	2845	2845	2845	2822	2822	2777	2754	2754	2754	0	0	2312	2297	2297	2297	2281	2281	2281	2281	2281	2281	2281	2297	2312	2312	2312	2312	2312	0	0	0	0	2669	2669	0	0	2426	2409	2409	2376	2359	2327	2312	2312	2312	2312	2312	2312	2297	2297	0	0	0	0	0	0	0	0	0	0	0	0	0	0	0	0	0	0	0	0	0	0	0	0	0	0	0	0	1603	1596	1589	1589	1589	1589	1589	1589	1589	1581	1574	1567	1567	1560	1560	1560	0	0	0	0	0	0	0	0	0	0	0	0	0	0	0	0	0	0	0	0	0	0	0	0	0	0	0	0	0	0	0	0	0	0	0	0	0	0	0	0	0	0	0	0	0	0	0	0
0	0	0	0	0	0	0	0	0	0	0	1291	1291	1291	1291	1287	1291	1287	1287	1287	0	0	0	0	0	0	0	0	0	0	0	0	0	0	0	0	0	0	0	0	0	0	0	0	0	0	0	0	0	0	0	0	0	0	0	0	0	0	0	0	0	0	0	0	0	0	0	0	0	0	0	0	0	0	0	0	0	0	0	0	0	0	0	0	0	0	0	0	0	0	0	0	0	0	0	0	0	0	0	0	0	0	0	0	0	0	0	0	0	0	0	0	0	0	0	0	0	0	0	0	0	0	0	0	0	0	0	0	0	0	0	0	0	0	0	0	0	0	0	0	0	0	0	0	0	0	0	0	0	0	0	0	0	0	0	0	0	0	0	0	2690	2690	2690	2690	2690	2690	2690	2690	2690	2690	2690	2669	2690	2690	2690	2669	2690	2690	2690	2711	2733	2754	2754	2754	2754	2754	2733	2733	2754	2777	2799	2799	2799	2799	2799	2799	2799	2777	2777	2777	2777	2777	2822	2845	2845	2845	0	2845	2845	0	0	0	0	0	0	0	0	0	0	0	0	0	0	0	0	0	0	0	0	0	0	0	0	0	0	0	4521	4521	4521	4581	4581	4581	6592	6468	6468	6349	6235	6235	6235	6235	6124	6124	0	0	0	0	0	0	0	0	0	0	0	0	0	0	0	0	0	0	0	0	0	0	0	0	0	0	0	0	0	0	0	0	0	0	0	0	0	0	0	0	0	0	0	5282	5364	5282	5202	5202	5125	5125	5125	5050	5050	5050	5050	5050	5050	3546	3546	3546	3546	3510	3510	3510	3546	3510	3510	3510	3510	3510	3510	3510	3510	3510	3546	3546	3546	3546	3583	3583	3583	3583	3583	3583	3583	3510	3510	3510	3510	3475	3475	3475	3510	3475	3475	3475	3475	3475	3475	3475	3475	3475	3475	3440	3475	3475	3475	3475	3475	3583	3583	0	6018	6018	6018	6124	6124	6124	6124	6124	6124	6124	6018	6124	6124	6124	6235	6235	6235	6235	6235	6235	6235	6235	6235	6235	6235	6235	6235	6235	6235	6235	6235	6235	6349	6349	6349	6349	6468	6468	6468	6468	6468	6468	6349	7959	8146	8146	8146	8146	8146	8146	7959	7959	8146	8146	8146	8146	8146	8146	8146	7779	7444	7287	6992	6992	6992	6992	6992	6853	6853	6992	7137	7137	7137	7287	7137	6992	6992	6992	6853	6853	6853	6853	6992	0	0	0	0	0	0	0	0	0	0	0	0	0	0	0	0	4350	4406	4406	4406	4406	4406	4406	4406	4350	4350	0	0	0	0	0	0	0	2822	2822	2822	2799	2799	2777	2799	2799	2799	2799	2917	2917	2917	2917	2917	2917	2893	2869	2845	2845	2822	2845	2822	2799	2777	2754	2754	0	0	2297	2297	2297	2297	2281	2281	2281	2281	2281	2281	2281	2297	2297	2312	2312	2312	2312	0	0	0	0	0	0	0	0	2426	2409	2409	2376	2359	2327	2312	2312	2312	2312	2312	2312	0	0	0	0	0	0	0	0	0	0	0	0	0	0	0	0	0	0	0	0	0	0	0	0	0	0	0	0	0	0	1596	1596	1596	1596	1589	1589	1589	1589	1589	1581	1567	1567	1567	1560	1560	1560	1560	0	0	0	0	0	0	0	0	0	0	0	0	0	0	0	0	0	0	0	0	0	0	0	0	0	0	0	0	0	0	0	0	0	0	0	0	0	0	0	0	0	0	0	0	0	0	0
0	0	0	0	0	0	0	0	0	0	0	1291	1291	1291	1291	1287	1291	1291	1291	1291	0	0	0	0	0	0	0	0	0	0	0	0	0	0	0	0	0	0	0	0	0	0	0	0	0	0	0	0	0	0	0	0	0	0	0	0	0	0	0	0	0	0	0	0	0	0	0	0	0	0	0	0	0	0	0	0	0	0	0	0	0	0	0	0	0	0	0	0	0	0	0	0	0	0	0	0	0	0	0	0	0	0	0	0	0	0	0	0	0	0	0	0	0	0	0	0	0	0	0	0	0	0	0	0	0	0	0	0	0	0	0	0	0	0	0	0	0	0	0	0	0	0	0	0	0	0	0	0	0	0	0	0	0	0	0	0	0	0	0	2690	2690	2669	2669	2690	2690	2690	2690	2690	2690	2690	2690	2690	2690	2690	2690	2690	2690	2690	2690	2711	2733	2754	2754	2754	2754	2754	2754	2754	2754	2777	2799	2799	2799	2799	2799	2799	2799	2777	2777	2777	2777	2777	2777	2845	2845	2845	2845	2845	2845	0	0	0	0	0	0	0	0	0	0	0	0	0	0	0	0	0	0	0	0	4243	4243	4243	4243	4243	0	4463	4463	4521	4521	4581	4581	4581	6592	6468	6468	6349	6349	6349	6349	6235	6235	6124	0	0	0	0	0	0	0	0	0	0	0	0	0	0	0	0	0	0	0	0	0	0	0	0	0	0	0	0	0	0	0	0	0	0	0	0	0	0	0	0	0	0	0	5282	5364	5282	5202	5202	5125	5125	5125	5050	5050	5050	5050	5050	5050	3546	3546	3546	3546	3546	3546	3510	3546	3510	3510	3510	3510	3510	3510	3510	3510	3510	3546	3546	3546	3546	3546	3583	3583	3583	3583	3583	3583	3546	3510	3510	3510	3475	3475	3510	3510	3475	3475	3475	3475	3475	3475	3475	3475	3475	3440	3440	3475	3475	3475	3475	3510	3583	3621	3621	6018	6018	6018	6124	6124	6124	6124	6124	6124	6124	6018	6124	6124	6124	6124	6235	6235	6235	6235	6235	6349	6235	6235	6235	6235	6235	6235	6235	6235	6235	6349	6349	6349	6349	6349	6349	6592	6468	6468	6468	6468	6468	6349	8146	8146	8146	8146	8146	8146	8146	7959	7959	8146	8146	8146	8146	8146	8146	7959	7779	7444	7287	6992	6992	6992	6853	6992	6853	6853	6853	6853	6853	7137	7137	6992	6992	6992	6992	6853	6853	6853	6853	0	0	0	0	0	0	0	0	0	0	0	0	0	0	0	0	0	4350	4406	4406	4406	4406	4350	4350	4350	4350	4350	0	0	0	0	0	0	0	0	2822	2822	2799	2799	2777	2777	2777	2799	2799	2845	2893	2917	2917	2893	2917	2893	2869	2845	2845	2845	2822	2822	2822	2777	2754	2754	0	0	2297	2297	2297	2297	2281	2297	2281	2281	2281	2297	2281	2297	2297	2297	2297	2297	2297	2297	0	0	0	0	0	0	0	0	0	0	0	0	0	0	0	0	0	0	0	0	0	0	0	0	0	0	0	0	0	0	0	0	0	0	0	0	0	0	0	0	0	0	0	0	0	0	0	0	0	1596	1596	1596	1596	1596	1596	1589	1589	1589	1589	1574	1574	1567	1567	1560	1560	1560	1560	1560	1560	1560	0	0	0	0	0	0	0	0	0	0	0	0	0	0	0	0	0	0	0	0	0	0	0	0	0	0	0	0	0	0	0	0	0	0	0	0	0	0	0	0	0	0	0
0	0	0	0	0	0	0	0	0	0	0	1291	1291	1291	1291	1287	1291	1291	1291	1291	0	0	0	0	0	0	0	0	0	0	0	0	0	0	0	0	0	0	0	0	0	0	0	0	0	0	0	0	0	0	0	0	0	0	0	0	0	0	0	0	0	0	0	0	0	0	0	0	0	0	0	0	0	0	0	0	0	0	0	0	0	0	0	0	0	0	0	0	0	0	0	0	0	0	0	0	0	0	0	0	0	0	0	0	0	0	0	0	0	0	0	0	0	0	0	0	0	0	0	0	0	0	0	0	0	0	0	0	0	0	0	0	0	0	0	0	0	0	0	0	0	0	0	0	0	0	0	0	0	0	0	0	0	0	0	0	0	0	2711	2711	2690	2669	2669	2690	2711	2669	2669	2669	2669	2690	2669	2690	2690	2690	2690	2690	2711	2711	2711	2711	2733	2754	2754	2754	2754	2777	2754	2754	2777	2777	2777	2799	2799	2799	2799	2799	2799	2799	2777	2777	2777	2777	2777	2777	2799	2822	2845	2845	2845	2845	0	0	0	0	0	0	0	0	0	0	0	0	0	0	0	0	0	0	4296	4243	4243	4243	4243	4243	4350	4406	4406	4463	4521	4521	4521	4521	4521	6468	6592	6592	6468	6349	6349	6349	6235	0	0	0	0	0	0	0	0	0	0	0	0	0	0	0	0	0	0	0	0	0	0	0	0	0	0	0	0	0	0	0	0	0	0	0	0	0	0	0	0	0	0	0	0	0	5364	5282	5202	5202	5125	5125	5125	5050	5050	5050	5050	5050	5050	3546	3546	3546	3546	3546	3546	3510	3546	3475	3475	3475	3510	3510	3510	3510	3510	3510	3510	3546	3583	3583	3583	3583	3621	3621	3621	3621	3583	3583	3546	3510	3510	3510	3510	3510	3510	3510	3510	3475	3475	3475	3475	3475	3475	3475	3440	3440	3440	3475	3475	3475	3510	3621	3621	6018	6018	6018	6018	6124	6018	6018	6018	6018	6018	6018	6018	6124	6124	6124	6124	6235	6235	6349	6349	6349	6349	6349	6235	6235	6235	6235	6235	6235	6235	6235	6235	6349	6349	6349	6349	6468	6468	6468	6468	6468	6468	6468	6349	8146	8146	8146	8146	8146	8146	8146	7959	8146	8146	8146	8146	8146	8146	8146	8146	7779	7444	7287	6992	6992	6853	6853	6853	6853	6720	6720	7137	7137	6992	6992	6853	6992	6992	6853	6853	6853	6853	6853	0	0	0	0	0	0	0	0	0	0	0	0	0	0	0	0	0	4350	4406	4406	4350	4406	4350	4350	4350	4350	4350	0	0	0	0	0	0	0	0	2799	2799	2799	2799	2799	2799	2799	2799	2822	2845	2869	2893	2893	2893	2917	2893	2893	2845	2845	2822	2822	2799	2799	0	0	0	0	0	0	0	0	0	0	2297	2281	2281	2281	2297	2281	2281	2297	2297	2312	2297	2297	2297	2297	2297	2297	0	2297	2297	2312	2312	2327	0	0	0	0	0	0	0	0	0	0	0	0	0	0	0	0	0	0	0	0	0	0	0	0	0	0	0	0	0	0	0	0	0	0	0	0	0	0	0	0	0	1596	1596	1596	1596	1596	1589	1589	1589	1589	1574	1574	1567	1567	1567	1560	1560	1560	1560	1560	1560	1560	0	0	0	0	0	0	0	0	0	0	0	0	0	0	0	0	0	0	0	0	0	0	0	0	0	0	0	0	0	0	0	0	0	0	0	0	0	0	0	0	0	0
0	0	0	0	0	0	0	0	0	0	0	1291	1291	1291	1287	1287	1287	1287	0	0	0	0	0	0	0	0	0	0	0	0	0	0	0	0	0	0	0	0	0	0	0	0	0	0	0	0	0	0	0	0	0	0	0	0	0	0	0	0	0	0	0	0	0	0	0	0	0	0	0	0	0	0	0	0	0	0	0	0	0	0	0	0	0	0	0	0	0	0	0	0	0	0	0	0	0	0	0	0	0	0	0	0	0	0	0	0	0	0	0	0	0	0	0	0	0	0	0	0	0	0	0	0	0	0	0	0	0	0	0	0	0	0	0	0	0	0	0	0	0	0	0	0	0	0	0	0	0	0	0	0	0	0	0	0	0	0	0	0	2711	2711	2690	2690	2690	2690	2690	2669	2669	2669	2669	2669	2669	2690	2690	2690	2690	2690	2711	2711	2711	2711	2733	2754	2777	2777	2777	2777	2777	2777	2777	2777	2777	2799	2799	2799	2799	2799	2799	2777	2777	2777	2777	2777	2777	2777	2777	2822	2822	2822	2845	2845	0	0	0	0	0	0	0	0	0	0	0	0	0	0	0	0	0	0	4296	4243	4243	4243	4192	4192	4296	4350	4463	4406	4463	4521	4463	4463	4521	6592	6592	6592	6468	6468	6468	6468	0	0	0	0	0	0	0	0	0	0	0	0	0	0	0	0	0	0	0	0	0	0	0	0	0	0	0	0	0	0	0	0	0	0	0	0	0	0	0	0	0	0	0	0	0	0	5364	5364	5282	5202	5125	5050	5125	5050	5050	5050	5050	5050	5050	4977	3583	3546	3546	3546	3546	3510	3546	3475	3475	3475	3475	3475	3510	3510	3510	3510	3546	3546	3546	3583	3583	3583	3583	3621	3621	3621	3621	3621	3546	3546	3510	3510	3510	3510	3510	3510	3475	3475	3475	3475	3475	3475	3440	3440	3440	3440	3440	3475	3475	3475	3510	3583	3583	6124	6124	6124	6124	6124	6124	6124	6018	6124	6124	6018	6018	6018	6124	6235	6235	6235	6349	6349	6349	6349	6349	6349	6235	6235	6235	6235	6235	6235	6235	6235	6235	6349	6349	6349	6349	6349	6349	6592	6468	6468	6468	6592	6592	7959	8146	8146	8146	8146	8146	8146	8146	8146	8146	8146	8146	8146	8146	8146	8146	7779	7608	7287	7137	6992	6853	6853	6720	6720	6592	6992	7137	6992	6992	6992	6853	6992	6853	6853	6853	6853	6853	6853	0	0	0	0	0	0	0	0	0	0	0	0	0	0	0	0	0	4350	4406	4406	4406	4406	4350	4350	4350	4350	4350	0	0	0	0	0	0	0	0	2799	2799	2799	2799	2799	2799	2799	2822	2845	2845	2869	2869	2893	2893	2917	2893	2893	2845	2845	2822	2822	2799	2799	0	0	0	0	0	0	0	0	0	0	0	0	0	0	2312	2297	2297	2297	2297	2312	2297	2297	2297	2297	2297	2297	2297	2297	2297	2312	2327	2327	2327	0	0	0	0	0	0	0	0	0	0	0	0	0	0	0	0	0	0	0	0	0	0	0	0	0	0	0	0	0	0	0	0	0	0	0	0	0	0	0	1581	1589	1589	1596	1603	1596	1589	1589	1589	1589	1574	1574	1567	1567	1567	1560	1560	1560	1560	1560	1560	1560	1567	1567	0	0	0	0	0	0	0	0	0	0	0	0	0	0	0	0	0	0	0	0	0	0	0	0	0	0	0	0	0	0	0	0	0	0	0	0	0	0	0	0
0	0	0	0	0	0	0	0	0	0	0	1291	1291	1291	1287	1287	1291	1291	0	0	0	0	0	0	0	0	0	0	0	0	0	0	0	0	0	0	0	0	0	0	0	0	0	0	0	0	0	0	0	0	0	0	0	0	0	0	0	0	0	0	0	0	0	0	0	0	0	0	0	0	0	0	0	0	0	0	0	0	0	0	0	0	0	0	0	0	0	0	0	0	0	0	0	0	0	0	0	0	0	0	0	0	0	0	0	0	0	0	0	0	0	0	0	0	0	0	0	0	0	0	0	0	0	0	0	0	0	0	0	0	0	0	0	0	0	0	0	0	0	0	0	0	0	0	0	0	0	0	0	0	0	0	0	0	0	0	0	0	2733	2711	2711	2690	2690	2690	2690	2690	2690	2669	2669	2690	2690	2690	2690	2690	2690	2690	2690	2690	2690	2711	2733	2754	2754	2777	2754	2799	2799	2777	2799	2799	2799	2799	2799	2799	2799	2799	2799	2777	2777	2777	2777	2777	2777	2777	2777	2777	2799	2822	2822	2822	0	0	0	0	0	0	0	0	0	0	0	0	0	0	0	0	0	0	0	0	4142	4192	4192	4243	4350	4350	4406	4463	4521	4521	4521	4521	0	6592	6592	6592	6468	6468	6468	6468	0	0	0	0	0	0	0	0	0	0	0	0	0	0	0	0	0	0	0	0	0	0	0	0	0	0	0	0	0	0	0	0	0	0	0	0	0	0	0	0	0	0	0	0	0	5448	5364	5364	5282	5202	5125	5050	5050	5050	5050	5050	5050	5050	5050	4977	4977	3546	3546	3546	3546	3546	3510	3510	3510	3510	3475	3475	3510	3510	3510	3510	3510	3546	3546	3583	3583	3583	3583	3621	3621	3621	3621	3621	3583	3546	3546	3510	3510	3510	3510	3510	3510	3475	3475	3475	3475	3475	3475	3440	3440	3440	3440	3475	3475	3475	3475	3475	3583	6124	6124	6124	6124	6124	6124	6124	6018	6018	6124	6124	6124	6124	6124	6235	6235	6235	6349	6349	6349	6349	6349	6349	6349	6235	6235	6235	6235	6235	6235	6235	6235	6349	6349	6349	6468	6468	6592	6592	6468	6468	6468	6468	6468	8146	8146	8146	8146	8146	8146	8146	8146	8146	8146	8146	8146	8146	8146	8146	7959	7779	7608	7444	7137	6992	6853	6720	6720	6720	6720	6992	6992	6992	6992	6992	6853	6853	6853	6853	6853	6853	6853	6853	0	0	0	0	0	0	0	0	0	0	0	0	0	0	0	0	0	4350	4350	4350	4406	4350	4350	4350	4350	4350	4350	0	0	0	0	0	0	0	0	2799	2799	2777	2799	2799	2799	2799	2822	2845	2845	2845	2869	2869	2869	2893	2893	2893	0	0	0	0	0	0	0	0	0	0	0	0	0	0	0	0	0	0	0	0	2297	2281	2281	2297	2297	2297	2297	2297	2297	2312	2297	2297	2297	2297	2297	2312	2312	2312	2312	2297	2297	0	0	0	0	0	0	0	0	0	0	0	0	0	0	0	0	0	0	0	0	0	0	0	0	0	0	0	0	0	0	0	0	0	0	0	0	0	1581	1589	1611	1603	1603	1596	1589	1589	1589	1589	1574	1574	1567	1567	1567	1560	1560	1560	1560	1560	1560	1560	1567	1567	0	0	0	0	0	0	0	0	0	0	0	0	0	0	0	0	0	0	0	0	0	0	0	0	0	0	0	0	0	0	0	0	0	0	0	0	0	0	0	0
0	0	0	0	0	0	0	0	0	0	0	1291	1291	1291	1287	1287	1287	1287	0	0	0	0	0	0	0	0	0	0	0	0	0	0	0	0	0	0	0	0	0	0	0	0	0	0	0	0	0	0	0	0	0	0	0	0	0	0	0	0	0	0	0	0	0	0	0	0	0	0	0	0	0	0	0	0	0	0	0	0	0	0	0	0	0	0	0	0	0	0	0	0	0	0	0	0	0	0	0	0	0	0	0	0	0	0	0	0	0	0	0	0	0	0	0	0	0	0	0	0	0	0	0	0	0	0	0	0	0	0	0	0	0	0	0	0	0	0	0	0	0	0	0	0	0	0	0	0	0	0	0	0	0	0	0	0	0	0	0	0	2733	2711	2711	2690	2690	2690	2690	2690	2690	2669	2669	2690	2690	2690	2690	2690	2690	2690	2690	2690	2690	2690	2733	2754	2754	2799	2799	2799	2822	2799	2799	2799	2822	2822	2799	2799	2799	2822	2799	2799	2777	2777	2799	2777	2777	2777	2777	2777	2799	2799	2822	2822	0	0	0	0	0	0	0	0	0	0	0	0	0	0	0	0	0	0	0	0	4142	4142	4192	4243	4296	4350	4350	4406	4521	4521	4463	4463	0	0	0	0	0	0	0	0	0	0	0	0	0	0	0	0	0	0	0	0	0	0	0	0	0	0	0	0	0	0	0	0	0	0	0	0	0	0	0	0	0	0	0	0	0	0	0	0	0	0	5719	5626	5626	5535	5364	5364	5282	5202	5125	5125	5125	5050	5050	5050	5050	5050	5050	4977	4977	3546	3546	3546	3546	3546	3510	3510	3510	3510	3475	3475	3510	3510	3510	3510	3510	3546	3546	3546	3583	3583	3583	3583	3621	0	0	3621	3583	3583	3546	3510	3510	3510	3510	3510	3475	3475	3475	3475	3475	3475	3475	3440	3440	3440	3440	3475	3475	3475	3475	3475	3475	6124	6124	6124	6124	6124	6124	6124	6124	6124	6124	6124	6124	6124	6124	6235	6235	6235	6349	6349	6349	6468	6468	6349	6349	6235	6349	6235	6349	6235	6235	6349	6349	6349	6349	6349	6349	6349	6468	6468	6468	6349	6349	6468	6468	8343	8146	8146	8146	8146	8146	8146	8146	8146	8146	8146	8146	8146	8146	8146	8146	7959	7779	7444	7287	7137	6992	6853	6720	6720	6992	6992	6992	6992	6992	6992	6853	6992	6853	6853	6853	6853	6853	6853	0	0	0	0	0	0	0	0	0	0	0	0	0	0	0	0	0	4350	4406	4350	4406	4406	4406	4350	4350	4296	4296	0	0	0	0	0	0	0	0	2799	2799	2777	2777	2777	2799	2799	2822	2822	2822	2845	2869	2869	2822	2822	2893	2893	0	0	0	0	0	0	0	0	0	0	0	0	0	0	0	0	0	0	0	0	2297	2281	2281	2297	2297	2297	2297	2297	2297	2312	2297	2297	2297	2297	2297	2297	2312	2312	2297	2297	2281	2281	0	0	0	0	0	0	0	0	0	0	0	0	0	0	0	0	0	0	0	0	0	0	0	0	0	0	0	0	0	0	0	0	0	0	0	0	0	0	1611	1603	1603	1596	1589	1589	1589	1589	1567	1567	1567	1560	1567	1567	1560	1560	1560	1560	1560	1560	0	0	0	0	0	0	0	0	0	0	0	0	0	0	0	0	0	0	0	0	0	0	0	0	0	0	0	0	0	0	0	0	0	0	0	0	0	0	0	0	0	0
0	0	0	0	0	0	0	0	0	0	0	1287	1291	1291	1287	1287	1291	1291	0	0	0	0	0	0	0	0	0	0	0	0	0	0	0	0	0	0	0	0	0	0	0	0	0	0	0	0	0	0	0	0	0	0	0	0	0	0	0	0	0	0	0	0	0	0	0	0	0	0	0	0	0	0	2015	2003	2003	0	0	0	0	0	0	0	0	0	0	0	0	0	0	0	0	0	0	0	0	0	0	0	0	0	0	0	0	0	0	0	0	0	0	0	0	0	0	0	0	0	0	0	0	0	0	0	0	0	0	0	0	0	0	0	0	0	0	0	0	0	0	0	0	0	0	0	0	0	0	0	0	0	0	0	0	0	0	0	0	0	0	0	2711	2711	2711	2690	2690	2690	2690	2690	2690	2690	2669	2690	2690	2690	2690	2690	2690	2690	2711	2690	2690	2711	2754	2777	2799	2799	2822	2822	2822	2777	2777	2822	2822	2822	2799	2799	2799	2822	2799	2799	2799	2777	2777	2777	2777	2777	2754	2777	2777	2777	2777	2777	0	0	0	0	0	0	0	0	0	0	0	0	0	0	0	0	0	0	0	0	4142	4192	4192	4243	4350	4350	4350	4406	4521	4521	4581	4581	0	0	0	0	0	0	0	0	0	0	0	0	0	0	0	0	0	0	0	0	0	0	0	0	0	0	0	0	0	0	0	0	0	0	0	0	0	0	0	0	0	0	0	0	0	0	0	0	0	0	5626	5626	5535	5535	5535	5364	5282	5202	5125	5125	5050	5050	5050	5050	5050	5050	5050	4977	4906	3546	3546	3546	3546	3546	3510	3510	3510	3510	3475	3475	3510	3510	3510	3510	3510	3510	3546	3546	3583	3583	3583	3583	0	0	0	3621	3583	3546	3546	3546	3510	3510	3510	3510	3475	3475	3475	3475	3475	3475	3440	3475	3440	3475	3440	3475	3475	3475	3475	3475	3475	0	6349	6235	6124	6124	6124	6124	6124	6124	6124	6124	6124	6124	6124	6235	6235	6349	6349	6468	6468	6468	6468	6349	6349	6349	6349	6349	6349	6235	6235	6349	6349	6349	6349	6349	6349	6349	6468	6468	6468	6349	6349	6349	8550	8343	8343	8146	8146	8146	8146	8146	8146	8146	8146	8146	8146	8146	8146	8146	7959	7959	7779	7608	7444	7287	7137	6992	6992	6853	6992	6992	7137	7137	6992	6992	6853	6992	6853	6853	6853	6720	6720	6720	6720	0	0	0	0	0	0	0	0	0	0	0	0	0	0	0	0	4350	4350	4406	4406	4406	4350	4350	4350	4243	4192	4192	0	0	0	0	0	0	0	0	2822	2799	2799	2799	2799	2799	2822	2822	2822	2845	2845	2845	2845	2822	0	0	0	0	0	0	0	0	0	0	0	0	0	0	0	0	0	0	0	0	0	0	0	2281	2281	2297	2297	2312	2297	2297	2297	2312	2312	2312	2312	2297	2297	2297	2297	2297	2297	2297	2297	2266	2266	2266	0	0	0	0	0	0	0	0	0	0	0	0	0	0	0	0	0	0	0	0	0	0	0	0	0	0	0	0	0	0	0	0	0	0	0	0	1603	1603	1603	1596	1596	1589	1589	1581	1567	1567	1567	1560	1567	1567	1560	1560	1560	1560	1560	1560	0	0	0	0	0	0	0	0	0	0	0	0	0	0	0	0	0	0	0	0	0	0	0	0	0	0	0	0	0	0	0	0	0	0	0	0	0	0	0	0	0	0
0	0	0	0	0	0	0	0	0	0	0	1287	1287	1287	1287	1282	1277	1277	0	0	0	0	0	0	0	0	0	0	0	0	0	0	0	0	0	0	0	0	0	0	0	0	0	0	0	0	0	0	0	0	0	0	0	0	0	0	0	0	0	0	0	0	0	0	0	0	0	2027	2015	2015	2015	2003	2015	2003	2003	2003	0	0	0	0	0	0	0	0	0	0	0	0	0	0	0	0	0	0	0	0	0	0	0	0	0	0	0	0	0	0	0	0	0	0	0	0	0	0	0	0	0	0	0	0	0	0	0	0	0	0	0	0	0	0	0	0	0	0	0	0	0	0	0	0	0	0	0	0	0	0	0	0	0	0	0	0	0	0	0	0	0	0	2711	2711	2711	2690	2690	2690	2690	2690	2690	2669	2669	2690	2669	2690	2690	2690	2690	2690	2711	2711	2711	2733	2777	2777	2799	2799	2822	2822	2822	2777	2799	2799	2799	2799	2822	2799	2799	2799	2799	2799	2777	2777	2777	2777	2777	2777	2754	2777	2777	2799	2799	2799	2893	2893	2893	0	0	0	0	0	0	0	0	0	0	0	0	0	0	0	0	4093	4093	4142	4192	4243	4350	4350	4350	4463	4521	4521	4521	4521	0	0	0	0	0	0	0	0	0	0	0	0	0	0	0	0	0	0	0	0	0	0	0	0	0	0	0	0	0	0	0	0	0	0	0	0	0	0	0	0	0	0	0	0	0	0	0	0	0	0	5626	5626	5448	5448	5448	5364	5282	5202	5125	5125	5050	5050	5050	5050	5050	4977	4977	4906	4838	3546	3546	3546	3546	3546	3546	3546	3546	3510	3510	3510	3510	3510	3510	3510	3510	3510	3546	3546	3546	3546	3583	0	0	0	0	0	3583	3583	3546	3546	3510	3510	3510	3510	3475	3475	3475	3475	3475	3475	3440	3440	3440	3440	3475	3475	3475	3475	3475	3475	3475	0	6235	6235	6124	6124	6124	6124	6124	6124	6124	6124	6124	6124	6124	6235	6235	6349	6349	6468	6468	6592	6468	6349	6349	6349	6349	6349	6235	6349	6349	6349	6235	6349	6349	6349	6349	6235	6468	6349	6349	6349	6349	6349	8550	8343	8343	8146	8146	8146	8146	8146	8146	8146	8146	8146	8146	8146	7959	7959	7959	7959	7779	7608	7608	7287	7287	7137	7137	6992	7137	7137	7137	7137	6992	6992	6992	6992	6853	6853	6853	6720	6720	6720	6720	0	0	0	0	0	0	0	0	0	0	0	0	0	0	0	0	4350	4406	4406	4406	4406	4350	4350	4296	4243	4192	4192	0	0	0	0	0	0	0	0	2845	2799	2799	2799	2799	2799	2799	2822	2822	2822	2845	2845	2845	0	0	0	0	0	0	0	0	0	0	0	0	0	0	0	0	0	0	0	0	0	0	0	0	0	0	2297	2297	2312	2312	2297	2312	2312	2312	2312	2312	2312	2312	2297	2297	2297	2297	2297	2297	2281	2266	2266	2252	2252	2252	0	0	0	0	0	0	0	0	0	0	0	0	0	0	0	0	0	0	0	0	0	0	0	0	0	0	0	0	0	0	0	0	0	1603	1596	1596	1596	1589	1589	1589	1581	1574	1567	1567	1567	1567	1567	1560	1567	1560	1560	1567	1560	1560	0	0	0	0	0	0	0	0	0	0	0	0	0	0	0	0	0	0	0	0	0	0	0	0	0	0	0	0	0	0	0	0	0	0	0	0	0	0	0	0	0
0	0	0	0	0	0	0	0	0	0	0	1287	1287	1287	1282	1282	1277	1277	0	0	0	0	0	0	0	0	0	0	0	0	0	0	0	0	0	0	0	0	0	0	0	0	0	0	0	0	0	0	0	0	0	0	0	0	0	0	0	0	0	0	0	0	0	0	0	2015	2027	2027	2027	2027	2027	2015	2015	2015	2015	2015	0	0	0	0	0	0	0	0	0	0	0	0	0	0	0	0	0	0	0	0	0	0	0	0	0	0	0	0	0	0	0	0	0	0	0	0	0	0	0	0	0	0	0	0	0	0	0	0	0	0	0	0	0	0	0	0	0	0	0	0	0	0	0	0	0	0	0	0	0	0	0	0	0	0	0	0	0	0	0	0	0	2690	2711	2711	2711	2711	2711	2690	2711	2690	2690	2690	2669	2690	2669	2669	2690	2690	2690	2690	2690	2711	2711	2733	2777	2777	2777	2777	2799	2799	2799	2777	2799	2799	2822	2799	2822	2799	2799	2799	2799	2799	2777	2777	2777	2777	2777	2777	2777	2777	2799	2799	2822	2845	2869	2869	2893	2893	0	0	0	0	0	0	0	0	0	0	0	0	0	0	0	4093	3998	4142	4142	4192	4350	4350	4406	4406	4521	4521	4581	4581	0	0	0	0	0	0	0	0	0	0	0	0	0	0	0	0	0	0	0	0	0	0	0	0	0	0	0	0	0	0	0	0	0	0	0	0	0	0	0	0	0	0	0	0	0	0	0	0	0	0	0	0	5448	5448	5448	5364	5282	5202	5125	5050	5050	5050	5050	4977	4977	4977	4906	4838	3546	3546	3546	3546	3546	3546	3546	3546	3546	3510	3510	3510	3510	3510	3510	3510	3510	3510	3546	3546	3546	3546	0	0	0	0	0	0	3621	3583	3546	3546	3510	3510	3510	3510	3475	3475	3475	3475	3475	3440	3440	3440	3440	3475	3475	3475	3475	3475	3475	3475	3510	3510	6235	6235	6124	6124	6124	6124	6124	6124	6124	6124	6124	6124	6124	6235	6235	6235	6349	6468	6468	6468	6468	6468	6468	6349	6349	6349	6235	6235	6235	6235	6235	6235	6235	6349	6235	6235	6349	6349	6349	6349	6349	6349	8550	8343	8343	8146	8146	8146	8146	8146	8146	8146	8146	8146	8146	8146	7959	8146	7959	7959	7779	7608	7608	7444	7287	7287	7137	6992	7137	7137	7137	7137	7137	7137	6992	6992	6853	6853	6853	6720	6720	6720	6720	0	0	0	0	0	0	0	0	0	0	0	0	0	0	0	0	4350	4406	4406	4406	4350	4350	4350	4296	4192	4142	4142	0	0	0	0	0	0	0	0	2845	2822	2799	2799	2799	2799	2799	2799	2799	2822	2822	2845	2845	0	0	0	0	0	0	0	0	0	0	0	0	0	0	0	0	0	0	0	0	0	0	0	0	0	0	2297	2297	2312	2312	2312	2312	2312	2312	2312	2312	2312	2312	2297	2297	2297	2297	2297	2297	2281	2281	2297	2266	2266	2266	0	0	0	0	0	0	0	0	0	0	0	0	0	0	0	0	0	0	0	0	0	0	0	0	0	0	0	0	0	0	0	0	0	1603	1603	1596	1596	1589	1589	1581	1581	1574	1567	1567	1567	1567	1567	1560	1560	1560	1560	1567	1567	1560	0	0	0	0	0	0	0	0	0	0	0	0	0	0	0	0	0	0	0	0	0	0	0	0	0	0	0	0	0	0	0	0	0	0	0	0	0	0	0	0	0
0	0	0	0	0	0	0	0	0	0	0	1282	1287	1287	1287	1282	1282	1282	0	0	0	0	0	0	0	0	0	0	0	0	0	0	0	0	0	0	0	0	0	0	0	0	0	0	0	0	0	0	0	0	0	0	0	0	0	0	0	0	0	0	0	0	0	0	2027	2027	2027	2027	2027	2027	2027	2015	2015	2003	2015	2003	2015	2003	2003	0	0	0	0	0	0	0	0	0	0	0	0	0	0	0	0	0	0	0	0	0	0	0	0	0	0	0	0	0	0	0	0	0	0	0	0	0	0	0	0	0	0	0	0	0	0	0	0	0	0	0	0	0	0	0	0	0	0	0	0	0	0	0	0	0	0	0	0	0	0	0	0	0	0	0	0	0	0	2690	2711	2690	2711	2711	2711	2711	2711	2690	2690	2690	2690	2690	2669	2669	2690	2690	2669	2690	2690	2690	2711	2754	2754	2777	2777	2777	2799	2799	2799	2777	2799	2799	2822	2799	2822	2799	2799	2799	2799	2799	2777	2777	2777	2777	2777	2777	2777	2799	2799	2822	2822	2845	2845	2869	2869	2893	2893	2893	0	0	0	0	0	0	0	0	0	0	0	0	0	3998	3998	3998	4192	4192	4243	4406	4406	4463	4581	4581	4581	4581	0	0	0	0	0	0	0	0	0	0	0	0	0	0	0	0	0	0	0	0	0	0	0	0	0	0	0	0	0	0	0	0	0	0	0	0	0	0	0	0	0	0	0	0	0	0	0	0	0	0	0	5448	5364	5448	5364	5282	5202	5125	5050	5050	5050	5050	5050	4977	4977	4977	4906	4838	3546	3546	3546	3546	3546	3546	3546	3546	3546	3510	3510	3510	3510	3510	3510	3510	3510	3510	3546	3546	3546	3546	0	0	0	0	0	0	3621	3583	3583	3546	3510	3510	3510	3475	3475	3475	3475	3475	3475	3440	3440	3440	3440	3475	3475	3475	3475	3475	3440	3440	3475	3475	0	6235	6124	6124	6124	6124	6124	6124	6124	6124	6124	6124	6124	6235	6235	6349	6349	6468	6468	6468	6468	6349	6349	6349	6349	6349	6235	6235	6235	6349	6235	6235	6235	6235	6235	6235	6235	6349	6349	6349	6349	6468	8767	8550	8146	8146	8146	8146	8146	8146	8146	8146	8146	8146	8146	8146	8146	7959	7959	7959	7779	7608	7608	7444	7287	7287	7137	6992	6992	7137	7137	7137	7137	7137	6992	6992	6853	6853	6853	6720	6720	6720	6720	0	0	0	0	0	0	0	0	0	0	0	0	0	0	0	0	4406	4406	4406	4406	4350	4296	4296	4243	4192	4093	4045	4045	0	0	0	0	0	0	0	0	2845	2822	2799	2799	2799	2799	2799	2799	2822	2822	0	0	0	0	0	0	0	0	0	0	0	0	0	0	0	0	0	0	0	0	0	0	0	0	0	0	0	0	0	2297	2312	2312	2312	2312	2312	2312	2312	2312	2312	2297	2297	2297	2297	2297	2297	2281	2281	2281	2281	2266	2281	2281	2281	0	0	0	0	0	0	0	0	0	0	0	0	0	0	0	0	0	0	0	0	0	0	0	0	0	0	0	0	0	0	0	0	1603	1603	1596	1596	1589	1581	1581	1581	1574	1567	1567	1567	1567	1567	1560	1560	1560	1560	1560	1560	1560	0	0	0	0	0	0	0	0	0	0	0	0	0	0	0	0	0	0	0	0	0	0	0	0	0	0	0	0	0	0	0	0	0	0	0	0	0	0	0	0	0
0	0	0	0	0	0	0	0	0	0	0	1277	1282	1287	1282	1282	1282	1282	0	0	0	0	0	0	0	0	0	0	0	0	0	0	0	0	0	0	0	0	0	0	0	0	0	0	0	0	0	0	0	0	0	0	0	0	0	0	0	0	0	0	0	0	0	2003	2015	2015	2027	2027	2027	2027	2015	2015	2015	2003	2003	2003	2015	2015	2003	0	0	0	0	0	0	0	0	0	0	0	0	0	0	0	0	0	0	0	0	0	0	0	0	0	0	0	0	0	0	0	0	0	0	0	0	0	0	0	0	0	0	0	0	0	0	0	0	0	0	0	0	0	0	0	0	0	0	0	0	0	0	0	0	0	0	0	0	0	0	0	0	0	0	0	0	0	0	2690	2690	2690	2711	2711	2711	2711	2711	2711	2711	2690	2690	2690	2690	2690	2690	2690	2690	2690	2690	2711	2733	2754	2777	2777	2777	2777	2777	2799	2799	2777	2799	2799	2822	2822	2822	2799	2799	2799	2799	2799	2777	2777	2777	2777	2799	2799	2777	2799	2799	2822	2822	2845	2845	2869	2869	2893	2917	2967	2993	2993	0	0	0	0	0	0	0	0	0	0	3998	3998	3998	3998	3998	4192	4296	4406	4463	4521	4521	4521	4521	4521	0	0	0	0	0	0	0	0	0	0	0	0	0	0	0	0	0	0	0	0	0	0	0	0	0	0	0	0	0	0	0	0	0	0	0	0	0	0	0	0	0	0	0	0	0	0	0	0	0	0	5364	5364	5364	5364	5282	5282	5202	5125	5050	5050	5050	5050	5050	4977	4977	4977	4838	3546	3546	3546	3546	3546	3546	3546	3546	3546	3546	3546	3546	3510	3510	3510	3510	3510	3510	3546	3546	3546	3546	3546	0	0	0	0	0	0	3583	3583	3546	3546	3510	3510	3510	3475	3475	3475	3475	3475	3475	3475	3440	3475	3475	3475	3475	3475	3475	3475	3475	3440	3475	3475	6235	6124	6124	6124	6124	6018	6018	6018	6124	6124	6124	6124	6235	6235	6235	6349	6349	6349	6468	6468	6349	6349	6349	6349	6349	6235	6235	6235	6235	6235	6235	6235	6124	6124	6235	6235	6349	6349	6349	6349	6349	6349	8767	8550	8343	8146	8146	8146	8146	8146	8146	8146	8146	8146	8146	8146	8146	7959	7959	7959	7779	7608	7608	7444	7287	7287	7287	7137	7287	7287	7137	7137	7137	7137	6992	6992	6853	6853	6720	6720	6720	6720	0	0	0	0	0	0	0	0	0	0	0	0	0	0	0	0	0	4406	4406	4406	4350	4350	4296	4243	4192	4142	4093	4045	4045	0	0	0	0	0	0	0	0	2845	2822	2822	2799	2799	2799	2799	2799	0	0	0	0	0	0	0	0	0	0	0	0	0	0	0	0	0	0	0	0	0	0	0	0	0	0	0	0	0	0	0	2297	2312	2312	2312	2312	2312	2312	2312	2312	2312	2297	2297	2281	2281	2281	2281	2281	2266	2266	2281	2266	2266	2281	2281	0	0	0	0	0	0	0	0	0	0	0	0	0	0	0	0	0	0	0	3186	3186	3157	3157	0	0	0	0	0	0	0	0	0	1603	1596	1596	1596	1589	1589	1581	1581	1574	1567	1567	1560	1560	1560	1560	1560	1560	1560	1560	1560	1560	1560	0	0	0	0	0	0	0	0	0	0	0	0	0	0	0	0	0	0	0	0	0	0	0	0	0	0	0	0	0	0	0	0	0	0	0	0	0	0	0	0
0	0	0	0	0	0	0	0	0	0	0	1282	1282	1282	1282	1287	1287	0	0	0	0	0	0	0	0	0	0	0	0	0	0	0	0	0	0	0	0	0	0	0	0	0	0	0	0	0	0	0	0	0	0	0	0	0	0	0	0	0	0	0	0	0	0	1992	2003	2015	2015	2027	2027	2027	2015	2015	2015	2015	2015	2003	2003	1992	1992	0	0	0	0	0	0	0	0	0	0	0	0	0	0	0	0	0	0	0	0	0	0	0	0	0	0	0	0	0	0	0	0	0	0	0	0	0	0	0	0	0	0	0	0	0	0	0	0	0	0	0	0	0	0	0	0	0	0	0	0	0	0	0	0	0	0	0	0	0	0	0	0	0	0	0	0	0	2690	2690	2690	2690	2711	2711	2711	2711	2711	2690	2690	2690	2690	2690	2690	2690	2690	2690	2690	2690	2711	2733	2733	2754	2777	2777	2777	2754	2777	2777	2777	2777	2799	2799	2822	2822	2822	2822	2799	2799	2799	2799	2777	2777	2777	2777	2777	2777	2777	2799	2799	2822	2822	2845	2845	2869	2893	2917	2917	2967	2967	3019	3019	0	0	0	0	0	0	0	3952	3952	3998	3998	3998	4045	4142	4192	4243	4350	4406	4463	4521	4521	4521	4521	0	0	0	0	0	0	0	0	0	0	0	0	0	0	0	0	0	0	0	0	0	0	0	0	0	0	0	0	0	0	0	0	0	0	0	0	0	0	0	0	0	0	0	0	0	0	0	0	5282	5364	5282	5364	5364	5364	5282	5282	5202	5125	5050	5050	5050	5050	5050	4977	4977	4977	3583	3546	3546	3546	3546	3546	3546	3546	3546	3583	3583	3546	3546	3546	3546	3510	3510	3510	3510	3546	3546	3546	3583	3583	0	0	0	0	0	0	3583	3583	3546	3546	3510	3510	3510	3475	3475	3475	3475	3475	3475	3475	3475	3475	3475	3475	3475	3475	3475	3475	3440	3440	3440	3475	6124	6124	6124	6124	6124	6018	6018	6018	6018	6124	6124	6124	6235	6235	6235	6349	6349	6349	6349	6349	6349	6349	6349	6349	6349	6349	6235	6235	6235	6235	6235	6235	6124	6124	6124	6124	6349	6349	6349	6349	6349	6349	8767	8550	8343	8146	8146	8146	8146	8146	8146	8146	7959	8146	8146	8146	8146	7959	7959	7959	7959	7608	7608	7444	7444	7287	7287	7287	7287	7287	7287	7137	7137	7137	7137	7137	6992	6853	6853	6720	6720	6720	0	0	0	0	0	0	0	0	0	0	0	0	0	0	0	0	0	0	4521	4406	4406	4350	4243	4243	4192	4142	4093	4045	3998	3998	0	0	0	0	0	0	0	0	2822	2822	2799	2777	2777	2799	0	0	0	0	0	0	0	0	0	0	0	0	0	0	0	0	0	0	0	0	0	0	0	0	0	0	0	0	0	0	0	0	0	0	0	0	0	2312	2312	0	0	0	2297	2297	2252	2266	2266	2281	2266	2266	2266	2281	2266	2252	2252	0	0	0	0	0	0	0	0	0	0	0	0	0	0	0	0	0	3246	3246	3246	3246	3186	3186	3157	3157	0	0	0	0	0	0	0	0	1596	1596	1596	1589	1589	1589	1581	1581	1574	1567	1560	1560	1560	1560	1553	1560	1553	1560	1560	1567	1567	1567	1567	1567	0	0	0	0	0	0	0	0	0	0	0	0	0	0	0	0	0	0	0	0	0	0	0	0	0	0	0	0	0	0	0	0	0	0	0	0	0	0
0	0	0	0	0	0	0	0	0	0	0	1277	1282	1282	1282	1287	1287	0	0	0	0	0	0	0	0	0	0	0	0	0	0	0	0	0	0	0	0	0	0	0	0	0	0	0	0	0	0	0	0	0	0	0	0	0	0	0	0	0	0	0	0	0	2003	1992	2003	2015	2015	2015	2027	2027	2015	2015	2015	2015	2015	2003	2003	1992	1992	0	0	0	0	0	0	0	0	0	0	0	0	0	0	0	0	0	0	0	0	0	0	0	0	0	0	0	0	0	0	0	0	0	0	0	0	0	0	0	0	0	0	0	0	0	0	0	0	0	0	0	0	0	0	0	0	0	0	0	0	0	0	0	0	0	0	0	0	0	0	0	0	0	0	0	0	0	2690	2690	2690	2690	2711	2690	2711	2711	2711	2690	2711	2711	2690	2690	2690	2669	2669	2669	2669	2690	2711	2711	2733	2754	2777	2777	2754	2754	2754	2777	2777	2777	2777	2777	2799	2822	2822	2799	2799	2777	2799	2799	2777	2777	2777	2777	2777	2777	2777	2799	2799	2822	2822	2822	2845	2869	2893	2893	2917	2942	2993	2993	3019	3019	3019	3046	0	0	0	3952	3952	3998	3998	3998	3998	4045	4142	4192	4243	4350	4406	4463	4521	4521	4521	4581	4581	0	0	0	0	0	0	0	0	0	0	0	0	0	0	0	0	0	0	0	0	0	0	0	0	0	0	0	0	0	0	0	0	0	0	0	0	0	0	0	0	0	0	0	0	0	0	0	5282	5364	5282	5364	5364	5282	5282	5282	5282	5125	5050	5050	5050	5050	5050	4977	5050	3583	3583	3546	3546	3546	3546	3546	3546	3546	3546	3583	3583	3546	3546	3546	3546	3546	3510	3510	3510	3546	3546	3546	3546	3546	0	0	0	0	0	0	3583	3583	3583	3546	3546	3510	3510	3475	3475	3475	3475	3475	3475	3475	3475	3475	3475	3475	3475	3475	3475	3440	3440	3406	3406	0	6124	6018	6018	6018	6124	6018	6018	6018	6018	6124	6124	6124	6124	6235	6235	6235	6235	6349	6349	6349	6349	6349	6349	6349	6349	6349	6235	6235	6235	6235	6235	6235	6124	6235	6124	6235	6349	6349	6349	6349	6349	6349	8550	8343	8343	8146	8146	8146	8146	8146	8146	8146	7959	8146	8146	8146	8146	7959	7959	7959	7444	7608	7444	7444	7444	7444	7287	7287	7444	7287	7287	7137	7287	7287	7137	7137	7137	6853	6853	6720	6720	6720	0	0	0	0	0	0	0	0	0	0	0	0	0	0	0	0	0	0	4521	4406	4350	4350	4243	4192	4192	4142	4093	4045	3998	3998	0	0	0	0	0	0	0	0	0	2822	2799	2777	2777	0	0	0	0	0	0	0	0	0	0	0	0	0	0	0	0	0	0	0	0	0	0	0	0	0	0	0	0	0	0	0	0	0	0	0	0	0	0	0	0	0	0	0	0	0	2252	2266	2266	2281	2252	2237	2237	2237	2252	2252	2252	0	0	0	0	0	0	0	0	0	0	0	0	0	0	0	0	0	3277	3246	3246	3246	3186	3186	3186	3186	0	0	0	0	0	0	0	0	1596	1596	1589	1589	1589	1581	1581	1574	1574	1567	1560	1560	1560	1553	1553	1553	1560	1560	1560	1567	1567	1567	1574	1574	0	0	0	0	0	0	0	0	0	0	0	0	0	0	0	0	0	0	0	0	0	0	0	0	0	0	0	0	0	0	0	0	0	0	0	0	0	0
0	0	0	0	0	0	0	0	0	0	0	1282	1282	1282	1287	1287	1291	1291	0	0	0	0	0	0	0	0	0	0	0	0	0	0	0	0	0	0	0	0	0	0	0	0	0	0	0	0	0	0	0	0	0	0	0	0	0	0	0	0	0	0	0	0	2003	1992	2003	2015	2015	2027	2027	2027	2027	2015	2015	2015	2015	2003	2003	0	0	0	0	0	0	0	0	0	0	0	0	0	0	0	0	0	0	0	0	0	0	0	0	0	0	0	0	0	0	0	0	0	0	0	0	0	0	0	0	0	0	0	0	0	0	0	0	0	0	0	0	0	0	0	0	0	0	0	0	0	0	0	0	0	0	0	0	0	0	0	0	0	0	0	0	0	0	2690	2690	2690	2711	2711	2711	2711	2711	2711	2711	2711	2711	2690	2690	2690	2690	2669	2669	2669	2669	2690	2690	2711	2733	2733	2754	2754	2754	2754	2777	2777	2799	2777	2777	2777	2777	2799	2822	2799	2799	2799	2799	2799	2799	2777	2777	2777	2777	2777	2777	2799	2822	2822	2822	2822	2845	2869	2893	2893	2917	2942	2942	2967	2993	3019	3019	3019	3019	0	0	3952	3952	3952	3998	3998	3998	4045	4093	4142	4192	4350	4406	4463	4521	4581	4581	4521	4521	0	0	0	0	0	0	0	0	0	0	0	0	0	0	0	6468	6468	6468	0	0	0	0	0	0	0	0	0	0	0	0	0	0	0	0	0	0	0	0	0	0	0	0	0	0	0	0	0	0	5364	5364	5364	5364	5282	5282	5282	5282	5125	5050	5050	5050	5050	5050	4977	4977	3583	3583	3546	3546	3546	3546	3546	3546	3546	3546	3583	3583	3583	3546	3546	3546	3546	3510	3510	3546	3546	3546	3546	3546	3546	0	0	0	0	0	0	3583	3583	3583	3546	3546	3510	3510	3475	3475	3475	3475	3475	3475	3475	3475	3475	3475	3475	3475	3475	3475	3440	3440	3440	3440	0	6124	6018	6124	6018	6124	6018	6018	6018	6018	6018	6124	6124	6124	6124	6235	6235	6235	6235	6235	6235	6235	6235	6349	6349	6349	6349	6235	6235	6235	6349	6349	6349	6235	6235	6235	6235	6349	6349	6349	6349	6468	6468	8550	8343	8343	8146	8146	8146	8146	8146	8146	8146	8146	8146	8146	8146	8146	7959	7959	7959	7444	7444	7444	7444	7444	7444	7287	7287	7287	7287	7287	7287	7287	7444	7287	7287	7444	7444	0	0	0	0	0	0	0	0	0	0	0	0	0	0	0	0	0	0	0	0	0	0	0	4406	4350	4350	4243	4192	4142	4093	4045	3998	3998	3952	3952	0	0	0	0	0	0	0	0	0	0	0	0	0	0	0	0	0	0	0	0	0	0	0	0	0	0	0	0	0	0	0	0	0	0	0	0	0	0	0	0	0	0	0	0	0	0	0	0	0	0	0	0	0	0	0	0	0	0	0	0	0	2252	2237	3157	3186	3186	3186	0	0	0	0	0	0	0	0	0	0	0	0	0	0	0	0	0	0	3277	3246	3216	3216	3216	3216	3186	3186	3186	0	0	0	0	0	0	0	1596	1596	1589	1589	1589	1589	1589	1574	1567	1567	1560	1560	1560	1560	1560	1560	1560	1560	1567	1567	1567	1567	1581	1581	0	0	0	0	0	0	0	0	0	0	0	0	0	0	0	0	0	0	0	0	0	0	0	0	0	0	0	0	0	0	0	0	0	0	0	0	0	0
0	0	0	0	0	0	0	0	0	0	0	1282	1282	1282	1282	1287	1287	1291	0	0	0	0	0	0	0	0	0	0	0	0	0	0	0	0	0	0	0	0	0	0	0	0	0	0	0	0	0	0	0	0	0	0	0	0	0	0	0	0	0	0	0	0	0	0	0	2015	2015	2027	2027	2027	2027	2027	2015	2015	2015	2003	2003	0	0	0	0	0	0	0	0	0	0	0	0	0	0	0	0	0	0	0	0	0	0	0	0	0	0	0	0	0	0	0	0	0	0	0	0	0	0	0	0	0	0	0	0	0	0	0	0	0	0	0	0	0	0	0	0	0	0	0	0	0	0	0	0	0	0	0	0	0	0	0	0	0	0	0	0	0	2711	2690	2711	2711	2711	2711	2711	2711	2711	2690	2690	2669	2690	2690	2690	2690	2690	2669	2690	2669	2669	2690	2690	2711	2711	2733	2754	2754	2754	2754	2754	2754	2777	2777	2754	2754	2777	2777	2799	2799	2777	2799	2799	2799	2799	2777	2777	2777	2777	2777	2777	2799	2799	2822	2822	2822	2822	2822	2893	2893	2917	2942	2967	2967	2993	2993	3019	3019	3019	3019	3907	3907	3952	3952	3998	3998	3998	4045	4093	4142	4192	4296	4406	4463	4521	4521	4521	4521	4521	0	0	0	0	0	0	0	0	0	0	0	0	0	6468	6468	6592	6468	6468	6468	6468	0	0	0	0	0	0	0	0	0	0	0	0	0	0	0	0	0	0	0	0	0	0	0	0	0	0	0	0	5364	5364	5364	5364	5364	5282	5282	5202	5050	5050	5050	5050	4977	5050	5050	5050	3583	3583	3583	3546	3546	3546	3546	3546	3546	3546	3583	3546	3546	3546	3546	3546	3546	3546	3546	3546	3546	3583	3546	3546	3546	0	0	0	0	0	0	0	3583	3583	3546	3546	3510	3510	3510	3475	3475	3475	3475	3475	3475	3475	3475	3475	3475	3475	3475	3475	3440	3440	3406	3406	3406	6235	6124	6018	6018	6018	6018	6018	6018	6018	6018	6018	6018	6124	6124	6235	6235	6235	6235	6235	6235	6235	6235	6235	6235	6235	6235	6235	6235	6235	6235	6349	6349	6124	6235	6235	6235	6349	6349	6349	6349	6468	6468	8550	8343	8343	8146	8146	8146	8146	8146	8146	8146	8146	8146	8146	8146	8146	7959	7959	7959	7444	7444	7444	7287	7287	7137	7137	7137	7287	7287	7444	7444	7444	7608	7444	7444	7444	7444	0	0	0	0	0	0	0	0	0	0	0	0	0	0	0	0	0	0	0	0	0	0	0	4406	4350	4350	4192	4142	3998	4045	4045	3998	3998	3998	3952	3952	0	0	0	0	0	0	0	0	0	0	0	0	0	0	0	0	0	0	0	0	0	0	0	0	0	0	0	0	0	0	0	0	0	0	0	0	0	0	0	3186	3186	3157	3157	3157	3129	3129	0	0	0	0	0	0	0	0	0	0	0	0	0	3216	3186	3186	3157	3186	3246	3246	3246	3246	0	0	0	0	0	0	0	0	0	0	0	0	0	0	0	0	3246	3216	3216	3216	3216	3216	3186	3186	3186	3186	0	0	0	0	0	0	1596	1596	1596	1589	1589	1581	1581	1574	1567	1567	1560	1560	1560	1560	1560	1553	1560	1560	1560	1567	1567	1567	1581	1581	0	0	0	0	0	0	0	0	0	0	0	0	0	0	0	0	0	0	0	0	0	0	0	0	0	0	0	0	0	0	0	0	0	0	0	0	0	0
0	0	0	0	0	0	0	0	0	0	0	1282	1282	1282	1287	1287	1287	0	0	0	0	0	0	0	0	0	0	0	0	0	0	0	0	0	0	0	0	0	0	0	0	0	0	0	0	0	0	0	0	0	0	0	0	0	0	0	0	0	0	0	0	0	0	0	0	2015	2015	2015	2027	2027	2027	2015	2015	2015	2015	2003	2003	0	0	0	0	0	0	0	0	0	0	0	0	0	0	0	0	0	0	0	0	0	0	0	0	0	0	0	0	0	0	0	0	0	0	0	0	0	0	0	0	0	0	0	0	0	0	0	0	0	0	0	0	0	0	0	0	0	0	0	0	0	0	0	0	0	0	0	0	0	0	0	0	0	0	0	0	2711	2711	2711	2711	2711	2711	2711	2711	2711	2711	2711	2669	2669	2690	2690	2690	2690	2690	2669	2690	2669	2669	2690	2690	2711	2711	2733	2733	2754	2754	2754	2754	2754	2754	2754	2754	2754	2754	2777	2777	2799	2777	2799	2799	2822	2799	2777	2777	2777	2777	2777	2777	2777	2777	2799	2799	2799	2822	2822	2869	2893	2917	2942	2967	2967	2993	2993	3019	3046	3046	3046	3907	3907	3907	3952	3952	3998	3998	4045	4093	4142	4192	4296	4350	4463	4463	4463	4463	4521	4521	0	0	0	0	0	0	0	0	0	0	0	0	0	6468	6592	6592	6468	6468	6468	6349	6349	6124	6124	6018	6018	0	0	0	0	0	0	0	0	0	0	0	0	0	0	0	0	0	0	0	0	0	0	5364	5364	5364	5364	5364	5364	5282	5282	5202	5125	5050	5050	5050	4977	5050	5050	5050	3583	3546	3546	3546	3546	3546	3546	3546	3546	3546	3583	3546	3546	3546	3546	3546	3546	3546	3546	3546	3546	3583	3546	3583	3583	0	0	0	0	0	0	0	0	3583	3546	3546	3546	3510	3510	3510	3475	3475	3475	3475	3475	3475	3475	3475	3475	3440	3440	3440	3440	3440	3406	3406	3406	6235	6124	6018	6018	6018	6018	6018	6018	6018	6018	6018	6124	6124	6124	6235	6235	6235	6235	6235	6235	6235	6235	6235	6235	6235	6235	6235	6235	6235	6235	6349	6349	6235	6235	6235	6235	6349	6349	6349	6349	6468	6468	8767	8550	8550	8343	8146	8146	8146	8146	8146	8146	8146	8146	8146	8146	8146	7959	7779	7608	7287	7287	7287	7287	7287	7287	7287	7287	7287	7444	7444	7608	7779	7779	7608	7608	7608	7608	0	0	0	0	0	0	0	0	0	0	0	0	0	0	0	0	0	0	0	0	0	0	0	0	4350	4350	4192	3952	3952	4045	4045	3998	3998	3998	3998	3998	0	0	0	0	0	0	0	0	0	0	0	0	0	0	0	0	0	0	0	0	0	0	0	0	0	0	0	0	0	0	0	0	0	0	0	0	0	0	0	3186	3186	3157	3157	3157	3157	3129	0	0	0	0	0	0	0	0	0	0	0	0	0	3246	3216	3186	3186	3186	3216	3216	3186	3186	0	0	0	0	0	0	0	0	0	0	0	0	0	0	0	0	3246	3216	3186	3216	3216	3216	3216	3216	3216	3186	0	0	0	0	0	1603	1596	1596	1596	1596	1589	1581	1581	1574	1567	1567	1560	1560	1560	1560	1560	1553	1553	1560	1560	1560	1560	1567	1574	1574	0	0	0	0	0	0	0	0	0	0	0	0	0	0	0	0	0	0	0	0	0	0	0	0	0	0	0	0	0	0	0	0	0	0	0	0	0	0
0	0	0	0	0	0	0	0	0	0	0	1287	1282	1287	1287	1291	1296	1296	0	0	0	0	0	0	0	0	0	0	0	0	0	0	0	0	0	0	0	0	0	0	0	0	0	0	0	0	0	0	0	0	0	0	0	0	0	0	0	0	0	0	0	0	0	0	0	2015	2003	2015	2027	2015	2015	2015	2015	2003	2003	2003	1980	1980	0	0	0	0	0	0	0	0	0	0	0	0	0	0	0	0	0	0	0	0	0	0	0	0	0	0	0	0	0	0	0	0	0	0	0	0	0	0	0	0	0	0	0	0	0	0	0	0	0	0	0	0	0	0	0	0	0	0	0	0	0	0	0	0	0	0	0	0	0	0	0	0	0	0	0	2733	2733	2711	2711	2711	2733	2711	2711	2711	2711	2711	2690	2711	2711	2711	2711	2690	2690	2690	2690	2669	2669	2669	2690	2690	2711	2711	2711	2733	2733	2733	2754	2754	2754	2777	2754	2754	2754	2777	2799	2799	2777	2799	2822	2822	2799	2777	2777	2777	2777	2799	2777	2777	2799	2822	2822	2822	2822	2822	2869	2893	2917	2942	2967	2967	2993	2993	3019	3046	3019	3019	3019	3907	3907	3907	3907	3952	3998	3998	4093	4142	4192	4296	4350	4406	4463	4463	4463	4521	4521	0	0	0	0	0	0	0	0	0	0	0	0	6592	6468	6468	6468	6468	6349	6235	6235	6235	6124	6124	6018	6018	0	0	0	0	0	0	0	0	0	0	0	0	0	0	0	0	0	0	5448	5448	0	5364	5364	5364	5364	5364	5364	5364	5282	5282	5282	5125	5050	5050	5050	4977	5050	5050	5050	3583	3583	3583	3583	3546	3546	3546	3546	3546	3510	3583	3546	3583	3546	3583	3583	3583	3546	3583	3583	3583	3583	3546	3583	3583	0	0	0	0	0	0	0	0	3621	3583	3546	3546	3510	3510	3510	3510	3510	3475	3475	3475	3475	3475	3475	3475	3475	3475	3440	3440	3440	3406	3406	3406	6235	6124	6124	6018	6018	6018	6018	6018	6018	6018	6018	6018	6124	6124	6124	6124	6235	6235	6235	6235	6235	6235	6235	6235	6235	6235	6235	6235	6235	6235	6349	6349	6235	6235	6235	6235	6349	6349	6349	6349	6468	6349	8767	8550	8550	8343	8146	8146	8146	8146	8146	8146	8146	8146	8146	7959	7959	7959	7608	7608	7444	7287	7287	7287	7287	7287	7287	7444	7444	7608	7779	7779	7959	7959	7779	7779	7779	7779	7779	0	0	0	0	0	6853	6853	0	0	0	0	0	0	0	0	0	0	0	0	0	0	0	0	0	0	4192	3998	3998	3998	4045	4045	3998	3998	3998	3998	0	0	0	0	0	0	0	0	0	0	0	0	0	0	0	0	0	0	0	0	0	0	0	0	0	0	0	0	0	0	0	0	0	0	0	0	0	0	0	3186	3186	3157	3157	3157	3157	0	0	0	0	0	0	0	0	0	0	0	0	0	0	3246	3246	3216	3157	3216	3216	3216	3157	3157	0	0	0	0	0	0	0	0	0	0	0	0	0	0	0	0	0	3186	3186	3216	3246	3246	3216	3216	3216	0	0	0	0	0	1611	1603	1603	1596	1596	1596	1589	1581	1589	1567	1567	1567	1560	1560	1560	1560	1560	1553	1553	1560	1560	1560	1560	1567	1574	1574	0	0	0	0	0	0	0	0	0	0	0	0	0	0	0	0	0	0	0	0	0	0	0	0	0	0	0	0	0	0	0	0	0	0	0	0	0	0
0	0	0	0	0	0	0	0	0	0	0	1287	1287	1287	1291	1296	1301	1301	0	0	0	0	0	0	0	0	0	0	0	0	0	0	0	0	0	0	0	0	0	0	0	0	0	0	0	0	0	0	0	0	0	0	0	0	0	0	0	0	0	0	0	0	0	0	0	2015	1980	1992	2015	2015	2015	2027	2015	2015	2003	2003	2003	1980	0	0	0	0	0	0	0	0	0	0	0	0	0	0	0	0	0	0	0	0	0	0	0	0	0	0	0	0	0	0	0	0	0	0	0	0	0	0	0	0	0	0	0	0	0	0	0	0	0	0	0	0	0	0	0	0	0	0	0	0	0	0	0	0	0	0	0	0	0	0	0	0	0	0	0	2711	2733	2711	2711	2711	2711	2711	2711	2690	2711	2711	2711	2711	2690	2690	2690	2690	2690	2669	2690	2669	2669	2690	2690	2690	2711	2711	2711	2733	2733	2733	2733	2754	2754	2754	2754	2754	2754	2777	2777	2777	2777	2777	2777	2822	2822	2799	2777	2777	2777	2777	2777	2777	2799	2799	2799	2799	2799	2822	2893	2893	2893	2917	2942	2967	2993	2993	3019	3046	3046	3046	3019	3907	3907	3907	3907	3907	3952	4045	4093	4142	4192	4296	4350	4406	4463	4521	4463	4521	4521	0	0	0	0	0	0	0	0	0	0	0	6468	6468	6468	6468	6468	6349	6235	6235	6124	6124	6124	6124	6018	6018	6018	0	0	0	0	0	0	0	0	0	0	0	0	0	0	0	5364	5364	5364	5364	5364	5364	5364	5364	5364	5364	5364	5364	5364	5282	5282	5202	5050	5050	5050	4977	4977	4977	5050	3546	3546	3546	3583	3546	3546	3546	3546	3546	3510	3546	3546	3546	3546	3583	3583	3583	3583	3583	3583	3583	3583	3583	3583	3546	3546	0	0	0	0	0	0	0	3583	3546	3546	3546	3546	3510	3510	3510	3510	3475	3475	3475	3475	3475	3475	3475	3475	3440	3440	3440	3440	3440	3406	3440	3440	6124	6124	6018	6018	6018	6018	6018	6018	5915	5915	6018	6018	6018	6124	6124	6235	6235	6235	6235	6235	6235	6235	6235	6235	6235	6235	6349	6235	6235	6235	6349	6349	6235	6235	6235	6468	6349	6349	6349	6349	6349	8767	8550	8550	8146	8146	8146	8146	8146	8146	8146	8146	8146	7959	7959	7959	7959	7608	7444	7444	7287	7287	7287	7444	7444	7444	7608	7779	7779	7779	7959	7959	7959	7779	7779	7608	7608	7444	7137	7137	7137	6853	6853	6992	6992	6992	0	0	0	0	0	0	0	0	0	0	0	0	0	0	0	0	0	0	3998	3998	3998	4045	4045	3998	3998	3998	0	0	0	0	0	0	0	0	0	0	0	0	0	0	0	0	0	0	0	0	0	0	0	0	0	0	0	0	0	0	0	0	0	0	0	0	0	0	0	0	0	3186	3157	3157	3157	3157	0	0	0	0	0	0	0	0	0	0	0	0	0	0	3157	3157	3157	3157	3157	3157	3186	3186	3186	0	0	0	0	0	0	0	0	0	0	0	0	0	0	0	0	0	3186	3157	3216	3216	3216	3216	3216	3186	3186	0	0	0	0	1611	1603	1603	1603	1596	1596	1589	1574	1567	1567	1567	1560	1560	1560	1560	1560	1560	1553	1553	1560	1560	1560	1560	1567	1581	1581	0	0	0	0	0	0	0	0	0	0	0	0	0	0	0	0	0	0	0	0	0	0	0	0	0	0	0	0	0	0	0	0	0	0	0	0	0	0
0	0	0	0	0	0	0	0	0	0	0	1291	1287	1291	1296	1296	1296	1296	1306	0	0	0	0	0	0	0	0	0	0	0	0	0	0	0	0	0	0	0	0	0	0	0	0	0	0	0	0	0	0	0	0	0	0	0	0	0	0	0	0	0	0	0	0	0	0	0	1980	1992	2015	2015	2027	2027	2015	2015	2015	2003	2003	0	0	0	0	0	0	0	0	0	0	0	0	0	0	0	0	0	0	0	0	0	0	0	0	0	0	0	0	0	0	0	0	0	0	0	0	0	0	0	0	0	0	0	0	0	0	0	0	0	0	0	0	0	0	0	0	0	0	0	0	0	0	0	0	0	0	0	0	0	0	0	0	0	0	0	2733	2711	2733	2711	2711	2711	2711	2711	2711	2690	2669	2690	2690	2711	2690	2690	2690	2690	2690	2669	2669	2669	2669	2669	2690	2690	2690	2690	2711	2733	2733	2733	2733	2733	2754	2777	2754	2754	2754	2754	2777	2799	2799	2799	2822	2822	2822	2799	2799	2799	2799	2799	2777	2799	2799	2822	2822	2822	2822	2822	2869	2893	2893	2917	2942	2942	2967	2993	3019	3046	3046	3046	3046	3907	3907	3907	3907	3907	3952	3998	4093	4142	4192	4296	4350	4463	4521	4521	4521	4521	4521	4521	4521	0	0	0	0	0	0	0	0	0	6468	6468	6349	6349	6349	6349	6124	6124	6124	6124	6124	6124	6018	6018	6018	0	0	0	0	0	0	0	0	0	0	0	5364	5364	5448	5448	5364	5364	5364	5364	5364	5364	5364	5364	5364	5364	5364	5364	5364	5282	5282	5202	5050	5050	5050	4977	4977	5050	5050	3546	3546	3546	3546	3546	3546	3546	3546	3546	3510	3546	3546	3546	3583	3583	3583	3583	3583	3583	3583	3583	3583	3583	3583	3583	3546	3546	0	0	0	0	0	0	3583	3546	3546	3546	3510	3510	3510	3510	3510	3475	3475	3475	3475	3475	3475	3475	3440	3475	3475	3440	3440	3440	3440	3440	3440	0	6124	6018	6018	6018	6018	6018	6018	6018	6018	6018	6124	6124	6124	6124	6235	6235	6235	6235	6235	6235	6235	6235	6235	6235	6235	6349	6235	6235	6235	6235	6349	6235	6349	6349	6468	6349	6349	6349	6468	6349	8767	8550	8550	8146	8146	8146	8146	8146	8146	8146	8146	8146	7959	7959	7959	7779	7444	7444	7287	7287	7287	7287	7287	7287	7444	7608	7779	7779	7959	7959	8146	8146	7779	7779	7608	7608	7287	7137	6992	6992	6992	6853	6992	6853	6853	0	0	0	0	0	0	0	0	0	0	0	0	0	0	0	0	0	0	0	0	0	0	0	0	0	0	0	0	0	0	0	0	0	0	0	0	0	0	0	0	0	0	0	0	0	0	0	0	0	0	0	0	0	0	0	0	0	0	0	0	0	0	0	0	0	0	0	3157	3157	3157	3186	3186	0	0	0	0	0	0	0	0	0	0	0	0	0	0	3157	3157	3157	3157	3157	3157	3157	3157	3186	0	0	0	0	0	0	0	0	0	0	0	0	0	0	0	0	0	3157	3157	3186	3216	3186	3186	3186	3186	3186	0	0	0	0	0	1611	1596	1603	1596	1596	1589	1574	1567	1567	1567	1567	1567	1560	1560	1560	1560	1553	1553	1560	1560	1560	1567	1581	1589	1589	0	0	0	0	0	0	0	0	0	0	0	0	0	0	0	0	0	0	0	0	0	0	0	0	0	0	0	0	0	0	0	0	0	0	0	0	0	0
0	0	0	0	0	0	0	0	0	0	0	1287	1287	1287	1291	1296	1301	1301	1306	0	0	0	0	0	0	0	0	0	0	0	0	0	0	0	0	0	0	0	0	0	0	0	0	0	0	0	0	0	0	0	0	0	0	0	0	0	0	0	0	0	0	0	0	0	0	0	0	0	2027	2027	2027	2027	2015	2015	2015	2015	2003	0	0	0	0	0	0	0	0	0	0	0	0	0	0	0	0	0	0	0	0	0	0	0	0	0	0	0	0	0	0	0	0	0	0	0	0	0	0	0	0	0	0	0	0	0	0	0	0	0	0	0	0	0	0	0	0	0	0	0	0	0	0	0	0	0	0	0	0	0	0	0	0	0	0	0	2733	2733	2733	2733	2733	2711	2733	2711	2711	2690	2669	2690	2690	2690	2690	2690	2690	2690	2669	2669	2669	2669	2669	2669	2690	2690	2690	2690	2711	2733	2733	2733	2733	2733	2733	2754	2733	2754	2754	2754	2777	2799	2777	2777	2822	2822	2822	2799	2799	2799	2799	2799	2777	2799	2799	2822	2822	2822	2822	2822	2869	2893	2893	2917	2942	2942	2967	2993	2993	3046	3046	3046	3907	3907	3952	3907	3952	3907	3952	3998	4045	4093	4192	4296	4350	4406	4463	4463	4463	4463	4521	4521	4521	0	0	0	0	0	0	0	0	0	6468	6349	6124	6124	6124	6235	6124	6018	6018	6018	6018	6018	5915	5915	0	0	0	0	0	0	0	0	0	0	0	5364	5364	5364	5364	5364	5364	5364	5364	5364	5364	5364	5364	5364	5364	5364	5364	5364	5364	5282	5202	5202	5050	5050	5050	4977	4977	5050	5050	3546	3546	3546	3546	3546	3546	3546	3546	3546	3510	3546	3546	3546	3583	3583	3583	3583	3583	3583	3583	3583	3583	3583	3583	3583	3583	3583	0	0	0	0	0	0	3510	3546	3546	3546	3510	3510	3510	3510	3510	3475	3475	3475	3475	3475	3475	3440	3440	3475	3475	3440	3440	3440	3440	3440	3440	0	6235	6124	6018	6018	6018	6018	6018	5915	5915	6018	6124	6124	6124	6124	6235	6235	6235	6235	6235	6235	6235	6235	6235	6235	6235	6349	6235	6235	6235	6235	6235	6235	6349	6349	6349	6349	6349	6349	6349	6349	6349	8767	8146	8146	8146	8146	8146	8146	8146	8146	7959	7959	7959	7959	7959	7608	7444	7444	7287	7444	7287	7287	7444	7287	7444	7779	7779	7959	7959	7959	7959	8146	7959	7959	7608	7608	7287	7137	6992	6992	6853	6853	6853	6853	6853	6853	0	0	0	0	0	0	0	0	0	0	0	0	0	0	0	0	0	0	0	0	0	0	0	0	0	0	0	0	0	0	0	0	0	0	0	0	0	0	0	0	0	0	0	0	0	0	0	0	0	0	0	0	0	0	0	0	0	0	0	0	0	0	0	0	0	0	3157	3157	3157	3186	3186	0	0	0	0	0	0	0	0	0	0	0	0	0	0	3157	3157	3157	3157	3157	3157	3157	3157	0	0	0	0	0	0	0	0	0	0	0	0	0	0	0	0	0	0	3157	3157	3157	3186	3186	3216	3216	3216	3186	0	0	0	0	0	1611	1611	1603	1603	1596	1589	1574	1567	1567	1567	1567	1560	1560	1560	1560	1560	1553	1553	1553	1560	1560	1574	1581	1589	1589	0	0	0	0	0	0	0	0	0	0	0	0	0	0	0	0	0	0	0	0	0	0	0	0	0	0	0	0	0	0	0	0	0	0	0	0	0	0
0	0	0	0	0	0	0	0	0	0	0	1287	1287	1291	1291	1296	1296	1301	0	0	0	0	0	0	0	0	0	0	0	0	0	0	0	0	0	0	0	0	0	0	0	0	0	0	0	0	0	0	0	0	0	0	0	0	0	0	0	0	0	0	0	0	0	0	0	0	0	0	2039	2027	2027	2027	2027	2027	2027	2027	0	0	0	0	0	0	0	0	0	0	0	0	0	0	0	0	0	0	0	0	0	0	0	0	0	0	0	0	0	0	0	0	0	0	0	0	0	0	0	0	0	0	0	0	0	0	0	0	0	0	0	0	0	0	0	0	0	0	0	0	0	0	0	0	0	0	0	0	0	0	0	0	0	0	0	2754	2733	2733	2733	2733	2733	2711	2711	2711	2711	2690	2669	2690	2690	2690	2690	2690	2690	2690	2669	2669	2669	2669	2669	2669	2669	2690	2690	2690	2690	2690	2733	2733	2733	2733	2733	2777	2777	2754	2754	2754	2777	2777	2777	2777	2822	2822	2799	2799	2799	2799	2799	2799	2799	2799	2799	2799	2822	2799	2799	2822	2845	2869	2869	2893	2917	2942	2967	2967	2993	3019	3019	3019	3907	3907	3907	3907	3907	3907	3952	3998	4045	4142	4192	4296	4296	4350	4406	4463	4463	4521	4521	4521	0	0	0	0	0	0	0	0	0	0	0	6124	6124	6124	6018	6124	6018	6018	6018	6018	6018	6018	6018	5915	0	0	0	0	0	0	0	0	0	0	0	5448	5448	5364	5364	5364	5364	5364	5364	5364	5364	5364	5364	5364	5364	5364	5364	5364	5282	5282	5202	5125	5050	5050	5050	4977	5050	5050	5050	5050	3546	3546	3546	3546	3546	3546	3546	3546	3510	3546	3546	3546	3583	3583	3583	3583	3583	3583	3583	3583	3583	3583	3583	3583	3583	3583	0	0	0	0	0	0	3546	3546	3546	3546	3510	3510	3510	3510	3510	3475	3475	3475	3475	3475	3475	3440	3475	3475	3475	3440	3440	3440	3440	3341	3341	3341	6235	6018	6018	5915	6018	6018	6018	5915	5915	6018	6018	6018	6124	6124	6235	6235	6235	6235	6235	6235	6235	6235	6235	6235	6349	6349	6349	6349	6349	6349	6349	6235	6235	6235	6235	6349	6349	6349	6349	6349	6349	8146	8146	8146	8146	8146	8146	8146	8146	8146	7959	7959	7959	7779	7959	7444	7444	7287	7287	6992	7287	7287	7287	7287	7444	7779	7779	7959	7959	7959	7959	7959	7959	7779	7608	7608	7444	7287	7137	6992	6853	6853	6853	6853	6720	6853	6853	6992	6992	0	0	0	0	0	0	0	0	0	0	0	0	0	0	0	0	0	0	0	4192	4192	0	0	0	0	0	0	0	0	0	0	0	0	0	0	0	0	0	0	0	0	0	0	0	0	0	0	0	0	0	0	0	0	0	0	0	0	0	0	0	0	0	0	3157	3157	3186	3186	3216	3216	0	0	0	0	0	0	0	2845	2845	2845	0	0	0	3157	3157	3157	3157	3157	3157	3157	3157	0	0	0	0	0	0	0	0	0	0	0	0	0	0	0	0	0	0	3157	3157	3186	3186	3216	3186	3186	3216	0	0	0	0	0	0	1611	1611	0	1596	1596	1589	1574	1567	1567	1567	1567	1560	1560	1560	1560	1560	1560	1553	1553	1560	1567	1574	1589	1589	1589	0	0	0	0	0	0	0	0	0	0	0	0	0	0	0	0	0	0	0	0	0	0	0	0	0	0	0	0	0	0	0	0	0	0	0	0	0	0
0	0	0	0	0	0	0	0	0	0	0	1287	1287	1291	1291	1296	1296	0	0	0	0	0	0	0	0	0	0	0	0	0	0	0	0	0	0	0	0	0	0	0	0	0	0	0	0	0	0	0	0	0	0	0	0	0	0	0	0	0	0	0	0	0	0	0	0	0	0	0	2063	2051	2027	2027	2027	2015	2027	2027	0	0	0	0	0	0	0	0	0	0	0	0	0	0	0	0	0	0	0	0	0	0	0	0	0	0	0	0	0	0	0	0	0	0	0	0	0	0	0	0	0	0	0	0	0	0	0	0	0	0	0	0	0	0	0	0	0	0	0	0	0	0	0	0	0	0	0	0	0	0	0	0	0	0	0	2733	2711	2711	2711	2711	2711	2711	2711	2690	2690	2690	2690	2690	2690	2690	2690	2669	2690	2690	2669	2669	2669	2669	2669	2669	2669	2690	2690	2690	2690	2754	2754	2754	2754	2799	2799	2777	2777	2754	2754	2754	2777	2777	2777	2777	2822	2822	2799	2799	2799	2799	2799	2799	2799	2799	2822	2822	2822	2822	2799	2822	2845	2845	2869	2893	2917	2942	2942	2967	2967	2967	2967	2967	3907	3907	3907	3907	3907	3907	3907	3998	3998	4142	4192	4296	4350	4406	4463	4463	4463	4521	4521	0	0	0	0	0	0	0	0	0	0	0	0	6124	6018	6018	6018	6018	6018	6018	5915	6018	6018	5915	5915	0	0	0	0	0	0	0	0	0	0	0	0	5448	5535	5448	5448	5448	5364	5364	5364	5364	0	5364	5364	5364	5364	5364	5364	5364	5364	5282	5202	5125	5050	5050	5050	4977	5050	5050	5050	4977	3546	3546	3546	3546	3546	3546	3546	3546	3546	3583	3583	3583	3583	3583	3583	3583	3583	3583	3583	3583	3583	3583	3583	3583	3583	3583	0	0	0	0	0	3546	3546	3546	3546	3546	3510	3510	3510	3510	3510	3510	3475	3475	3475	3475	3475	3440	3440	3475	3475	3440	3440	3440	3440	3341	3341	3341	0	6018	5915	5915	5915	6018	6018	5915	5915	6018	6124	6124	6124	6124	6235	6235	6235	6235	6235	6235	6235	6235	6235	6235	6235	6349	6235	6235	6349	6349	6349	6349	6235	6235	6349	6349	6349	6349	6349	6349	6349	8146	8146	8146	8146	8146	8146	8146	8146	8146	7779	7779	7779	7608	7444	7287	7287	7287	7137	6992	7287	7287	7444	7444	7608	7779	7779	7959	7959	7959	7959	7959	7959	7779	7608	7444	7287	7287	7137	6992	6853	6853	6720	6720	6853	6853	6853	6853	6853	0	0	0	0	0	0	0	0	0	0	0	0	0	0	0	4243	4243	4243	4243	4243	4192	4192	4192	0	0	0	0	0	0	0	0	0	0	0	0	0	0	0	0	0	0	0	0	0	0	0	0	0	0	0	0	0	0	0	0	0	0	0	0	0	0	0	0	3186	3157	3186	3186	3186	3186	0	0	0	0	0	2845	2822	2845	2845	2845	2845	0	0	3157	3157	3157	3157	3157	3157	3157	3157	3157	0	0	0	0	0	0	0	0	0	0	0	0	0	0	0	0	0	3157	3157	3186	3186	3216	3186	3186	0	0	0	0	0	0	0	0	0	0	1596	1574	1574	1567	1567	1567	1567	1567	1560	1553	1560	1560	1560	1553	1553	1560	1560	1567	1567	1581	1589	1589	0	0	0	0	0	0	0	0	0	0	0	0	0	0	0	0	0	0	0	0	0	0	0	0	0	0	0	0	0	0	0	0	0	0	0	0	0	0
0	0	0	0	0	0	0	0	0	0	0	1287	1291	1291	1291	1296	1301	1301	0	0	0	0	0	0	0	0	0	0	0	0	0	0	0	0	0	0	0	0	0	0	0	0	0	0	0	0	0	0	0	0	0	0	0	0	0	0	0	0	0	0	0	0	0	0	0	0	0	0	2051	2051	2003	2015	2015	2015	2027	2015	2015	0	0	0	0	0	0	0	0	0	0	0	0	0	0	0	0	0	0	0	0	0	0	0	0	0	0	0	0	0	0	0	0	0	0	0	0	0	0	0	0	0	0	0	0	0	0	0	0	0	0	0	2127	2127	0	0	0	0	0	0	0	0	0	0	0	0	0	0	0	0	0	0	0	0	0	2733	2711	2711	2711	2711	2711	2711	2711	2690	2690	2690	2690	2690	2690	2690	2690	2669	2669	2669	2669	2669	2669	2669	2669	2669	2669	2690	2690	2690	2690	2754	2754	2754	2777	2799	2799	2754	2754	2733	2777	2777	2777	2777	2777	2777	2822	2799	2777	2799	2777	2799	2799	2799	2799	2799	2799	2822	2822	2822	2822	2845	2845	2845	2869	2893	2917	2942	2942	2967	2967	2967	2967	2967	3952	3952	3907	3907	3952	3907	3952	4045	4093	4192	4243	4296	4350	4406	4463	4463	4463	4521	4521	0	0	0	0	0	0	0	0	0	0	0	0	6018	6018	5915	5915	5915	5915	5915	5915	5915	5915	5915	5915	0	0	0	0	0	0	0	0	0	0	0	0	0	5448	5448	5448	5448	0	0	0	0	0	0	5364	5364	5364	5364	5364	5364	5364	5282	5202	5125	5050	5050	5050	4977	5050	5050	4977	4977	4977	3510	3546	3510	3510	3546	3546	3546	3546	3583	3583	3583	3583	3583	3583	3583	3583	3583	3583	3583	3583	3583	3583	3621	3621	3621	0	0	0	0	0	3510	3546	3510	3510	3510	3510	3510	3510	3510	3510	3510	3475	3475	3475	3475	3475	3440	3475	3475	3475	3475	3475	3475	3475	3341	3341	3341	0	6018	5915	5915	5915	6018	6018	5915	5915	6018	6124	6124	6124	6124	6235	6235	6235	6235	6235	6235	6235	6235	6235	6235	6235	6349	6349	6349	6349	6349	6349	6235	6235	6235	6349	6349	6349	6349	6349	6349	6349	8146	8146	8146	8146	8146	8146	8146	8146	8146	7779	7779	7779	7444	7287	7137	6992	6992	6992	6992	6992	7444	7608	7608	7779	7959	7959	7959	7959	7959	7959	7959	7959	7959	7608	7444	7444	7287	7137	6992	6992	6853	6853	6853	6853	6853	6853	6853	6853	0	0	0	0	0	0	0	0	0	0	0	0	0	0	4296	4296	4296	4296	4296	4296	4296	4296	4296	0	0	0	0	0	0	0	0	0	4350	4350	0	0	0	0	0	0	0	0	0	0	0	0	0	0	0	0	0	0	0	0	0	0	0	0	0	0	0	0	0	3186	3157	3186	3186	3157	3157	0	0	0	0	0	2845	2845	2845	2845	2845	2845	0	0	3157	3157	3186	3157	3157	3157	3157	3157	3157	0	0	0	0	0	0	0	0	0	0	0	0	0	0	0	0	0	3157	3157	3186	3186	3186	3216	3216	0	0	0	0	0	0	0	0	0	0	0	1589	1574	1567	1567	1567	1567	1567	1560	1553	1560	1560	1560	1553	1553	1553	1560	1560	1567	1581	1581	1589	0	0	0	0	0	0	0	0	0	0	0	0	0	0	0	0	0	0	0	0	0	0	0	0	0	0	0	0	0	0	0	0	0	0	0	0	0	0
0	0	0	0	0	0	0	0	0	0	0	1287	1291	1291	1291	1296	1296	1301	0	0	0	0	0	0	0	0	0	0	0	0	0	0	0	0	0	0	0	0	0	0	0	0	0	0	0	0	0	0	0	0	0	0	0	0	0	0	0	0	0	0	0	0	0	0	0	0	0	0	2051	2051	2039	2027	2015	2015	2027	2027	2015	0	0	0	0	0	0	0	0	0	0	0	0	0	0	0	0	0	0	0	0	0	0	0	0	0	0	0	0	0	0	0	0	0	0	0	0	0	0	0	0	0	0	0	2027	2027	2027	2027	2027	0	0	0	2114	2114	0	0	0	0	0	0	0	0	0	0	0	0	0	0	0	0	0	0	0	0	2754	2733	2711	2711	2711	2711	2711	2690	2690	2690	2690	2690	2669	2669	2669	2669	2669	2669	2669	2669	2669	2669	2669	2669	2669	2669	2669	2690	2690	2733	2733	2754	2754	2754	2754	2799	2799	2754	2754	2754	2777	2777	2777	2777	2777	2777	2799	2799	2777	2777	2777	2799	2799	2799	2799	2799	2799	2822	2822	2822	2822	2845	2869	2845	2869	2893	2893	2917	2917	2917	2917	2917	2917	4045	3952	3952	3952	3952	3952	3952	3998	4045	4093	4192	4243	4296	4350	4406	4463	4463	4463	4463	4463	0	0	0	0	0	0	0	0	0	0	6124	6124	6124	6018	5815	5815	5915	5915	5915	5915	5915	5915	0	0	0	0	0	0	0	0	0	0	0	0	0	0	0	5448	5448	5448	0	0	0	0	0	0	0	5364	5364	5364	5364	5364	5364	5364	5282	5125	5125	5050	5050	5050	4977	4977	5050	4977	4977	4977	3510	3510	3510	3510	3546	3510	3546	3546	3583	3583	3583	3583	3583	3583	3583	3583	3583	3583	3583	3583	3583	3583	3621	3621	3621	0	0	0	0	3510	3510	3510	3510	3510	3510	3510	3510	3510	3510	3510	3510	3475	3475	3475	3475	3475	3440	3475	3475	3475	3475	3475	3475	3475	3475	3475	3475	0	6018	5915	5915	6018	6124	6124	6124	6018	6124	6124	6124	6235	6235	6235	6235	6235	6235	6235	6235	6235	6235	6235	6235	6235	6349	6349	6349	6349	6349	6349	6235	6235	6235	6349	6349	6349	6349	6349	6349	6349	8146	8146	8146	8146	8146	8146	8146	7959	8146	7959	7608	7608	7287	7287	7137	7137	7137	7137	7137	7287	7444	7608	7779	7959	7959	7959	7959	7959	7959	8146	7959	7959	7959	7779	7608	7444	7444	7287	7137	6992	6853	6853	6853	6853	6853	6853	6853	6853	0	0	0	0	0	0	0	0	0	0	0	0	0	4296	4296	4296	4296	4296	4350	4296	4296	4296	4296	0	0	3998	3998	4045	4093	4093	0	4350	4350	4350	4350	0	0	0	0	0	0	0	0	0	0	0	0	0	0	0	0	0	0	0	0	0	0	0	0	0	0	0	3216	3186	3157	3186	3157	3157	3157	0	0	0	0	0	2845	2845	2845	2845	2845	2845	0	0	3157	3157	3186	3186	3157	3157	3157	3157	0	0	0	0	0	0	0	0	0	0	0	0	0	0	0	0	0	0	3129	3129	3157	3186	3216	3216	3216	0	0	0	0	0	0	0	0	0	0	0	1589	1567	1567	1567	1567	1567	1567	1560	1553	1553	1560	1560	1553	1553	1553	1553	1560	1567	1567	1574	0	0	0	0	0	0	0	0	0	0	0	0	0	0	0	0	0	0	0	0	0	0	0	0	0	0	0	0	0	0	0	0	0	0	0	0	0	0	0
0	0	0	0	0	0	0	0	0	0	0	1282	1287	1291	1291	1291	1291	0	0	0	0	0	0	0	0	0	0	0	0	0	0	0	0	0	0	0	0	0	0	0	0	0	0	0	0	0	0	0	0	0	0	0	0	0	0	0	0	0	0	0	2015	2003	2003	0	0	2076	2063	2063	2051	2039	2027	2015	2015	2015	2015	2015	0	0	0	0	0	0	0	0	0	0	0	0	0	0	0	0	0	0	0	0	0	0	0	0	0	0	0	0	0	0	0	0	0	0	0	0	0	0	0	0	0	0	0	2039	2039	2039	2039	2039	2039	0	0	2101	2101	2101	0	0	0	0	0	0	0	0	0	0	0	0	0	0	0	0	0	0	0	2711	2733	2733	2711	2711	2711	2711	2711	2690	2690	2690	2690	2690	2669	2669	2669	2669	2669	2669	2669	2669	2669	2669	2669	2669	2669	2669	2669	2690	2690	2711	2822	2799	2777	2754	2799	2799	2777	2754	2754	2754	2777	2754	2754	2754	2777	2777	2777	2777	2777	2777	2777	2777	2777	2777	2777	2799	2799	2822	2822	2822	2822	2845	2869	2869	2893	2893	2893	2917	2917	2917	2917	2917	2917	3907	3952	3952	3952	3952	3998	3952	3998	4045	4142	4192	4243	4350	4406	4406	4463	4463	4463	4463	4463	0	0	0	0	0	0	0	0	0	6124	6124	6124	6124	6018	6018	5815	5915	5915	5915	5915	5915	5915	0	0	0	0	0	0	0	0	0	0	0	0	0	0	0	0	0	0	0	0	0	0	0	0	0	5364	5364	5364	5364	5448	5364	5364	5282	5125	5125	5050	5050	5050	4977	4977	4977	4977	4977	4977	3510	3510	3510	3510	3510	3546	3546	3546	3583	3583	3546	3583	3583	3583	3583	3546	3583	3583	3583	3583	3583	3583	3583	3583	3583	0	0	0	0	3510	3510	3546	3546	3546	3546	3510	3510	3510	3510	3510	3510	3475	3475	3475	3475	3475	3440	3475	3475	3475	3475	3475	3475	3475	3475	3475	3475	0	5915	5915	5915	6018	6124	6124	6124	6018	6124	6235	6235	6235	6235	6235	6235	6235	6235	6235	6235	6235	6235	6235	6235	6235	6235	6349	6349	6349	6349	6349	6235	6235	6235	6349	6349	6349	6349	6349	6349	7959	7959	7959	7959	8146	8146	8146	7959	7959	7959	7779	7444	7444	7287	7137	6992	6992	7137	7137	7287	7137	7137	7779	7959	7959	7959	7959	7959	7959	7959	7959	7959	7959	7959	7959	7779	7608	7444	7444	7287	7137	6992	6853	6853	6853	6853	6853	6853	0	0	0	0	0	0	0	0	0	0	0	0	0	4350	4350	4350	4350	4296	4350	4350	4350	4350	4296	4243	4192	4142	3998	3998	4045	4093	4093	4243	4243	4296	4296	4296	4296	4296	0	0	0	0	0	0	0	0	0	0	0	0	0	0	0	0	0	0	0	0	0	0	0	0	0	3216	3186	3186	3186	3157	3157	3129	3129	0	0	0	0	2845	2845	2845	2822	2845	2845	0	0	3186	3157	3186	3157	3157	3157	3157	3157	0	0	0	0	0	0	0	0	0	0	0	0	0	0	0	0	0	3216	3157	3157	3186	3186	3186	3277	3277	0	0	0	0	0	0	0	0	0	0	0	0	1567	1567	1567	1567	1567	1560	1560	1560	1560	1560	1560	1560	1553	1553	1553	1560	1560	1567	1567	0	0	0	0	0	0	0	0	0	0	0	0	0	0	0	0	0	0	0	0	0	0	0	0	0	0	0	0	0	0	0	0	0	0	0	0	0	0	0
0	0	0	0	0	0	0	0	0	0	0	1282	1287	1291	1291	1291	1291	0	0	0	0	0	0	0	0	0	0	0	0	0	0	0	0	0	0	0	0	0	0	0	0	0	0	0	0	0	0	0	0	0	0	0	0	0	0	0	0	0	2015	2015	2015	2003	2003	2015	2027	2039	2015	2027	2027	2027	2015	2003	2003	2003	2015	2015	0	0	0	0	0	0	0	0	0	0	0	0	0	0	0	0	0	0	0	0	0	0	0	0	0	0	0	0	0	0	0	0	0	0	0	0	0	0	0	2015	2027	2039	2039	2027	2027	2027	2027	2027	2039	2039	0	2088	2088	2088	0	0	0	0	0	0	0	0	0	0	0	0	0	0	0	0	0	0	2733	2733	2733	2711	2711	2711	2711	2711	2711	2690	2690	2690	2690	2669	2690	2669	2669	2669	2669	2669	2669	2669	2669	2669	2669	2669	2669	2669	2669	2690	2690	2733	2822	2822	2799	2777	2777	2799	2777	2777	2777	2799	2799	2754	2754	2754	0	0	2777	2777	2754	2754	2754	2777	2777	2777	2777	2799	2799	2822	2822	2822	2822	2845	2869	2869	2893	2917	2917	2917	2917	2942	2942	2942	2942	3907	3907	3952	3952	3952	3952	3952	3998	4045	4142	4243	4243	4350	4406	4406	4463	4521	4463	4463	4463	4463	0	0	0	0	0	0	0	6235	6235	6124	6124	6124	6018	6018	6018	6018	6018	6018	5915	0	0	0	0	0	0	0	0	0	0	0	0	0	0	0	0	0	0	0	0	0	0	0	0	0	0	5364	5364	5364	5364	5364	5364	5364	5364	5282	5202	5125	5050	5050	5050	5050	4977	4977	4977	4977	4977	4977	3510	3510	3510	3546	3546	3546	3546	3546	3583	3583	3546	3583	3583	3546	3546	3583	3583	3583	3583	3583	3583	3583	3583	3583	0	0	0	0	0	3546	3546	3546	3546	3510	3510	3510	3510	3510	3510	3510	3475	3475	3475	3475	3475	3475	3475	3475	3475	3475	3475	3475	3475	3475	3475	3475	3475	5915	5915	6124	6124	6124	6124	6124	6124	6124	6235	6235	6235	6235	6235	6235	6235	6235	6235	6235	6235	6235	6235	6235	6235	6349	6349	6349	6349	6349	6235	6235	6235	6235	6349	6349	6349	6349	6349	6349	7959	7959	7959	7959	8146	8146	7959	7959	7959	7779	7608	7444	7444	7287	7137	6992	7137	7287	7287	7287	7444	7608	7779	7779	7959	7959	7959	7959	7959	7959	7959	7959	7959	7959	7959	7779	7779	7608	7444	7287	7137	6992	6853	6853	6853	6853	6853	6853	6853	0	0	0	0	0	0	0	0	0	0	0	4350	4350	4350	4350	4350	4296	4296	4350	4350	4350	4296	4243	4243	4142	3998	3952	4045	4045	4045	4192	4350	4296	4296	4296	4296	4296	4296	0	0	0	0	0	0	0	0	0	0	0	0	0	0	0	0	0	0	0	0	0	0	0	3216	3216	3186	3157	3157	3157	3157	3157	3157	0	0	0	0	2845	2845	2845	2822	2845	2845	0	3186	3186	3186	3186	3157	3157	3157	3157	3157	0	0	0	0	0	0	0	0	0	0	0	0	0	0	0	0	0	3186	3157	3157	3186	3186	3186	3186	3277	0	0	0	0	0	0	0	0	0	0	1581	1581	1574	1567	1567	1560	1560	1560	1560	1560	1560	1560	1560	1560	1553	1553	1553	1560	1560	1567	1567	1567	0	0	0	0	0	0	0	0	0	0	0	0	0	0	0	0	0	0	0	0	0	0	0	0	0	0	0	0	0	0	0	0	0	0	0	0	0	0
0	0	0	0	0	0	0	0	0	0	0	1282	1287	1291	1291	1291	1291	0	0	0	0	0	0	0	0	0	0	0	0	0	0	0	0	0	0	0	0	0	0	0	0	0	0	0	0	0	0	0	0	0	0	0	0	0	0	0	0	2003	2003	2015	2015	1992	1992	2015	2015	2027	2015	2027	2039	2039	2027	2027	2003	1980	1980	0	0	0	0	0	0	0	0	0	0	0	0	0	0	0	0	0	0	0	0	0	0	0	0	0	0	0	0	0	0	0	2063	2063	0	0	0	0	0	0	2027	2015	2027	2027	2039	2027	2027	2015	2027	2027	2027	2027	2027	2088	2088	2088	0	0	0	0	0	0	0	0	0	0	0	0	0	0	0	0	2754	2733	2733	2711	2711	2733	2711	2711	2690	2711	2711	2711	2690	2690	2690	2690	2690	2669	2669	2690	2669	2669	2669	2669	2669	2669	2669	2669	2669	2669	2669	2711	2711	2754	2822	2822	2799	2777	2777	2777	2777	2777	2777	2799	2799	0	0	0	0	0	0	2777	2754	2754	2754	2754	2777	2754	2777	2799	2799	2822	2822	2822	2822	2869	2869	2869	2917	2942	2917	2942	2917	2942	2942	2942	2942	3952	3952	3952	3952	3952	3952	3952	4045	4093	4142	4192	4243	4350	4463	4463	4463	4521	4521	4521	4463	4463	0	0	0	0	0	0	0	6235	6235	6235	6124	6124	6124	6124	6124	6124	6018	6468	6468	0	0	0	0	0	0	0	0	0	0	0	0	0	0	0	0	0	0	0	0	0	0	0	0	0	0	5282	5364	5364	5364	5364	5364	5364	5282	5282	5125	5125	5050	5050	4977	4977	4977	4977	4977	4977	4977	4977	3546	3546	3510	3510	3546	3546	3546	3583	3583	3546	3546	3583	3583	3583	3546	3583	3583	3583	3583	3583	3583	3583	3583	3583	0	0	0	0	3546	3583	3583	3546	3546	3546	3510	3510	3510	3510	3510	3510	3475	3475	3475	3475	3475	3475	3475	3475	3475	3475	3475	3475	3475	3475	3475	3475	3475	0	5915	5915	6018	6124	6235	6235	6124	6124	6235	6235	6235	6235	6235	6235	6349	6235	6235	6235	6235	6235	6235	6235	6349	6349	6349	6349	6349	6349	6235	6235	6235	6235	6349	6349	6349	6349	6349	6349	7959	7959	8146	7959	7959	7959	7959	7959	7779	7779	7444	7287	7287	7137	6992	6992	7137	7287	7287	7444	7444	7959	7779	7959	7959	7959	7959	7959	7959	7959	7959	7959	7959	7959	8146	7959	7959	7779	7608	7444	7137	6992	6853	6720	6720	6853	6853	6853	6853	0	0	0	0	0	0	0	0	0	0	4406	4406	4350	4350	4350	4350	4350	4350	4350	4350	4350	4296	4243	4243	4142	4045	3998	4045	4093	4093	4243	4350	4296	4296	4296	4296	4243	4243	0	0	0	0	0	0	0	0	0	0	0	0	0	0	0	0	0	0	0	0	0	0	0	3246	3216	3157	3186	3157	3157	3157	3129	3129	0	0	0	0	2845	2845	2845	2822	2822	2845	0	3186	3186	3186	3186	3157	3157	3157	3157	3157	0	0	0	0	0	0	0	0	0	0	0	0	0	0	0	0	0	3186	3157	3157	3186	3186	3186	3186	0	0	0	0	0	0	0	0	0	0	0	1589	1581	1574	1567	1560	1560	1560	1560	1560	1560	1560	1560	1560	1560	1560	1553	1553	1560	1560	1560	1560	1560	0	0	0	0	0	0	0	0	0	0	0	0	0	0	0	0	0	0	0	0	0	0	0	0	0	0	0	0	0	0	0	0	0	0	0	0	0	0
0	0	0	0	0	0	0	0	0	0	0	1282	1287	1291	1291	1291	1291	1291	0	0	0	0	0	0	0	0	0	0	0	0	0	0	0	0	0	0	0	0	0	0	0	0	0	0	0	0	0	0	0	0	0	0	0	0	0	0	0	2003	1992	2015	2015	1992	1992	2003	2015	2015	2027	2015	2027	2027	2027	2015	2015	1980	1980	0	0	0	0	0	0	0	0	0	0	0	0	0	0	0	0	0	0	0	0	0	0	0	0	0	0	0	0	0	0	0	2063	2063	0	0	0	2027	2027	2027	2027	2015	2027	2027	2027	2027	2027	2015	2027	2027	2027	2027	2027	2027	0	0	0	0	0	0	0	0	0	0	0	0	0	0	0	0	0	0	2754	2733	2711	2711	2733	2711	2711	2690	2690	2690	2690	2690	2690	2690	2690	2690	2690	2669	2690	2690	2669	2669	2669	2669	2669	2669	2669	2649	2669	2669	2669	2690	2711	2754	2822	2799	2799	2754	2754	2754	2754	2754	2754	2754	2799	0	0	0	0	0	0	0	2754	2733	2733	2754	2754	2777	2799	2799	2822	2822	2845	2845	2845	2869	2893	2917	2917	2942	2942	2942	2993	3019	3046	3046	0	3952	3952	3952	3952	3952	3952	3952	3998	4093	4142	4192	4243	4350	4463	4463	4463	4521	4521	4521	4521	4521	0	0	0	6124	6124	0	6235	6349	6349	6349	6349	6349	6349	6349	6349	6468	6468	6468	6468	6468	6468	0	0	0	0	0	0	0	0	0	0	0	0	0	0	0	0	0	0	0	0	0	0	0	0	5364	5364	5364	5364	5364	5364	5364	5282	5202	5125	5050	5050	5050	4977	4977	4977	4977	4977	4977	4977	4906	3546	3546	3546	3546	3546	3546	3546	3583	3583	3546	3546	3583	3583	3546	3546	3583	3583	3583	3583	3583	3583	3583	3583	3583	0	0	0	0	3583	3583	3583	3546	3546	3510	3510	3510	3510	3510	3510	3510	3510	3475	3475	3475	3475	3475	3475	3475	3475	3475	3475	3475	3475	3475	3475	0	0	0	0	5915	6124	6235	6235	6235	6124	6124	6124	6235	6235	6235	6349	6349	6468	6349	6349	6235	6349	6235	6349	6349	6349	6349	6349	6349	6235	6349	6235	6235	6235	6235	6349	6349	6349	6349	6468	6349	7959	7959	7959	7959	7959	7959	7959	7779	7608	7444	7287	7287	7287	7287	7137	7287	7444	7608	7779	7959	7959	7959	7959	7959	7959	7959	7959	7959	7959	7959	7959	7959	7959	8146	8146	8146	7959	7959	7779	7287	6992	6853	6853	6853	6720	6853	6720	6720	0	0	0	0	0	0	0	0	0	0	4406	4406	4406	4350	4350	4350	4350	4296	4350	4350	4350	4350	4350	4243	4192	4142	4045	3998	4045	4093	4093	4243	4350	4350	4350	4350	4296	4296	4296	0	0	0	0	0	0	0	0	0	0	0	0	0	0	0	0	0	0	0	0	0	0	3216	3216	3186	3186	3186	3157	3157	3157	3129	3129	0	0	0	2822	2822	2822	2822	2822	2822	2845	0	0	0	3216	3186	3186	3157	3157	3157	3157	3157	0	0	0	0	0	0	0	0	0	0	0	0	0	0	3157	3157	3157	3157	3157	3186	3186	3186	0	0	0	0	0	0	0	0	0	0	1596	1589	1581	1574	1567	1567	1560	1560	1560	1560	1560	1560	1553	1560	1560	1560	1560	1560	1553	1560	1560	1560	1560	1560	0	0	0	0	0	0	0	0	0	0	0	0	0	0	0	0	0	0	0	0	0	0	0	0	0	0	0	0	0	0	0	0	0	0	0	0	0	0
