0	0	0	0	0	0	0	1467	1467	1473	1473	1480	1480	1486	1492	1492	1506	1506	1512	1512	1525	1525	1525	0	0	2181	2181	2181	2181	2181	2181	2181	2181	2181	2181	2181	2167	2167	2167	2181	2194	2194	2194	2208	2208	2208	2194	2194	2181	2167	2167	2167	2167	2181	2194	2194	2194	2194	2194	2194	2194	2181	2194	2194	2223	2223	2223	2223	2208	2208	2208	2208	2208	2208	2208	2208	2208	2208	2208	2208	2208	2194	2194	2194	2194	2194	2194	2194	2194	2194	2208	2208	2194	2208	2208	2208	2208	2208	2208	2208	2208	2208	2208	2589	2570	2551	2551	2551	2551	2570	2570	2570	2570	2570	2589	2589	2570	2570	2570	2551	2551	2551	2551	2551	2551	2570	2570	2570	2570	2570	2570	2570	2570	2570	2532	2532	2532	2917	2917	2917	2917	2917	2893	2893	2893	2893	2869	2869	2893	2869	2893	2917	2917	3659	3621	3621	3621	3621	3621	3621	3621	3621	3621	3621	3621	3621	3621	3621	3621	3621	3621	3621	3659	3659	3659	3621	3659	3659	3698	3738	3779	3779	3821	3821	3821	3821	3821	3821	3821	3821	3821	3779	3779	3779	3779	3779	3779	3779	3779	3779	3779	3779	3779	3779	3779	3779	3821	3779	3779	3779	3821	3821	3779	3779	3821	3821	3779	3779	3738	3738	3738	0	0	0	0	0	0	0	0	3738	3738	3779	3779	3779	3779	3779	3779	3779	3779	3779	3779	3779	3779	3779	3779	3779	3821	3821	3821	3821	3779	3779	3821	3821	3821	3821	3821	3821	3821	3821	3821	3779	3738	3738	3738	3698	3698	3698	3698	0	0	0	0	0	3738	3779	3821	3779	3779	3779	3821	3821	3821	3821	3821	3864	3821	3779	3821	3821	3779	3779	3779	3779	3779	3821	3821	3821	3821	3821	3821	3821	3821	3821	3779	3779	3779	3779	3779	3779	3779	3738	3779	3821	3821	3821	3821	3779	3821	3821	3821	3821	3821	3821	3821	3864	3821	3821	3821	3821	3821	3821	3821	3821	3821	3821	3821	3821	3821	3821	3821	3779	3779	3779	3779	3821	3821	3821	3821	3779	3779	3779	3779	3779	3821	3821	3779	3821	3779	3779	3779	3779	3821	3821	3821	3821	3821	3864	3821	3821	3779	3779	3779	3821	3821	3821	3821	3864	3821	3821	3864	3864	3864	3864	3821	3821	3821	3821	3821	3821	3864	3864	3864	3864	3864	3864	3821	3821	3821	3821	3779	3821	3821	3821	3864	3907	3907	3907	3907	3907	3907	3864	3864	3864	3864	3864	3864	3864	3864	3864	3864	3864	3864	3864	3821	3821	3821	3821	3821	3821	3821	3821	3821	3864	3864	3864	3864	3821	3821	3821	3821	3821	3821	3821	3821	3821	3821	3821	3864	3864	3907	3907	3907	3907	3907	3952	3952	3907	3907	3907	3907	3907	3907	3864	3864	3864	3864	3864	3864	3864	3907	3907	3907	3907	3907	3907	3907	3907	3864	3864	3907	3907	3864	3864	3864	3864	3864	3864	3864	3864	3864	3864	3864	3907	3907	3864	3864	3864	3864	3864	3864	3864	3864	3864	3864	3907	3907	3864	3864	3864	3821	3864	3864	3864	3864	3907	3907	3907	3907	3907	3864	3864	3864	3907	3907	3907	3907	3864	3864	3864	3864	3864	3864	3864	3821	3864	3864	3779	3821	3821	3864	3821	3821	3821	3864	3864	3864	3821	3864	3821	3864	3821	3779	3779	3779	3779	3779	3779	3779	3864	3821	3821	3821	3738	3821	3738	3779	3738	3779	3779	3779	3821	3821	3821	3821	3779	3821	3779	3738	3738	3779	3779	3779	3779	3821	3821	3907	3907	3864	3864	3907	3864	3864	3864	3907	3864	3864	3779	3779	3779	3779	3779	3779	3779	3779	0	0	0	0	0	0	0	0	0	0	0	0	0	0	0	0	0	0	0	0	0	0	0	0	0	0	0	0	0	0	0	0	0	0	0
0	0	0	0	0	0	0	1467	1467	1467	1473	1480	1486	1486	1492	1492	1506	1506	1512	1512	1512	1525	1525	0	0	2194	2194	2194	2194	2194	2194	2194	2194	2194	2194	2194	2194	2194	2194	2194	2208	2194	2208	2208	2208	2208	2208	2194	2194	2181	2167	2167	2181	2181	2194	2194	2194	2194	2194	2194	2194	2194	2208	2194	2223	2223	2237	2237	2208	2223	2223	2223	2208	2208	2208	2208	2208	2208	2208	2223	2208	2208	2208	2208	2208	2208	2208	2208	2208	2208	2223	2208	2208	2208	2208	2223	2223	2208	2208	2223	2208	2208	2208	2208	2551	2551	2532	2551	2532	2551	2551	2570	2570	2570	2589	2570	2570	2570	2551	2551	2551	2551	2551	2551	2551	2570	2570	2570	2570	2570	2570	2570	2570	2551	2532	2532	2532	2917	2917	2917	2917	2917	2893	2893	2893	2893	2893	2893	2917	2893	2917	2917	2917	3659	3659	3659	3621	3621	3621	3621	3621	3621	3621	3621	3621	3621	3621	3621	3621	3621	3621	3621	3659	3659	3659	3659	3659	3698	3698	3779	3779	3779	3821	3821	3821	3821	3821	3821	3821	3821	3821	3779	3779	3779	3779	3779	3779	3779	3779	3779	3779	3779	3779	3779	3779	3779	3821	3779	3779	3779	3779	3779	3738	3738	3738	3738	3738	3738	3738	3738	3738	0	0	0	0	0	0	0	0	3738	3779	3779	3779	3779	3779	3779	3779	3779	3779	3779	3779	3779	3779	3779	3779	3738	3779	3779	3821	3821	3779	3779	3779	3779	3821	3821	3821	3821	3821	3821	3821	3779	3779	3779	3779	3698	3698	0	0	0	0	0	0	0	3738	3779	3779	3779	3779	3779	3821	3821	3821	3821	3821	3821	3821	3821	3821	3821	3779	3779	3779	3779	3779	3821	3821	3821	3821	3821	3821	3821	3821	3821	3779	3779	3779	3779	3779	3779	3779	3779	3779	3821	3821	3821	3821	3821	3821	3821	3821	3821	3821	3821	3821	3864	3821	3821	3821	3821	3821	3821	3821	3821	3821	3821	3821	3821	3821	3821	3821	3821	3779	3779	3779	3779	3821	3821	3821	3779	3779	3779	3779	3821	3821	3821	3821	3821	3779	3779	3779	3779	3779	3821	3821	3821	3821	3864	3821	3821	3779	3779	3779	3821	3821	3821	3821	3864	3821	3821	3864	3864	3864	3864	3864	3864	3864	3864	3821	3821	3864	3821	3821	3864	3864	3821	3821	3821	3821	3821	3821	3821	3821	3821	3864	3907	3907	3907	3907	3907	3907	3864	3864	3864	3864	3864	3864	3864	3864	3907	3864	3864	3864	3864	3821	3821	3821	3821	3821	3821	3821	3821	3821	3821	3864	3864	3864	3821	3864	3821	3821	3821	3821	3821	3821	3821	3864	3864	3864	3864	3907	3907	3952	3907	3907	3952	3952	3907	3907	3907	3907	3907	3907	3864	3864	3864	3864	3864	3864	3864	3864	3907	3907	3907	3907	3907	3907	3907	3864	3864	3907	3907	3864	3864	3864	3864	3864	3864	3864	3864	3864	3864	3864	3907	3864	3864	3864	3864	3864	3864	3864	3864	3864	3864	3864	3864	3864	3864	3864	3821	3821	3864	3864	3864	3864	3907	3907	3907	3907	3907	3907	3864	3864	3907	3907	3907	3907	3864	3864	3864	3864	3864	3864	3864	3864	3864	3864	3821	3821	3821	3821	3821	3821	3821	3864	3864	3864	3864	3821	3821	3821	3821	3821	3779	3779	3821	3821	3821	3779	3821	3821	3821	3779	3738	3738	3738	3779	3738	3738	3738	3779	3779	3779	3779	3779	3779	3821	3779	3738	3779	3779	3779	3779	3779	3821	3821	3907	3907	3864	3864	3864	3864	3864	3864	3907	3864	3864	3907	3821	3779	3779	3779	3779	3779	3779	0	0	0	0	0	0	0	0	0	0	0	0	0	0	0	0	0	0	0	0	0	0	0	0	0	0	0	0	0	0	0	0	0	0	0
0	0	0	0	0	0	0	1461	1461	1467	1473	1480	1480	1486	1486	1492	1492	1506	1512	1519	1519	1525	1525	0	0	2208	2194	2208	2208	2208	2208	2208	2194	2194	2208	2208	2208	2208	2194	2208	2208	2208	2208	2208	2208	2208	2208	2208	2208	2208	2194	2181	2194	2194	2194	2194	2194	2194	2194	2194	2208	2208	2208	2208	2237	2237	2237	2237	2237	2237	2237	2237	2223	2223	2223	2223	2223	2223	2223	2223	2223	2223	2223	2223	2223	2223	2208	2208	2208	2208	2223	2223	2223	2223	2223	2223	2223	2223	2223	2223	2223	2223	2223	2223	2570	2551	2532	2532	2532	2551	2551	2570	2570	2570	2570	2570	2570	2570	2551	2551	2551	2551	2551	2570	2570	2570	2570	2570	2570	2570	2570	2570	2570	2551	2551	2551	2942	2942	2917	2917	2917	2917	2893	2893	2893	2917	2917	2917	2917	2917	2942	2942	2993	2993	3659	3659	3621	3621	3659	3659	3659	3621	3621	3659	3621	3621	3621	3621	3621	3621	3621	3621	3621	3659	3659	3659	3659	3698	3738	3779	3779	3779	3821	3821	3821	3821	3821	3821	3821	3821	3821	3779	3779	3779	3779	3738	3779	3779	3779	3779	3779	3779	3779	3779	3779	3779	3779	3779	3779	3779	3779	3779	3738	3738	3738	3738	3738	3738	3738	3738	3738	0	0	0	0	0	0	0	0	0	3779	3779	3779	3779	3779	3779	3779	3779	3779	3779	3779	3738	3779	3779	3779	3779	3821	3779	3779	3779	3779	3779	3779	3821	3821	3821	3821	3821	3821	3821	3821	3779	3821	3821	3907	3907	0	0	0	0	0	0	0	0	0	3779	3779	3738	3779	3779	3779	3779	3779	3821	3821	3821	3821	3821	3821	3779	3779	3779	3779	3779	3779	3779	3779	3779	3779	3821	3779	3779	3779	3779	3779	3779	3779	3779	3779	3779	3779	3738	3738	3821	3779	3821	3821	3779	3779	3821	3821	3821	3821	3821	3821	3821	3864	3864	3821	3821	3821	3821	3821	3821	3821	3821	3821	3821	3821	3821	3821	3821	3779	3779	3779	3779	3779	3779	3779	3779	3779	3779	3779	3779	3821	3821	3779	3821	3779	3779	3779	3779	3821	3821	3821	3821	3821	3821	3821	3821	3779	3779	3779	3821	3821	3821	3821	3821	3821	3821	3864	3864	3864	3864	3821	3821	3821	3821	3821	3821	3821	3821	3821	3821	3821	3821	3821	3821	3821	3821	3821	3821	3821	3821	3821	3864	3864	3864	3864	3864	3864	3864	3864	3864	3864	3864	3864	3864	3864	3864	3864	3864	3864	3864	3821	3821	3821	3821	3821	3821	3821	3821	3821	3864	3864	3864	3864	3821	3821	3821	3821	3821	3821	3821	3821	3821	3864	3864	3864	3864	3907	3907	3907	3907	3907	3952	3907	3907	3907	3907	3907	3907	3907	3864	3864	3864	3864	3864	3864	3864	3864	3907	3907	3907	3907	3907	3907	3907	3864	3864	3907	3907	3864	3864	3864	3864	3864	3864	3864	3864	3864	3864	3864	3864	3864	3864	3864	3864	3864	3864	3864	3864	3864	3864	3864	3864	3864	3864	3864	3864	3864	3864	3864	3864	3864	3907	3907	3907	3907	3907	3864	3864	3864	3864	3864	3864	3864	3864	3864	3864	3864	3864	3864	3864	3864	3864	3864	3821	3821	3864	3864	3864	3864	3821	3864	3864	3821	3821	3821	3821	3821	3864	3821	3821	3821	3821	3821	3821	3779	3821	3821	3821	3779	3738	3738	3779	3779	3738	3738	3738	3779	3779	3779	3779	3779	3779	3821	3779	3779	3779	3779	3779	3779	3779	3821	3821	3907	3864	3864	3864	3864	3864	3864	3864	3907	3907	3907	3907	3864	3864	3864	3779	3779	3779	3779	0	0	0	0	0	0	0	0	0	0	0	0	0	0	0	0	0	0	0	0	0	0	0	0	0	0	0	0	0	0	0	0	0	0	0
0	0	0	0	0	0	0	1461	1461	1467	1467	1473	1486	1486	1486	1486	1492	1499	1506	1512	1519	1519	1519	0	0	2223	2208	2208	2208	2194	2194	2194	2208	2208	2208	2208	2208	2208	2208	2208	2223	2208	2223	2223	2208	2208	2208	2208	2208	2208	2208	2194	2208	2208	2208	2208	2208	2208	2208	2208	2223	2223	2223	2223	2252	2252	2252	2237	2223	2223	2237	2237	2237	2237	2237	2237	2237	2223	2223	2223	2223	2223	2223	2223	2223	2223	2223	2223	2223	2223	2223	2223	2223	2223	2223	2223	2223	2223	2223	2223	2223	2223	2223	2237	2551	2551	2532	2551	2551	2551	2551	2570	2570	2570	2570	2570	2570	2570	2551	2551	2551	2551	2570	2570	2570	2570	2551	2570	2570	2570	2570	2570	2570	2570	2570	2570	2942	2942	2917	2917	2917	2917	2917	2917	2917	2917	2942	2942	2942	2967	2967	2993	2993	2993	3659	3659	3621	3621	3659	3659	3659	3659	3659	3659	3659	3659	3621	3621	3621	3659	3621	3621	3621	3659	3659	3659	3659	3698	3738	3779	3779	3779	3821	3821	3821	3821	3821	3821	3821	3821	3821	3821	3779	3779	3779	3738	3779	3779	3738	3738	3779	3779	3779	3779	3779	3779	3779	3779	3779	3779	3779	3779	3779	3738	3738	3738	3738	3738	3738	3738	3738	0	0	0	0	0	0	0	0	3738	3738	3738	3779	3779	3779	3779	3779	3779	3779	3779	3738	3738	3779	3779	3738	3738	3738	3779	3779	3779	3779	3738	3779	3779	3779	3779	3779	3821	3821	3821	3821	3821	3821	3864	3907	3907	0	0	0	0	0	0	0	0	0	0	3779	3738	3738	3738	3779	3779	3779	3821	3821	3821	3821	3821	3821	3779	3779	3738	3779	3779	3779	3779	3779	3779	3821	3821	3821	3821	3779	3779	3779	3779	3779	3779	3779	3779	3738	3738	3738	3779	3779	3779	3779	3779	3779	3779	3779	3779	3779	3821	3821	3821	3821	3821	3821	3821	3821	3821	3821	3821	3821	3821	3821	3821	3821	3821	3779	3779	3779	3779	3779	3779	3779	3821	3821	3821	3779	3779	3821	3821	3821	3821	3779	3821	3821	3821	3821	3821	3821	3864	3821	3821	3821	3821	3821	3821	3821	3779	3821	3779	3821	3779	3821	3821	3779	3779	3821	3864	3821	3821	3821	3821	3821	3821	3821	3821	3821	3821	3821	3821	3821	3821	3821	3821	3821	3821	3821	3821	3821	3821	3821	3864	3821	3864	3821	3864	3864	3821	3821	3864	3864	3864	3864	3864	3864	3907	3907	3907	3907	3907	3821	3821	3821	3821	3821	3821	3821	3821	3864	3864	3864	3864	3864	3864	3864	3821	3821	3821	3821	3821	3821	3821	3864	3821	3864	3864	3864	3907	3907	3907	3907	3907	3907	3907	3907	3907	3864	3864	3864	3864	3864	3864	3864	3864	3864	3864	3864	3864	3864	3907	3907	3907	3907	3907	3907	3907	3907	3907	3864	3864	3864	3864	3864	3864	3864	3864	3864	3864	3864	3864	3864	3864	3864	3864	3864	3864	3864	3864	3864	3821	3864	3864	3864	3864	3864	3864	3864	3864	3864	3864	3864	3907	3907	3907	3907	3907	3864	3864	3864	3864	3864	3864	3864	3864	3864	3864	3907	3864	3907	3907	3907	3907	3864	3864	3864	3864	3864	3864	3864	3821	3864	3864	3864	3864	3821	3821	3821	3821	3779	3779	3821	3821	3821	3779	3779	3821	3821	3821	3779	3738	3738	3821	3779	3738	3738	3738	3738	3738	3738	3738	3779	3821	3821	3821	3779	3779	3779	3779	3779	3779	3821	3821	3864	3864	3864	3864	3864	3864	3864	3864	3907	3907	3907	3907	3864	3907	3864	3779	3779	3779	3779	0	0	0	0	0	0	0	0	0	0	0	0	0	0	0	0	0	0	0	0	0	0	0	0	0	0	0	0	0	0	0	0	0	0	0
0	0	0	0	0	0	0	0	1461	1467	1467	1473	1473	1486	1486	1486	1492	1492	1499	1512	1512	1512	1519	0	2252	2252	2208	2223	2252	2252	2266	2266	2208	2223	2223	2223	2223	2223	2208	2208	2223	2223	2223	2223	2223	2223	2223	2208	2223	2223	2208	2208	2208	2208	2208	2223	2223	2223	2223	2223	2223	2237	2237	2223	2237	2252	2252	2223	2223	2237	2237	2237	2237	2237	2237	2252	2237	2237	2237	2237	2237	2223	2223	2223	2223	2223	2223	2223	2223	2223	2223	2223	2223	2223	2237	2237	2237	2223	2223	2223	2223	2223	2237	2237	2237	2252	2551	2551	2551	2551	2551	2551	2570	2570	2570	2570	2570	2570	2570	2551	2551	2551	2551	2551	2570	2570	2551	2551	2570	2570	2570	2551	2570	2551	2551	2551	2967	2942	2942	2942	2942	2942	2942	2942	2942	2967	2967	2993	2993	2993	2993	2993	2993	2993	3659	3659	3659	3621	3659	3659	3659	3659	3659	3659	3659	3659	3659	3659	3659	3659	3659	3659	3659	3659	3659	3659	3659	3659	3738	3779	3779	3779	3779	3821	3821	3821	3821	3779	3821	3821	3821	3821	3779	3779	3779	3738	3779	3738	3738	3738	3738	3738	3779	3738	3779	3779	3779	3738	3779	3779	3779	3779	3779	3779	3779	3738	3738	3738	3698	3698	0	0	0	0	0	3698	3698	3738	3738	3738	3738	3738	3738	3779	3779	3779	3779	3779	3779	3779	3738	3738	3738	3738	3738	3738	3779	3779	3779	3779	3779	3779	3779	3779	3779	3821	3779	3821	3821	3779	3779	3779	3779	3864	3907	3907	0	0	0	0	0	0	0	0	0	0	0	3738	3738	3779	3779	3779	3779	3821	3821	3821	3779	3779	3779	3779	3779	3779	3779	3779	3779	3821	3821	3821	3821	3821	3821	3821	3821	3779	3779	3779	3779	3779	3779	3779	3779	3738	3738	3779	3779	3779	3779	3779	3779	3779	3779	3779	3779	3779	3821	3821	3821	3821	3821	3821	3821	3821	3821	3821	3821	3821	3821	3821	3864	3779	3779	3779	3779	3779	3779	3821	3821	3821	3821	3821	3779	3821	3821	3821	3821	3821	3779	3779	3821	3821	3779	3779	3779	3821	3821	3821	3821	3821	3864	3821	3821	3821	3821	3779	3821	3779	3779	3821	3779	3821	3864	3864	3864	3864	3821	3821	3821	3821	3821	3821	3821	3821	3821	3821	3821	3821	3821	3821	3821	3821	3821	3821	3821	3821	3821	3821	3821	3821	3821	3864	3864	3864	3864	3864	3864	3864	3864	3864	3864	3864	3864	3907	3907	3864	3864	3821	3821	3821	3821	3821	3821	3821	3864	3864	3864	3864	3864	3864	3864	3821	3821	3821	3821	3821	3821	3821	3821	3821	3864	3864	3864	3864	3864	3864	3864	3864	3864	3864	3864	3864	3864	3864	3864	3864	3864	3864	3864	3864	3864	3864	3864	3864	3864	3864	3907	3907	3907	3907	3907	3907	3907	3907	3864	3864	3864	3864	3864	3864	3864	3864	3864	3864	3864	3864	3864	3821	3864	3864	3864	3864	3864	3864	3864	3864	3864	3864	3864	3864	3864	3864	3864	3864	3864	3864	3864	3907	3907	3907	3907	3907	3864	3864	3864	3907	3907	3907	3907	3907	3907	3907	3864	3864	3864	3907	3907	3907	3864	3821	3864	3864	3864	3821	3821	3821	3864	3864	3864	3864	3864	3864	3821	3821	3779	3779	3821	3821	3821	3821	3779	3821	3821	3779	3738	3738	3738	3779	3779	3738	3738	3738	3738	3738	3738	3738	3738	3779	3779	3779	3779	3779	3779	3779	3779	3779	3821	3864	3864	3864	3864	3864	3864	3821	3864	3907	3907	3907	3907	3907	3907	3907	3907	3779	3779	3821	3821	0	0	0	0	0	0	0	0	0	0	0	0	0	0	0	0	0	0	0	0	0	0	0	0	0	0	0	0	0	0	0	0	0	0	0
0	0	0	0	0	0	0	0	1461	1467	1467	1473	1480	1486	1486	1486	1486	1492	1492	1492	1492	1512	0	2237	2252	2252	2223	2223	2252	2237	2237	2237	2223	2223	2223	2223	2223	2223	2208	2223	2223	2223	2223	2223	2223	2223	2223	2223	2223	2223	2223	2223	2223	2223	2223	2237	2237	2266	2237	2237	2237	2237	2237	2237	2237	2237	2266	2237	2237	2252	2252	2252	2252	2252	2252	2237	2237	2237	2237	2237	2237	2223	2237	2237	2237	2237	2237	2237	2223	2237	2237	2252	2237	2237	2237	2237	2237	2223	2223	2223	2223	2223	2223	2223	2223	2223	2223	2570	2551	2551	2551	2551	2570	2570	2570	2551	2570	2570	2551	2551	2551	2551	2551	2551	2551	2551	2551	2551	2551	2551	2551	2551	2551	2551	2551	3046	3019	2993	2993	2993	2993	2993	2993	2967	2967	2993	2993	2993	2993	2993	2993	3019	2993	2993	3659	3659	3659	3621	3659	3659	3659	3659	3659	3659	3659	3659	3659	3659	3659	3659	3659	3659	3659	3659	3659	3659	3659	3659	3698	3738	3779	3779	3779	3779	3779	3779	3779	3779	3779	3779	3821	3821	3779	3779	3779	3738	3779	3779	3779	3738	3779	3779	3779	3738	3738	3738	3779	3738	3779	3779	3779	3779	3779	3779	3779	3779	3738	3738	3738	3738	0	0	0	0	0	3698	3738	3738	3738	3738	3738	3738	3738	3738	3779	3779	3779	3779	3779	3779	3738	3738	3779	3738	3698	3738	3779	3779	3779	3779	3779	3779	3779	3779	3779	3821	3779	3821	3779	3779	3779	3779	3779	3779	2917	2917	2917	2917	2917	2917	2967	2967	0	0	0	0	0	0	0	3779	3779	3779	3779	3821	3821	3779	3779	3779	3779	3779	3779	3738	3779	3779	3779	3779	3779	3779	3821	3821	3779	3779	3779	3779	3779	3779	3779	3779	3779	3779	3779	3779	3779	3779	3779	3779	3779	3779	3779	3779	3779	3779	3779	3779	3821	3821	3821	3821	3821	3821	3821	3821	3821	3821	3821	3821	3821	3821	3821	3821	3779	3779	3779	3779	3779	3821	3821	3821	3779	3821	3779	3779	3821	3821	3821	3821	3821	3821	3821	3821	3821	3821	3821	3821	3821	3821	3821	3821	3821	3821	3779	3779	3779	3779	3779	3779	3779	3779	3779	3779	3864	3864	3864	3864	3864	3864	3864	3821	3821	3821	3821	3821	3821	3821	3821	3821	3821	3821	3821	3821	3821	3821	3821	3821	3821	3821	3821	3821	3821	3821	3864	3821	3821	3864	3864	3864	3864	3864	3864	3864	3864	3907	3864	3864	3864	3821	3821	3821	3821	3821	3821	3821	3864	3864	3864	3907	3864	3864	3864	3821	3821	3821	3821	3821	3821	3821	3821	3821	3864	3907	3864	3864	3864	3864	3864	3864	3864	3864	3864	3864	3864	3864	3864	3864	3864	3864	3864	3864	3864	3864	3864	3864	3864	3907	3907	3907	3907	3907	3907	3907	3864	3864	3864	3864	3864	3864	3864	3864	3864	3864	3864	3864	3864	3864	3821	3821	3821	3864	3864	3864	3864	3864	3864	3864	3864	3864	3864	3864	3864	3864	3864	3864	3864	3864	3864	3907	3907	3907	3907	3907	3864	3864	3864	3864	3864	3864	3864	3864	3907	3907	3907	3864	3864	3864	3864	3864	3864	3864	3864	3864	3864	3864	3821	3821	3821	3821	3864	3864	3779	3779	3779	3821	3779	3779	3821	3821	3821	3821	3821	3821	3779	3821	3779	3779	3779	3821	3821	3779	3738	3738	3738	3738	3738	3738	3738	3779	3779	3779	3779	3779	3738	3779	3779	3779	3821	3864	3907	3907	3907	3864	3864	3907	3864	3907	3952	3952	3907	3907	3907	3907	3907	3821	3779	3821	3821	0	0	0	0	0	0	0	0	0	0	0	0	0	0	0	0	0	0	0	0	0	0	0	0	0	0	0	0	0	0	0	0	0	0	0
0	0	0	0	0	0	0	0	1467	1467	1467	1473	1480	1486	1486	1486	1486	1486	1486	1486	1492	0	0	2237	2237	2237	2223	2237	2237	2252	2252	2237	2237	2237	2237	2223	2223	2223	2223	2223	2237	2237	2237	2237	2223	2237	2237	2223	2237	2237	2237	2237	2252	2237	2237	2252	2252	2252	2252	2252	2252	2252	2252	2252	2252	2252	2281	2252	2252	2252	2252	2266	2252	2252	2252	2252	2252	2237	2237	2237	2237	2237	2237	2237	2237	2237	2237	2252	2237	2237	2252	2252	2252	2252	2252	2252	2252	2237	2223	2223	2223	2237	2237	2237	2237	2252	2266	2570	2551	2570	2570	2570	2570	2570	2551	2551	2551	2551	2551	2551	2551	2551	2570	2570	2570	2570	2570	2551	2570	2551	2570	2551	2551	2551	2551	3101	3019	2993	2993	2993	2993	2993	2993	2993	2993	2993	2993	2993	2993	2993	2993	2993	2993	2993	2993	3659	3659	3659	3659	3659	3659	3659	3659	3659	3659	3659	3659	3659	3659	3659	3659	3659	3659	3659	3659	3659	3698	3659	3698	3738	3738	3738	3738	3779	3779	3738	3738	3779	3779	3779	3821	3821	3779	3779	3779	3779	3779	3779	3779	3779	3779	3779	3779	3738	3738	3738	3779	3738	3779	3779	3779	3779	3779	3779	3779	3738	3738	3698	3698	3698	3698	3698	3698	3738	3738	3738	3738	3738	3738	3738	3738	3779	3738	3738	3779	3779	3779	3779	3738	3738	3738	3738	3779	3738	3738	3738	3779	3779	3779	3779	3779	3779	3779	3779	3779	3821	3779	3821	3821	3779	3779	3779	3779	3779	2893	2893	2893	2917	2893	2917	2942	2942	2967	2967	0	0	0	0	0	0	0	0	0	3821	3821	3779	3779	3779	3779	3779	3779	3738	3779	3779	3779	3779	3779	3779	3779	3779	3779	3779	3779	3779	3779	3779	3779	3779	3821	3821	3821	3779	3779	3779	3779	3779	3779	3779	3779	3779	3779	3779	3821	3821	3821	3821	3821	3821	3821	3821	3821	3821	3821	3821	3821	3779	3779	3779	3821	3779	3779	3779	3779	3779	3821	3821	3779	3779	3779	3821	3779	3779	3821	3821	3821	3821	3779	3821	3821	3821	3821	3821	3821	3864	3821	3821	3821	3821	3821	3821	3821	3779	3779	3779	3779	3779	3779	3779	3779	3779	3864	3864	3864	3864	3864	3864	3864	3821	3821	3821	3821	3821	3821	3821	3821	3821	3821	3821	3821	3821	3821	3821	3821	3821	3821	3821	3821	3821	3821	3821	3821	3821	3821	3864	3864	3864	3864	3864	3864	3864	3864	3864	3864	3864	3864	3821	3821	3821	3821	3821	3864	3864	3864	3864	3864	3907	3864	3864	3864	3821	3821	3821	3821	3821	3821	3821	3821	3821	3864	3864	3864	3864	3864	3864	3864	3864	3864	3864	3864	3864	3864	3864	3864	3864	3864	3864	3864	3864	3864	3864	3864	3864	3864	3864	3864	3864	3864	3907	3864	3864	3864	3864	3864	3864	3864	3864	3864	3864	3907	3907	3864	3864	3864	3864	3864	3864	3821	3864	3864	3864	3864	3864	3864	3821	3821	3821	3821	3864	3864	3864	3864	3864	3864	3864	3864	3907	3907	3907	3907	3907	3864	3864	3864	3907	3907	3907	3907	3907	3907	3907	3907	3907	3864	3864	3864	3864	3864	3821	3821	3864	3821	3821	3821	3821	3821	3821	3821	3821	3821	3779	3779	3821	3779	3779	3821	3821	3821	3821	3779	3821	3779	3779	3779	3779	3779	3821	3821	3779	3738	3738	3738	3738	3738	3738	3738	3779	3779	3779	3779	3779	3779	3779	3779	3738	3821	3864	3907	3907	3907	3907	3907	3907	3907	3907	3952	3907	3907	3952	3907	3907	3907	3779	3779	3821	3821	0	0	0	0	0	0	0	0	0	0	0	0	0	0	0	0	0	0	0	0	0	0	0	0	0	0	0	0	0	0	0	0	0	0	0
0	0	0	0	0	0	0	0	1461	1467	1467	1473	1480	1486	1486	1486	1486	1486	1486	1486	0	0	0	2237	2237	2237	2223	2237	2252	2252	2252	2252	2237	2237	2237	2237	2237	2237	2237	2237	2237	2252	2252	2252	2237	2237	2237	2237	2237	2237	2237	2237	2252	2252	2237	2252	2252	2252	2252	2252	2281	2252	2252	2252	2252	2252	2266	2266	2266	2266	2266	2266	2266	2266	2266	2252	2252	2252	2252	2252	2252	2252	2252	2252	2252	2252	2252	2252	2252	2252	2252	2252	2252	2252	2252	2252	2252	2266	2252	2237	2252	2237	2252	2252	2252	2252	2266	2266	2551	2551	2570	2551	2570	2570	2551	2551	2551	2551	2551	2551	2551	2551	2551	2551	2570	2570	2570	2551	2551	2551	2551	2551	2551	2551	2551	3101	3046	3019	2993	2993	3019	2993	2993	2993	2993	2993	2993	2993	2993	2993	2993	2993	2993	2993	2993	3659	3659	3659	3659	3659	3659	3659	3659	3659	3698	3659	3698	3659	3659	3659	3659	3659	3659	3659	3659	3659	3659	3659	3659	3738	3738	3738	3738	3738	3738	3738	3738	3738	3738	3821	3821	3821	3779	3779	3779	3779	3779	3779	3779	3779	3779	3779	3779	3779	3779	3738	3779	3738	3779	3779	3779	3779	3738	3779	3779	3738	3738	3698	3659	3659	3738	3738	3738	3738	3738	3738	3738	3779	3738	3738	3738	3738	3779	3779	3779	3779	3779	3779	3738	3738	3738	3738	3779	3779	3738	3779	3779	3779	3779	3779	3779	3779	3779	3779	3779	3779	3779	3779	3779	3779	3779	0	0	2869	2893	2893	2893	2893	2893	2917	2942	2967	2967	2967	2967	2967	2967	0	0	0	0	0	0	3821	3821	3779	3779	3779	3779	3779	3738	3738	3779	3779	3779	3779	3779	3779	3779	3779	3779	3779	3738	3779	3779	3738	3779	3779	3779	3779	3821	3779	3779	3779	3779	3779	3779	3779	3779	3779	3779	3779	3779	3779	3821	3821	3821	3821	3821	3821	3821	3821	3821	3821	3821	3821	3821	3821	3821	3821	3821	3779	3779	3779	3779	3821	3779	3779	3779	3779	3779	3821	3821	3821	3821	3821	3821	3821	3821	3821	3821	3821	3821	3821	3821	3821	3779	3779	3821	3821	3779	3779	3779	3779	3779	3779	3779	3779	3779	3779	3864	3864	3821	3821	3864	3821	3821	3821	3821	3821	3821	3821	3821	3821	3821	3821	3821	3821	3821	3821	3821	3821	3821	3821	3821	3821	3821	3821	3821	3821	3821	3821	3821	3821	3864	3821	3864	3864	3864	3864	3864	3864	3864	3864	3821	3821	3821	3821	3821	3821	3821	3821	3821	3864	3864	3907	3864	3821	3864	3821	3821	3821	3821	3821	3821	3821	3821	3821	3864	3864	3864	3864	3864	3864	3864	3864	3864	3864	3864	3864	3864	3864	3864	3864	3864	3864	3864	3864	3864	3864	3864	3864	3864	3864	3864	3864	3864	3907	3907	3864	3864	3864	3864	3864	3864	3864	3864	3907	3907	3907	3864	3864	3864	3864	3864	3864	3864	3864	3864	3864	3864	3864	3864	3821	3821	3821	3821	3821	3821	3864	3821	3864	3864	3864	3864	3907	3907	3864	3864	3864	3821	3821	3864	3864	3907	3907	3907	3907	3907	3907	3864	3864	3864	3864	3864	3864	3864	3864	3864	3864	3864	3821	3821	3821	3821	3821	3821	3779	3779	3779	3779	3779	3779	3779	3821	3821	3821	3821	3821	3821	3821	3779	3821	3821	3821	3821	3821	3779	3779	3738	3738	3738	3738	3738	3738	3779	3779	3779	3779	3779	3779	3779	3738	3738	3779	3779	3907	3864	3864	3864	3864	3907	3907	3907	3907	3907	3907	3907	3907	3907	3907	3821	3821	3821	3821	0	0	0	0	0	0	0	0	0	0	0	0	0	0	0	0	0	0	0	0	0	0	0	0	0	0	0	0	0	0	0	0	0	0	0
0	0	0	0	0	0	0	0	1461	1467	1467	1473	1473	1486	1486	1486	1486	1486	1486	1589	1589	1581	1581	2237	2252	2266	2266	2252	2252	2266	2266	2252	2252	2252	2252	2252	2237	2237	2237	2237	2252	2252	2266	2266	2252	2252	2252	2252	2252	2237	2252	2266	2266	2266	2266	2266	2266	2266	2266	2266	2252	2252	2266	2266	2266	2327	2266	2281	2281	2281	2281	2281	2266	2266	2266	2266	2252	2252	2252	2252	2252	2252	2252	2252	2252	2252	2266	2266	2266	2266	2266	2266	2266	2266	2266	2266	2252	2266	2266	2266	2266	2266	2266	2266	2266	2266	2266	2266	2551	2570	2570	2570	2570	2570	2551	2551	2551	2551	2551	2551	2551	2551	2551	2551	2570	2570	2570	2551	2551	2551	2570	2551	2551	2551	2551	2551	3046	3019	3019	3019	3019	3019	3019	3019	3019	3019	3019	3019	3019	3019	3019	3019	3019	3019	2993	2993	3698	3659	3659	3659	3659	3659	3659	3659	3698	3698	3698	3659	3659	3659	3659	3659	3659	3659	3659	3659	3659	3659	3659	3698	3738	3698	3738	3738	3738	3738	3738	3738	3779	3821	3821	3821	3779	3821	3779	3779	3779	3779	3738	3738	3779	3779	3779	3779	3779	3779	3779	3779	3779	3779	3738	3779	3738	3779	3779	3738	3738	3698	3738	3738	3779	3738	3738	3779	3779	3738	3779	3738	3738	3738	3779	3779	3779	3779	3779	3779	3779	3779	3738	3738	3738	3738	3779	3779	3779	3779	3821	3779	3779	3779	3738	3779	3779	3738	3738	3738	3738	3779	3779	3779	3779	0	0	2869	2893	2893	2942	2893	2917	2942	2942	2967	2967	2967	2967	2942	2942	0	2917	2917	2917	2917	2917	3864	3864	3864	3779	3779	3779	3779	3738	3738	3738	3738	3738	3779	3779	3738	3779	3738	3738	3738	3738	3738	3738	3738	3779	3779	3779	3779	3779	3779	3779	3779	3779	3779	3779	3779	3779	3779	3779	3779	3779	3779	3821	3821	3821	3821	3821	3821	3779	3779	3779	3779	3779	3779	3779	3779	3821	3779	3779	3779	3779	3779	3779	3779	3779	3779	3779	3821	3779	3821	3821	3821	3821	3821	3779	3779	3821	3821	3821	3821	3821	3821	3821	3821	3779	3779	3779	3779	3779	3779	3779	3779	3779	3779	3779	3779	3779	3779	3864	3864	3864	3821	3821	3864	3821	3821	3821	3821	3821	3821	3821	3821	3821	3821	3821	3821	3864	3821	3821	3821	3821	3821	3821	3821	3821	3821	3821	3821	3821	3821	3821	3821	3821	3821	3864	3821	3821	3864	3864	3864	3864	3821	3821	3821	3821	3821	3821	3821	3821	3864	3907	3907	3864	3907	3864	3821	3821	3821	3821	3821	3821	3821	3821	3821	3821	3821	3864	3864	3864	3864	3864	3864	3864	3864	3864	3864	3864	3864	3864	3864	3864	3864	3864	3864	3864	3864	3864	3864	3864	3864	3864	3864	3864	3864	3864	3907	3864	3864	3864	3864	3864	3864	3864	3864	3864	3907	3907	3907	3864	3864	3864	3864	3864	3864	3864	3864	3864	3864	3864	3864	3821	3821	3821	3821	3821	3821	3864	3864	3821	3821	3864	3821	3864	3864	3864	3864	3864	3864	3864	3864	3864	3864	3907	3907	3907	3907	3907	3907	3864	3864	3864	3864	3864	3864	3864	3864	3864	3864	3821	3821	3821	3821	3821	3821	3821	3779	3779	3779	3779	3779	3779	3779	3821	3821	3821	3821	3821	3779	3821	3821	3821	3821	3821	3821	3821	3821	3779	3779	3779	3738	3738	3738	3738	3779	3779	3738	3779	3779	3738	3779	3738	3738	3779	3779	3864	3864	3864	3864	3907	3907	3907	3907	3907	3907	3907	3907	3907	3907	3907	3821	3821	3821	3821	0	0	0	0	0	0	0	0	0	0	0	0	0	0	0	0	0	0	0	0	0	0	0	0	0	0	0	0	0	0	0	0	0	0	0
0	0	0	0	0	0	0	0	1431	1461	1467	1467	1473	1480	1486	1486	1486	1492	1492	1589	1589	1581	1581	0	2223	2281	2281	2252	2252	2252	2252	2252	2252	2252	2252	2252	2252	2252	2252	2252	2252	2252	2266	2266	2266	2266	2266	2266	2266	2266	2281	2281	2281	2266	2266	2266	2266	2266	2266	2266	2266	2266	2266	2266	2281	2281	2281	2281	2281	2281	2281	2281	2281	2266	2266	2266	2266	2266	2252	2252	2266	2266	2266	2266	2266	2266	2266	2266	2266	2266	2266	2266	2281	2281	2281	2281	2281	2281	2281	2266	2281	2266	2266	2266	2266	2266	2266	2281	2281	2570	2570	2551	2570	2570	2570	2551	2570	2551	2551	2570	2551	2551	2551	2551	2570	2570	2570	2551	2551	2551	2570	2570	2570	2551	2551	2551	3073	3019	3019	3019	3046	3019	3046	3046	3046	3046	3046	3019	3019	3019	3019	3019	3019	3019	2993	2993	3738	3659	3659	3659	3659	3659	3659	3698	3698	3698	3698	3698	3698	3698	3659	3659	3659	3659	3659	3659	3659	3659	3659	3698	3698	3698	3698	3738	3738	3738	3738	3738	3779	3779	3821	3821	3779	3779	3779	3779	3779	3779	3738	3738	3738	3738	3779	3738	3738	3738	3779	3779	3779	3779	3779	3779	3779	3779	3779	3738	3698	3698	3779	3738	3738	3738	3738	3779	3779	3779	3779	3779	3779	3779	3779	3821	3779	3779	3821	3821	3779	3779	3779	3779	3738	3738	3779	3779	3738	3779	3779	3779	3779	3779	3738	3738	3779	3738	3738	3738	3738	3738	3738	3738	3779	0	2893	2893	2893	2893	2893	2917	2917	2942	2942	2967	2967	2967	2942	2942	2942	0	2917	2917	2917	2917	2917	3864	3779	3779	3779	3779	3779	3779	3738	3738	3738	3779	3779	3779	3779	3779	3779	3779	3738	3738	3738	3779	3779	3779	3779	3779	3779	3779	3779	3779	3738	3779	3779	3779	3779	3779	3779	3779	3779	3779	3779	3779	3821	3821	3821	3821	3821	3821	3779	3779	3779	3779	3779	3779	3779	3779	3821	3779	3779	3779	3779	3779	3779	3779	3779	3779	3779	3821	3821	3779	3779	3779	3779	3779	3779	3779	3779	3821	3821	3821	3821	3821	3821	3821	3779	3779	3779	3779	3821	3779	3779	3779	3779	3779	3779	3779	3779	3779	3821	3864	3864	3864	3864	3864	3821	3821	3821	3821	3821	3821	3821	3821	3821	3821	3821	3821	3864	3821	3821	3821	3821	3821	3821	3821	3821	3821	3821	3821	3821	3821	3821	3821	3821	3821	3864	3821	3821	3821	3864	3864	3864	3821	3821	3821	3821	3821	3821	3821	3864	3864	3864	3864	3864	3864	3864	3821	3821	3821	3821	3821	3821	3821	3821	3821	3821	3821	3864	3864	3864	3864	3864	3864	3864	3864	3864	3864	3864	3864	3864	3864	3864	3864	3864	3864	3864	3864	3821	3864	3821	3864	3864	3864	3864	3864	3907	3907	3864	3864	3864	3864	3864	3864	3864	3864	3864	3864	3907	3907	3864	3864	3864	3864	3864	3864	3864	3864	3864	3864	3864	3864	3864	3864	3864	3864	3864	3864	3864	3864	3821	3864	3864	3821	3821	3864	3864	3864	3864	3864	3864	3864	3821	3864	3864	3864	3864	3907	3907	3907	3864	3864	3864	3864	3864	3864	3864	3864	3864	3864	3821	3821	3821	3864	3821	3821	3821	3821	3821	3821	3779	3779	3779	3738	3779	3779	3779	3738	3738	3738	3779	3779	3779	3779	3779	3779	3779	3779	3738	3738	3738	3738	3738	3738	3738	3779	3779	3738	3779	3779	3738	3738	3738	3738	3779	3779	3821	3864	3864	3907	3907	3907	3907	3907	3907	3907	3907	3907	3907	3907	3907	3821	3821	3821	3821	0	0	0	0	0	0	0	0	0	0	0	0	0	0	0	0	0	0	0	0	0	0	0	0	0	0	0	0	0	0	0	0	0	0	0
0	0	0	0	0	0	0	0	1455	1461	1461	1467	1467	1486	1499	1506	1512	1512	1553	1553	1553	1560	1560	1567	1567	2223	2266	2237	2252	2252	2252	2252	2252	2266	2266	2252	2252	2266	2252	2266	2266	2281	2281	2281	2281	2281	2281	2281	2281	2297	2297	2281	2281	2281	2281	2281	2281	2281	2266	2281	2281	2281	2281	2281	2281	2297	2297	2297	2297	2297	2297	2297	2297	2281	2281	2281	2266	2266	2266	2266	2266	2266	2266	2266	2266	2266	2266	2281	2266	2266	2281	2281	2281	2281	2281	2281	2281	2281	2281	2281	2281	2281	2281	2266	2266	2266	2281	2281	2281	2551	2551	2551	2570	2570	2570	2551	2570	2551	2551	2570	2551	2551	2551	2551	2570	2551	2570	2551	2551	2551	2551	2551	2551	2551	2532	2532	3101	3073	3046	3046	3046	3046	3046	3046	3046	3046	3046	3046	3046	3019	3019	3019	3019	3019	2993	2993	3738	3659	3659	3621	3659	3659	3659	3659	3659	3698	3698	3698	3698	3659	3659	3659	3659	3659	3659	3621	3621	3621	3621	3698	3698	3698	3698	3698	3738	3738	3738	3738	3779	3821	3821	3821	3821	3821	3779	3779	3779	3779	3738	3738	3738	3738	3738	3779	3738	3738	3779	3779	3821	3821	3779	3779	3779	3779	3779	3738	3698	3698	3738	3738	3738	3738	3738	3779	3779	3779	3779	3738	3779	3779	3779	3779	3779	3738	3779	3779	3738	3738	3738	3738	3738	3738	3779	3779	3738	3779	3779	3779	3779	3779	3738	3738	3738	3779	3738	3738	3738	3738	3738	3738	0	0	2893	2869	2869	2893	2893	2917	2917	2942	2967	2967	2967	2967	2942	2942	2942	0	2917	2917	2917	2917	2917	2917	3779	3779	3738	3738	3738	3738	3779	3779	3779	3779	3779	3779	3779	3779	3779	3738	3738	3738	3738	3779	3779	3779	3779	3779	3779	3779	3779	3779	3738	3779	3779	3779	3779	3779	3779	3779	3779	3779	3779	3779	3821	3821	3821	3821	3779	3821	3779	3779	3779	3779	3779	3779	3779	3779	3779	3779	3779	3779	3779	3779	3779	3779	3779	3779	3779	3779	3779	3779	3779	3821	3821	3821	3779	3779	3821	3821	3821	3821	3821	3821	3821	3779	3779	3779	3779	3779	3779	3779	3779	3779	3779	3779	3779	3779	3779	3779	3821	3864	3864	3864	3864	3864	3864	3864	3864	3821	3821	3821	3821	3821	3821	3821	3821	3821	3864	3821	3821	3821	3821	3821	3821	3821	3821	3821	3821	3821	3821	3821	3821	3821	3821	3821	3864	3821	3821	3821	3821	3864	3821	3821	3821	3821	3821	3821	3821	3821	3821	3821	3821	3821	3821	3864	3864	3821	3821	3821	3821	3821	3821	3821	3821	3821	3821	3821	3864	3864	3864	3864	3864	3864	3864	3864	3864	3864	3864	3864	3864	3864	3864	3864	3864	3864	3864	3864	3821	3864	3821	3864	3864	3864	3864	3864	3864	3864	3864	3864	3864	3864	3864	3864	3864	3864	3864	3864	3864	3907	3864	3864	3864	3864	3864	3864	3864	3864	3864	3864	3864	3864	3864	3864	3864	3864	3864	3864	3864	3864	3821	3864	3864	3821	3821	3864	3864	3864	3864	3864	3864	3864	3821	3821	3821	3821	3864	3864	3907	3907	3864	3864	3864	3864	3864	3864	3864	3864	3864	3864	3864	3864	3864	3864	3864	3864	3864	3864	3821	3821	3821	3779	3779	3779	3779	3779	3738	3738	3738	3738	3779	3738	3779	3779	3821	3779	3779	3779	3779	3738	3738	3738	3738	3738	3738	3738	3738	3738	3738	3738	3738	3738	3738	3698	3779	3779	3864	3864	3864	3907	3907	3907	3907	3907	3907	3907	3907	3907	3907	3907	3864	3821	3821	3821	3821	0	0	0	0	0	0	0	0	0	0	0	0	0	0	0	0	0	0	0	0	0	0	0	0	0	0	0	0	0	0	0	0	0	0	0
0	0	0	0	0	0	0	0	1449	1455	1461	1461	1467	1480	1486	1512	1506	1519	1539	1553	1560	1567	1567	1589	1589	2223	2237	2252	2252	2252	2266	2266	2266	2266	2266	2266	2266	2266	2266	2266	2266	2281	2281	2281	2281	2297	2281	2297	2297	2297	2297	2281	2281	2281	2281	2281	2281	2281	2281	2281	2297	2297	2297	2327	2297	2297	2327	2297	2297	2297	2297	2297	2297	2281	2281	2281	2281	2281	2266	2266	2266	2266	2281	2266	2266	2266	2266	2281	2281	2281	2281	2281	2281	2281	2281	2297	2297	2281	2281	2281	2281	2281	2281	2266	2281	2281	2281	2297	2297	2551	2551	2551	2551	2551	2551	2551	2551	2551	2551	2570	2570	2570	2551	2551	2551	2551	2570	2551	2551	2551	2551	2551	2551	2551	2532	2532	3101	3073	3046	3046	3073	3073	3046	3046	3046	3046	3046	3046	3046	3046	3019	3019	3019	3019	3019	3019	3779	3659	3621	3621	3621	3621	3621	3659	3659	3659	3698	3698	3698	3659	3659	3659	3659	3659	3659	3621	3621	3621	3621	3698	3698	3698	3698	3698	3698	3738	3738	3738	3779	3779	3821	3821	3821	3821	3821	3821	3779	3779	3738	3738	3738	3738	3738	3738	3738	3779	3779	3821	3821	3779	3779	3738	3738	3738	3738	3698	3698	3698	3738	3738	3738	3738	3738	3779	3779	3779	3779	3738	3779	3779	3779	3779	3779	3779	3779	3779	3779	3779	3738	3738	3738	3738	3738	3738	3738	3779	3779	3779	3779	3779	3738	3779	3779	3779	3779	3779	3779	3779	3738	0	0	0	2893	2869	2869	2893	2917	2917	2942	2942	2967	2967	2967	2967	2967	2967	2967	2942	2917	2917	2917	2917	2917	2942	0	0	3738	3779	3779	3779	3779	3738	3738	3738	3738	3779	3779	3738	3738	3738	3738	3738	3738	3738	3738	3779	3779	3779	3779	3779	3779	3779	3738	3779	3779	3779	3779	3779	3779	3779	3779	3779	3779	3779	3821	3779	3821	3821	3779	3821	3821	3779	3779	3779	3779	3779	3779	3779	3779	3779	3779	3779	3779	3779	3779	3779	3779	3779	3779	3779	3779	3779	3779	3779	3779	3779	3779	3779	3821	3821	3821	3821	3821	3821	3779	3779	3779	3779	3779	3779	3779	3779	3779	3779	3779	3779	3779	3779	3779	3779	3821	3864	3821	3821	3864	3864	3864	3864	3821	3821	3821	3821	3821	3821	3821	3821	3864	3864	3864	3821	3821	3821	3821	3821	3821	3821	3821	3821	3821	3821	3821	3864	3821	3821	3821	3821	3821	3821	3821	3821	3821	3821	3821	3821	3821	3821	3821	3821	3821	3821	3821	3821	3821	3821	3821	3864	3864	3821	3821	3821	3821	3821	3821	3821	3821	3821	3821	3821	3864	3864	3864	3864	3864	3864	3864	3864	3864	3864	3864	3864	3864	3864	3864	3864	3864	3864	3864	3864	3821	3821	3821	3864	3864	3864	3864	3864	3864	3864	3864	3864	3864	3864	3864	3864	3864	3864	3864	3864	3864	3864	3864	3864	3864	3864	3864	3864	3864	3864	3864	3864	3864	3864	3864	3864	3864	3864	3864	3821	3864	3864	3779	3821	3821	3821	3821	3864	3864	3864	3864	3864	3864	3864	3821	3821	3864	3864	3821	3864	3864	3864	3864	3864	3864	3864	3864	3864	3864	3864	3821	3864	3821	3864	3864	3864	3864	3864	3864	3864	3821	3821	3821	3779	3779	3738	3738	3738	3738	3738	3738	3698	3738	3738	3779	3779	3779	3779	3779	3779	3779	3738	3779	3738	3738	3738	3738	3738	3738	3738	3738	3738	3738	3738	3698	3738	3738	3779	3821	3864	3864	3907	3952	3907	3907	3864	3952	3907	3907	3907	3907	3864	3864	3907	3821	3821	3821	0	0	0	0	0	0	0	0	0	0	0	0	0	0	0	0	0	0	0	0	0	0	0	0	0	0	0	0	0	0	0	0	0	0	0
0	0	0	0	0	0	0	0	1455	1461	1461	1467	1473	1480	1486	1512	1506	1525	1539	1553	1553	1567	1567	1567	1567	1567	2237	2237	2252	2252	2266	2281	2266	2266	2266	2266	2266	2266	2266	2266	2281	2297	2297	2297	2297	2297	2297	2297	2312	2312	2312	2297	2297	2297	2281	2281	2343	2281	2281	2297	2327	2327	2327	2327	2297	2297	2343	2312	2312	2297	2297	2297	2312	2297	2297	2281	2281	2281	2281	2281	2281	2281	2281	2281	2266	2266	2281	2281	2281	2281	2281	2281	2297	2281	2297	2297	2297	2297	2297	2281	2281	2281	2281	2281	2281	2281	2281	2297	2297	2551	2551	2551	2551	2570	2570	2551	2551	2551	2551	2570	2570	2570	2551	2551	2551	2551	2551	2551	2551	2551	2551	2551	2551	2551	2551	2551	3101	3073	3046	3046	3073	3046	3046	3073	3073	3046	3046	3046	3046	3046	3019	3019	3046	3046	3019	3019	3019	3659	3621	3621	3621	3621	3621	3621	3621	3659	3698	3698	3698	3659	3659	3659	3659	3659	3659	3621	3621	3621	3659	3698	3698	3698	3779	3779	3779	3779	3738	3738	3779	3779	3821	3821	3821	3821	3821	3821	3779	3779	3779	3779	3738	3738	3779	3779	3779	3779	3821	3821	3821	3821	3779	3779	3738	3738	3738	3698	3698	3698	3698	3738	3698	3738	3738	3738	3779	3738	3779	3738	3779	3738	3779	3821	3779	3779	3779	3779	3738	3738	3738	3738	3738	3738	3738	3738	3738	3779	3821	3779	3779	3738	3738	3738	3738	3738	3738	3738	3738	3779	0	0	0	0	2893	2893	2893	2917	2917	2917	2942	2942	2967	2967	2967	2967	2967	2967	2942	2942	2917	2917	2917	2942	2942	2942	0	0	0	3779	3779	3779	3779	3779	3779	3779	3779	3779	3779	3738	3738	3738	3738	3738	3738	3738	3738	3779	3779	3779	3779	3779	3779	3779	3738	3779	3779	3779	3779	3779	3779	3779	3779	3779	3779	3779	3779	3779	3821	3821	3821	3821	3821	3779	3779	3779	3779	3779	3779	3779	3779	3779	3779	3779	3779	3779	3779	3779	3779	3779	3779	3779	3779	3779	3779	3779	3779	3779	3779	3779	3821	3821	3821	3821	3821	3821	3779	3779	3779	3779	3779	3779	3779	3779	3779	3779	3779	3779	3779	3779	3779	3779	3779	3821	3821	3821	3864	3821	3821	3821	3821	3821	3821	3821	3821	3821	3821	3821	3864	3864	3864	3864	3821	3821	3821	3821	3821	3821	3821	3821	3821	3821	3821	3821	3821	3821	3821	3821	3821	3821	3821	3821	3821	3821	3821	3821	3821	3821	3821	3821	3779	3821	3821	3821	3821	3821	3821	3821	3821	3821	3821	3821	3821	3821	3821	3821	3821	3821	3821	3821	3864	3864	3864	3864	3864	3864	3864	3864	3864	3864	3864	3864	3864	3864	3864	3864	3864	3864	3864	3864	3821	3821	3864	3864	3864	3864	3864	3821	3864	3864	3864	3864	3864	3864	3864	3864	3864	3864	3864	3864	3864	3864	3864	3864	3864	3864	3864	3864	3864	3864	3864	3864	3864	3864	3864	3864	3864	3864	3864	3864	3864	3864	3821	3821	3821	3821	3821	3864	3864	3864	3864	3864	3864	3864	3864	3821	3821	3821	3821	3864	3864	3864	3864	3864	3821	3864	3864	3864	3864	3864	3821	3864	3821	3864	3864	3864	3864	3864	3821	3864	3821	3821	3821	3779	3779	3738	3738	3738	3738	3738	3738	3738	3779	3779	3779	3779	3779	3779	3779	3779	3738	3738	3779	3738	3779	3738	3779	3738	3738	3738	3738	3738	3738	3738	3738	3738	3779	3779	3821	3821	3864	3907	3907	3907	3907	3864	3907	3907	3907	3907	3907	3864	3864	3907	3821	3779	3779	0	0	0	0	0	0	0	0	0	0	0	0	0	0	0	0	0	0	0	0	0	0	0	0	0	0	0	0	0	0	0	0	0	0	0
0	0	0	0	0	0	0	0	1449	1455	1461	1461	1467	1480	1492	1512	1512	1525	1539	1553	1553	1560	1567	1567	1567	1567	0	2252	2266	2266	2297	2297	2281	2281	2281	2281	2281	2281	2281	2281	2281	2297	2297	2312	2312	2312	2312	2312	2312	2312	2312	2312	2312	2312	2312	2343	2343	2343	2343	2343	2343	2343	2327	2312	2312	2312	2312	2312	2312	2297	2297	2297	2312	2297	2297	2297	2281	2297	2297	2281	2281	2297	2297	2281	2281	2281	2281	2281	2281	2281	2281	2297	2297	2281	2297	2297	2297	2297	2297	2297	2297	2281	2281	2281	2281	2281	2281	2297	2297	2297	2532	2551	2551	2570	2570	2551	2551	2551	2551	2570	2570	2551	2551	2551	2551	2551	2551	2551	2551	2570	2570	2570	2570	2551	2551	2570	2570	3073	3073	3073	3073	3073	3073	3073	3073	3073	3073	3073	3046	3046	3046	3046	3046	3046	3046	3046	3046	3659	3621	3621	3621	3621	3621	3621	3621	3621	3621	3621	3659	3659	3659	3659	3621	3621	3621	3621	3621	3621	3659	3698	3698	3698	3779	3779	3779	3779	3738	3738	3779	3779	3779	3821	3821	3821	3821	3821	3779	3779	3779	3779	3738	3738	3779	3779	3821	3821	3821	3821	3821	3821	3779	3738	3738	3738	3698	3698	3659	3698	3698	3738	3698	3738	3738	3779	3779	3738	3738	3738	3779	3779	3779	3779	3779	3821	3821	3779	3779	3779	3738	3738	3738	3738	3738	3738	3738	3738	3779	3779	3779	3738	3738	3738	3738	3738	3738	3738	3738	0	0	0	0	0	2967	2917	2917	2917	2917	2917	2942	2942	2942	2967	2967	2967	2967	2967	2942	2942	2942	2942	2942	2942	2942	0	0	0	0	0	3779	3779	3779	3779	3779	3738	3738	3779	3738	3738	3738	3738	3738	3738	3738	3738	3738	3738	3738	3738	3738	3738	3738	3738	3738	3738	3779	3779	3779	3779	3779	3779	3779	3779	3779	3779	3779	3779	3821	3779	3779	3779	3779	3779	3779	3779	3779	3779	3779	3779	3779	3779	3779	3779	3779	3779	3779	3779	3779	3779	3779	3779	3779	3779	3779	3779	3779	3779	3779	3779	3779	3779	3821	3821	3821	3779	3779	3779	3779	3779	3779	3779	3779	3821	3779	3821	3779	3779	3779	3779	3779	3779	3821	3821	3821	3821	3821	3821	3821	3821	3821	3821	3821	3821	3821	3821	3821	3821	3864	3864	3864	3821	3821	3821	3821	3821	3821	3821	3821	3821	3821	3821	3821	3821	3821	3821	3821	3821	3821	3821	3821	3821	3821	3821	3821	3821	3821	3821	3821	3821	3779	3821	3821	3821	3821	3821	3821	3821	3821	3821	3821	3821	3821	3821	3821	3821	3821	3821	3821	3821	3864	3864	3864	3864	3864	3864	3864	3864	3864	3864	3864	3864	3864	3864	3864	3864	3864	3864	3864	3864	3821	3821	3864	3864	3821	3821	3821	3821	3864	3864	3864	3864	3864	3864	3864	3864	3864	3864	3864	3864	3864	3864	3821	3821	3864	3864	3864	3864	3864	3864	3864	3864	3864	3864	3864	3864	3821	3864	3864	3864	3864	3864	3821	3821	3821	3821	3821	3864	3864	3864	3864	3864	3864	3864	3864	3864	3864	3821	3864	3864	3864	3864	3864	3821	3821	3864	3864	3864	3864	3821	3821	3821	3821	3821	3821	3864	3864	3864	3821	3821	3821	3821	3821	3779	3779	3738	3738	3779	3738	3738	3738	3738	3738	3779	3779	3779	3779	3779	3779	3738	3738	3738	3821	3738	3779	3738	3779	3738	3738	3738	3738	3738	3738	3738	3738	3738	3779	3779	3821	3864	3864	3864	3864	3864	3821	3864	3907	3907	3907	3907	3907	3907	3864	3907	3907	3864	3864	0	0	0	0	0	0	0	0	0	0	0	0	0	0	0	0	0	0	0	0	0	0	0	0	0	0	0	0	0	0	0	0	0	0	0
0	0	0	0	0	0	0	0	1455	1455	1461	1461	1467	1480	1492	1506	1512	1525	1539	1546	1553	1560	1567	1567	1574	1574	0	2223	2252	2252	2281	2297	2297	2281	2281	2281	2297	2281	2281	2281	2297	2312	2327	2327	2327	2327	2327	2327	2327	2327	2327	2312	2327	2327	2327	2327	2359	2359	2312	2312	2327	2327	2327	2327	2327	2327	2327	2312	2312	2297	2297	2297	2312	2297	2312	2312	2297	2297	2312	2297	2312	2312	2312	2297	2297	2281	2297	2297	2297	2297	2297	2297	2312	2297	2312	2312	2312	2297	2297	2297	2297	2297	2281	2281	2281	2281	2281	2297	2297	2312	2312	2532	2532	2551	2551	2551	2551	2551	2551	2570	2551	2551	2551	2551	2551	2551	2551	2551	2551	2570	2570	2570	2570	2570	2570	2570	3101	3101	3073	3073	3101	3073	3073	3101	3101	3073	3073	3073	3046	3046	3046	3046	3046	3046	3046	3046	3046	3659	3659	3621	3621	3621	3621	3621	3621	3621	3621	3621	3659	3659	3659	3659	3621	3621	3621	3621	3621	3621	3659	3698	3698	3698	3779	3779	3779	3738	3738	3738	3779	3779	3779	3779	3821	3821	3821	3821	3779	3779	3779	3779	3738	3779	3779	3779	3779	3821	3821	3821	3821	3821	3779	3779	3738	3738	3698	3698	3698	3698	3698	3738	3698	3738	3779	3779	3779	3779	3738	3738	3738	3779	3779	3779	3779	3821	3821	3779	3779	3779	3779	3779	3738	3738	3698	3738	3738	3738	3779	3779	3779	3738	3738	3738	3698	3738	3738	3738	0	0	0	0	0	0	2967	2917	2917	2917	2917	2942	2942	2942	2942	2942	2967	2967	2967	2967	2942	2942	2942	2942	2942	2942	2942	0	0	0	0	0	3779	3738	3779	3779	3779	3738	3738	3779	3779	3779	3738	3738	3738	3738	3738	3738	3738	3738	3738	3738	3738	3738	3738	3738	3738	3738	3779	3779	3779	3779	3779	3738	3779	3779	3779	3779	3779	3779	3779	3779	3779	3779	3779	3779	3779	3779	3779	3779	3779	3779	3779	3779	3779	3779	3779	3779	3779	3779	3779	3779	3779	3779	3779	3779	3779	3779	3779	3779	3779	3779	3779	3779	3779	3779	3779	3779	3779	3779	3779	3779	3779	3779	3779	3779	3779	3779	3779	3779	3779	3779	3779	3779	3821	3821	3821	3821	3821	3821	3821	3821	3821	3821	3821	3821	3821	3864	3864	3864	3864	3864	3864	3821	3821	3821	3821	3821	3821	3821	3821	3821	3821	3821	3821	3821	3821	3821	3821	3821	3821	3821	3821	3821	3821	3821	3821	3821	3821	3821	3821	3821	3821	3821	3821	3821	3821	3821	3821	3821	3821	3821	3821	3821	3821	3821	3821	3821	3821	3821	3821	3821	3864	3864	3864	3864	3864	3864	3864	3864	3864	3864	3864	3864	3864	3864	3864	3864	3864	3864	3864	3864	3821	3821	3864	3864	3864	3864	3864	3864	3864	3864	3864	3864	3864	3864	3864	3864	3864	3864	3864	3864	3864	3864	3821	3821	3864	3864	3864	3864	3864	3864	3864	3864	3864	3864	3864	3864	3864	3864	3864	3864	3864	3864	3821	3864	3821	3821	3821	3864	3864	3864	3864	3864	3864	3864	3864	3864	3864	3864	3821	3821	3821	3821	3864	3821	3821	3864	3864	3864	3864	3864	3821	3864	3821	3821	3821	3864	3864	3864	3821	3821	3821	3821	3821	3821	3821	3779	3738	3779	3738	3738	3738	3738	3738	3779	3779	3779	3779	3779	3779	3779	3779	3738	3779	3738	3738	3738	3738	3738	3738	3738	3738	3698	3738	3738	3738	3738	3779	3779	3821	3821	3864	3864	3864	3864	3821	3864	3907	3907	3907	3907	3907	3907	3864	3907	3864	3864	3864	0	0	0	0	0	0	0	0	0	0	0	0	0	0	0	0	0	0	0	0	0	0	0	0	0	0	0	0	0	0	0	0	0	0	0
0	0	0	0	0	0	0	0	1455	1461	1461	1461	1467	1473	1492	1506	1512	1519	1525	1546	1553	1560	1567	1574	1603	1603	1603	2223	2252	2252	2281	2297	2297	2297	2297	2297	2297	2297	2297	2297	2312	2327	2327	2327	2327	2327	2327	2327	2327	2327	2327	2327	2327	2327	2327	2327	2327	2312	2327	2327	2327	2327	2327	2327	2327	2327	2327	2312	2327	2312	2312	2312	2312	2312	2312	2312	2312	2312	2312	2312	2312	2327	2312	2297	2297	2297	2297	2297	2297	2297	2297	2312	2312	2297	2312	2327	2312	2312	2312	2312	2312	2297	2297	2297	2297	2297	2297	2297	2297	2327	2327	2496	2532	2551	2551	2551	2551	2570	2570	2570	2551	2551	2551	2551	2551	2551	2551	2551	2551	2551	2570	2570	2570	2570	2570	2570	3129	3101	3101	3101	3101	3101	3101	3101	3101	3101	3101	3101	3073	3073	3073	3046	3046	3046	3046	3073	3073	3073	3659	3621	3621	3621	3621	3621	3621	3621	3621	3621	3621	3659	3659	3659	3621	3621	3621	3621	3621	3621	3659	3698	3698	3698	3779	3779	3779	3779	3738	3779	3738	3738	3738	3738	3821	3821	3821	3821	3821	3821	3821	3779	3779	3779	3779	3779	3779	3779	3821	3821	3821	3779	3779	3738	3738	3738	3738	3698	3698	3698	3738	3738	3698	3738	3738	3779	3779	3738	3738	3698	3698	3738	3738	3779	3779	3779	3821	3779	3779	3779	3779	3738	3738	3738	3698	3738	3738	3738	3779	3779	3738	3738	3738	3738	3738	3738	3738	0	0	3046	3019	2993	2993	2967	2967	2942	2942	2917	2942	2942	2942	2942	2967	2942	2967	2967	2967	2967	2942	2942	2942	2942	2967	2942	2942	0	0	0	0	0	0	3738	3738	3738	3779	3779	3779	3779	3779	3779	3738	3738	3738	3738	3738	3738	3738	3779	3779	3779	3738	3738	3738	3738	3738	3738	3779	3779	3779	3779	3779	3779	3779	3779	3779	3779	3779	3738	3738	3779	3779	3779	3779	3779	3779	3821	3779	3779	3821	3779	3779	3779	3779	3779	3779	3779	3779	3779	3779	3779	3779	3779	3779	3779	3779	3779	3779	3779	3779	3779	3779	3779	3779	3779	3779	3779	3779	3779	3779	3779	3779	3779	3779	3821	3779	3779	3779	3779	3779	3779	3779	3779	3821	3821	3821	3821	3821	3821	3821	3821	3821	3821	3821	3821	3821	3864	3864	3864	3864	3864	3821	3821	3821	3821	3821	3821	3821	3821	3821	3821	3821	3821	3821	3821	3821	3821	3821	3821	3821	3821	3821	3821	3821	3821	3821	3821	3821	3821	3821	3821	3821	3779	3821	3821	3779	3779	3779	3821	3821	3821	3821	3821	3821	3821	3821	3821	3821	3821	3821	3821	3864	3864	3864	3864	3864	3864	3864	3864	3864	3864	3864	3864	3864	3864	3864	3864	3864	3864	3821	3864	3821	3821	3864	3864	3864	3864	3864	3864	3864	3864	3864	3864	3864	3864	3864	3864	3864	3864	3821	3821	3821	3821	3821	3821	3864	3821	3864	3864	3864	3864	3864	3864	3821	3864	3864	3864	3821	3864	3821	3864	3864	3864	3864	3864	3864	3864	3864	3864	3864	3864	3864	3864	3864	3864	3864	3864	3864	3821	3864	3864	3821	3821	3821	3821	3821	3864	3864	3864	3864	3864	3821	3821	3821	3821	3821	3864	3864	3821	3821	3821	3821	3821	3821	3821	3779	3779	3738	3738	3738	3738	3738	3738	3738	3738	3779	3779	3821	3779	3779	3738	3779	3779	3779	3738	3738	3738	3738	3738	3738	3738	3738	3738	3738	3738	3738	3738	3779	3821	3821	3821	3864	3864	3864	3864	3821	3864	3864	3907	3907	3907	3907	3907	3907	3907	3864	3864	3864	0	0	0	0	0	0	0	0	0	0	0	0	0	0	0	0	0	0	0	0	0	0	0	0	0	0	0	0	0	0	0	0	0	0	0
0	0	0	0	0	0	0	0	1455	1461	1461	1461	1467	1473	1486	1506	1506	1519	1519	1532	1546	1560	1567	1596	1603	1603	1611	1611	1611	2252	2297	2312	2312	2312	2312	2312	2312	2297	2312	2312	2312	2327	2327	2327	2327	2327	2327	2327	2327	2327	2327	2327	2327	2327	2327	2327	2327	2327	2327	2327	2343	2343	2343	2343	2343	2343	2327	2327	2327	2327	2327	2327	2327	2327	2327	2327	2312	2327	2327	2327	2327	2327	2327	2327	2312	2312	2312	2297	2327	2312	2297	2312	2312	2312	2327	2327	2327	2327	2327	2327	2327	2312	2312	2297	2297	2312	2312	2297	2297	2312	2327	2327	2514	2551	2551	2551	2551	2570	2570	2570	2551	2551	2551	2551	2551	2551	2551	2551	2551	2570	2551	2570	2570	2570	2570	3129	3129	3101	3101	3101	3101	3101	3101	3101	3101	3101	3101	3101	3073	3101	3073	3073	3073	3073	3073	3073	3101	3101	3101	3621	3621	3621	3621	3621	3621	3621	3621	3621	3621	3621	3621	3659	3659	3621	3659	3621	3621	3621	3659	3698	3698	3698	3738	3738	3738	3738	3738	3779	3779	3779	3779	3821	3821	3821	3821	3821	3821	3821	3779	3779	3779	3779	3779	3779	3779	3779	3779	3779	3779	3738	3738	3738	3738	3738	3698	3698	3698	3698	3698	3738	3738	3738	3779	3779	3779	3738	3738	3698	3698	3698	3698	3738	3738	3779	3779	3738	3779	3779	3738	3779	3738	3738	3738	3738	3738	3738	3738	3738	3738	3738	3738	3738	3738	3738	3738	0	3046	3046	3019	2993	2993	2967	2967	2942	2942	2942	2942	2942	2942	2942	2967	2967	2967	2967	2967	2967	2942	2942	2942	2942	2967	2942	2942	0	0	0	0	0	0	3738	3738	3779	3779	3779	3779	3779	3821	3779	3779	3779	3738	3779	3779	3738	3738	3779	3738	3738	3738	3738	3738	3738	3738	3738	3779	3779	3779	3779	3779	3779	3779	3779	3779	3779	3779	3738	3779	3779	3779	3779	3779	3779	3779	3779	3779	3779	3779	3821	3779	3779	3779	3779	3779	3779	3779	3779	3779	3779	3779	3779	3779	3779	3779	3779	3779	3779	3821	3779	3779	3779	3779	3779	3779	3779	3779	3779	3779	3779	3779	3779	3779	3779	3779	3779	3779	3779	3779	3779	3779	3779	3821	3821	3821	3821	3821	3821	3821	3821	3821	3821	3821	3821	3864	3864	3821	3821	3821	3821	3821	3821	3821	3821	3821	3821	3821	3821	3821	3821	3821	3821	3821	3821	3821	3821	3821	3821	3821	3821	3821	3821	3821	3821	3821	3821	3821	3821	3821	3779	3779	3779	3779	3779	3779	3779	3779	3821	3779	3821	3821	3821	3821	3821	3821	3821	3821	3821	3779	3779	3821	3821	3821	3821	3864	3864	3864	3864	3864	3864	3864	3864	3864	3864	3864	3864	3864	3864	3864	3864	3821	3821	3864	3864	3864	3864	3864	3864	3864	3864	3864	3864	3864	3864	3864	3864	3864	3864	3821	3821	3821	3864	3821	3864	3864	3864	3864	3864	3864	3864	3864	3864	3864	3864	3864	3864	3821	3864	3821	3821	3864	3864	3864	3864	3864	3864	3864	3864	3864	3864	3864	3864	3864	3864	3864	3864	3864	3864	3864	3864	3821	3821	3821	3821	3821	3864	3864	3864	3864	3864	3821	3864	3821	3821	3821	3821	3864	3821	3821	3779	3779	3821	3864	3864	3821	3821	3779	3779	3779	3779	3779	3738	3738	3779	3779	3779	3821	3738	3738	3738	3779	3738	3738	3738	3738	3738	3738	3738	3738	3738	3738	3738	3738	3738	3738	3738	3779	3864	3864	3864	3864	3864	3907	3907	3864	3864	3864	3907	3952	3952	3952	3952	3907	3907	3907	3864	3864	0	0	0	0	0	0	0	0	0	0	0	0	0	0	0	0	0	0	0	0	0	0	0	0	0	0	0	0	0	0	0	0	0	0	0
0	0	0	0	0	0	0	0	1461	1461	1461	1467	1467	1473	1486	1499	1506	1512	1519	1519	1532	1560	1574	1603	1596	1603	1611	1618	1618	1618	2297	2312	2312	2312	2297	2312	2312	2297	2312	2312	2312	2327	2327	2327	2327	2327	2327	2327	2327	2327	2343	2343	2343	2343	2343	2327	2327	2327	2327	2343	2343	2343	2343	2343	2343	2343	2343	2343	2327	2327	2327	2327	2327	2327	2327	2327	2312	2327	2327	2343	2343	2343	2343	2343	2343	2327	2327	2327	2327	2343	2327	2327	2343	2312	2343	2343	2343	2343	2327	2327	2327	2327	2327	2312	2312	2327	2312	2312	2312	2327	2343	2376	2496	2551	2551	2551	2551	2570	2570	2570	2551	2551	2551	2551	2551	2551	2551	2551	2551	2570	2551	2570	2570	2570	2570	3129	3129	3129	3101	3101	3101	3101	3073	3101	3101	3101	3073	3073	3073	3073	3073	3073	3073	3073	3073	3101	3073	3073	3073	3621	3621	3621	3621	3621	3621	3621	3621	3621	3621	3621	3621	3659	3659	3659	3659	3659	3621	3621	3659	3659	3698	3738	3738	3738	3738	3738	3738	3738	3738	3738	3738	3779	3821	3821	3821	3821	3821	3821	3821	3821	3779	3779	3779	3779	3779	3779	3738	3738	3738	3738	3738	3698	3698	3698	3698	3659	3698	3698	3698	3738	3738	3738	3779	3779	3779	3738	3738	3698	3698	3698	3698	3698	3698	3738	3738	3698	3738	3738	3738	3738	3738	3738	3738	3738	3738	3738	3779	3738	3738	3738	3738	3738	3738	3738	0	3046	3019	3019	3019	2993	2993	2967	2967	2967	2942	2942	2942	2942	2942	2942	2967	2942	2967	2967	2967	2967	2942	2942	2942	2942	2967	2967	2967	2967	0	0	0	0	0	0	3738	3738	3779	3738	3738	3779	3779	3779	3738	3738	3738	3779	3779	3738	3738	3738	3738	3738	3738	3738	3738	3738	3738	3738	3779	3779	3779	3779	3779	3779	3779	3779	3779	3779	3779	3738	3738	3779	3738	3779	3779	3779	3779	3779	3779	3779	3779	3779	3779	3779	3779	3779	3779	3779	3779	3779	3779	3779	3779	3779	3779	3779	3779	3779	3779	3779	3779	3779	3821	3779	3821	3779	3779	3779	3779	3779	3779	3738	3779	3779	3779	3779	3779	3779	3779	3779	3779	3779	3779	3779	3821	3821	3821	3779	3821	3821	3821	3821	3821	3821	3821	3821	3864	3864	3821	3821	3821	3821	3821	3821	3821	3821	3821	3821	3821	3821	3821	3821	3821	3821	3821	3821	3821	3779	3821	3821	3779	3821	3821	3821	3821	3821	3821	3821	3821	3821	3821	3779	3779	3779	3779	3779	3779	3779	3779	3779	3779	3821	3821	3821	3821	3821	3821	3821	3821	3779	3779	3779	3779	3821	3821	3864	3864	3864	3864	3864	3864	3864	3864	3864	3864	3864	3864	3864	3864	3864	3864	3864	3821	3821	3821	3864	3864	3821	3821	3821	3864	3864	3864	3864	3864	3864	3864	3864	3864	3864	3821	3821	3821	3821	3821	3864	3864	3864	3864	3864	3864	3864	3864	3864	3864	3864	3864	3864	3821	3821	3821	3821	3864	3864	3821	3864	3821	3821	3821	3864	3864	3864	3864	3864	3864	3864	3864	3907	3864	3864	3864	3864	3821	3821	3821	3821	3821	3864	3864	3864	3864	3864	3821	3864	3864	3821	3821	3821	3821	3779	3738	3738	3738	3821	3779	3864	3821	3821	3821	3779	3779	3779	3779	3779	3779	3864	3864	3864	3864	3821	3738	3779	3779	3779	3779	3738	3738	3738	3738	3738	3738	3738	3738	3738	3738	3738	3738	3738	3779	3779	3864	3864	3864	3864	3864	3864	3864	3907	3907	3907	3952	3952	3952	3907	3907	3907	3907	3864	3864	0	0	0	0	0	0	0	0	0	0	0	0	0	0	0	0	0	0	0	0	0	0	0	0	0	0	0	0	0	0	0	0	0	0	0
0	0	0	0	0	0	0	0	1461	1461	1461	1467	1467	1473	1486	1499	1506	1512	1519	1519	1519	1560	1589	1603	1603	1603	1618	1611	1611	1611	0	2297	2297	2297	2297	2312	2312	2312	2312	2312	2312	2343	2343	2343	2343	2343	2343	2343	2343	2343	2359	2343	2343	2343	2343	2343	2343	2327	2343	2343	2343	2343	2343	2343	2343	2343	2343	2343	2343	2343	2343	2343	2327	2327	2343	2343	2327	2343	2343	2359	2359	2359	2343	2343	2343	2343	2327	2327	2327	2327	2327	2327	2327	2327	2343	2343	2343	2343	2343	2327	2327	2327	2327	2327	2327	2343	2343	2343	2343	2343	2359	2376	2409	2409	2551	2551	2551	2570	2551	2570	2551	2551	2551	2551	2551	2551	2551	2551	2551	2570	2570	2570	2570	2570	2570	3157	3129	3129	3101	3129	3101	3101	3101	3101	3101	3101	3073	3073	3073	3073	3073	3073	3073	3073	3073	3101	3073	3073	3101	3101	3621	3621	3621	3621	3621	3621	3621	3621	3621	3621	3621	3621	3659	3659	3659	3659	3659	3659	3659	3698	3738	3738	3738	3738	3738	3779	3738	3779	3738	3738	3738	3821	3779	3779	3779	3779	3821	3821	3821	3821	3779	3821	3821	3779	3779	3779	3738	3738	3738	3738	3698	3698	3698	3698	3698	3698	3698	3698	3698	3738	3738	3738	3779	3779	3738	3738	3738	3698	3698	3698	3698	3698	3698	3738	3738	3738	3738	3738	3738	3738	3738	3738	3738	3738	3738	3738	3779	3779	3779	3738	3738	3779	3779	0	0	3046	3019	3019	3019	3019	3019	2993	2967	2967	2967	2942	2942	2942	2942	2942	2942	2942	2942	2942	2967	2967	2942	2942	2942	2942	2967	2942	2942	2967	2967	0	0	0	0	3698	3738	3738	3738	3738	3738	3738	3779	3738	3738	3738	3738	3779	3779	3738	3738	3738	3738	3738	3738	3738	3738	3738	3738	3738	3779	3779	3779	3779	3779	3779	3779	3779	3779	3779	3779	3738	3738	3738	3738	3779	3779	3779	3779	3779	3779	3779	3779	3821	3779	3779	3779	3779	3779	3779	3779	3779	3779	3779	3779	3779	3779	3779	3779	3779	3779	3779	3779	3779	3779	3779	3779	3779	3779	3779	3779	3779	3779	3779	3779	3779	3779	3779	3779	3779	3779	3779	3779	3779	3779	3779	3821	3821	3821	3779	3779	3779	3779	3779	3821	3821	3821	3821	3821	3821	3821	3821	3821	3821	3821	3821	3821	3821	3779	3779	3779	3821	3821	3821	3821	3821	3821	3821	3779	3779	3779	3779	3779	3821	3821	3821	3821	3821	3821	3821	3779	3779	3779	3779	3779	3779	3779	3779	3779	3779	3779	3779	3779	3779	3821	3821	3821	3821	3821	3821	3821	3779	3779	3779	3821	3821	3821	3864	3864	3864	3864	3864	3864	3864	3864	3864	3864	3864	3864	3864	3864	3864	3864	3864	3821	3821	3821	3821	3821	3821	3821	3821	3864	3864	3864	3864	3864	3864	3864	3864	3864	3864	3821	3821	3821	3821	3821	3821	3864	3864	3864	3864	3864	3864	3864	3864	3821	3864	3821	3821	3821	3821	3821	3821	3821	3821	3821	3864	3821	3821	3821	3864	3864	3864	3864	3864	3864	3864	3907	3907	3864	3864	3864	3864	3821	3821	3821	3821	3821	3821	3821	3864	3864	3864	3864	3864	3864	3821	3821	3738	3779	3779	3738	3738	3738	3738	3821	3864	3864	3864	3821	3821	3821	3821	3821	3779	3821	3864	3864	3864	3864	3821	3738	3821	3738	3779	3738	3738	3738	3738	3738	3738	3738	3738	3738	3738	3738	3738	3738	3738	3779	3779	3779	3779	3864	3821	3821	3864	3821	3821	3907	3907	3907	3952	3952	3952	3907	3907	3907	3864	3864	0	0	0	0	0	0	0	0	0	0	0	0	0	0	0	0	0	0	0	0	0	0	0	0	0	0	0	0	0	0	0	0	0	0	0
0	0	0	0	0	0	0	0	1461	1461	1461	1467	1467	1473	1492	1499	1506	1519	1519	1519	1519	1567	1596	1611	1611	1611	1611	1611	1618	1626	1626	1626	2297	2312	2312	2312	2312	2312	2312	2327	2312	2343	2343	2343	2343	2343	2359	2343	2359	2359	2359	2359	2359	2359	2359	2343	2343	2343	2343	2359	2343	2343	2343	2359	2359	2359	2343	2343	2343	2343	2343	2343	2343	2343	2343	2343	2343	2343	2343	2359	2359	2343	2343	2343	2343	2343	2343	2343	2343	2327	2343	2343	2343	2343	2359	2343	2343	2359	2343	2343	2327	2343	2327	2327	2327	2343	2359	2343	2343	2359	2359	2376	2392	2392	2551	2551	2551	2551	2551	2570	2551	2551	2551	2551	2551	2551	2551	2551	2551	2570	2570	2570	2570	2570	2570	3157	3129	3129	3129	3129	3101	3101	3101	3101	3101	3101	3101	3101	3073	3101	3101	3101	3101	3101	3101	3101	3101	3101	3101	3101	3101	3621	3621	3621	3621	3621	3621	3621	3621	3659	3659	3659	3659	3659	3698	3659	3659	3659	3659	3698	3698	3738	3738	3738	3738	3738	3738	3738	3738	3738	3738	3779	3779	3821	3779	3779	3779	3779	3779	3779	3779	3779	3821	3779	3779	3779	3738	3738	3738	3698	3698	3698	3698	3698	3698	3698	3698	3738	3738	3738	3738	3738	3738	3738	3738	3738	3738	3698	3698	3698	3698	3698	3738	3738	3738	3698	3698	3738	3738	3779	3738	3738	3738	3738	3738	3738	3738	3738	3738	3738	3738	3738	3738	3738	0	3046	3019	3019	3019	2993	2993	2993	2967	2967	2942	2942	2942	2942	2942	2942	2942	2942	2942	2967	2967	2967	2942	2942	2942	2967	2967	2967	2967	2967	2967	2967	2967	2967	0	3698	3698	3738	3738	3738	3738	3738	3779	3738	3738	3738	3738	3779	3779	3738	3779	3738	3738	3738	3738	3738	3738	3738	3738	3738	3738	3779	3779	3779	3779	3779	3779	3779	3779	3779	3779	3738	3738	3779	3738	3779	3779	3779	3779	3779	3779	3779	3779	3779	3779	3779	3779	3779	3738	3779	3779	3779	3779	3779	3779	3779	3779	3779	3779	3779	3779	3779	3779	3779	3779	3779	3779	3779	3738	3738	3779	3779	3779	3779	3779	3779	3779	3779	3779	3779	3779	3779	3779	3779	3779	3779	3821	3821	3821	3779	3821	3779	3779	3779	3821	3821	3821	3821	3821	3821	3821	3821	3821	3821	3821	3821	3779	3779	3779	3779	3779	3779	3779	3821	3821	3821	3821	3821	3779	3779	3779	3779	3779	3821	3821	3821	3821	3821	3821	3821	3821	3779	3779	3779	3779	3779	3779	3779	3779	3779	3779	3779	3779	3779	3821	3821	3821	3821	3821	3821	3821	3779	3779	3779	3821	3821	3821	3864	3864	3864	3821	3864	3864	3821	3821	3821	3821	3864	3864	3864	3864	3864	3864	3864	3821	3821	3864	3821	3864	3821	3821	3821	3821	3864	3864	3864	3864	3864	3864	3864	3864	3864	3821	3821	3821	3821	3821	3821	3821	3821	3864	3864	3864	3864	3864	3864	3864	3864	3864	3864	3821	3821	3821	3821	3864	3821	3821	3864	3821	3821	3821	3864	3864	3864	3864	3864	3864	3864	3864	3864	3864	3864	3864	3864	3864	3864	3821	3821	3821	3821	3864	3864	3864	3864	3864	3864	3864	3821	3779	3779	3779	3779	3738	3738	3738	3738	3864	3864	3864	3864	3864	3864	3864	3821	3821	3779	3779	3864	3864	3821	3821	3821	3821	3779	3779	3779	3698	3738	3738	3698	3738	3738	3738	3738	3738	3738	3738	3738	3738	3738	3779	3779	3779	3821	3864	3821	3864	3864	3864	3864	3864	3864	3907	3907	3907	3952	3907	3907	3907	3907	3907	0	0	0	0	0	0	0	0	0	0	0	0	0	0	0	0	0	0	0	0	0	0	0	0	0	0	0	0	0	0	0	0	0	0	0
0	0	0	0	0	0	0	0	1461	1461	1461	1467	1467	1467	1486	1499	1506	1512	1519	1519	1519	1519	1611	1611	1611	1611	1611	1611	1618	1626	1618	1618	0	2312	2312	2312	2312	2327	2327	2343	2327	2359	2359	2359	2392	2392	2359	2359	2376	2376	2376	2376	2376	2376	2359	2359	2343	2343	2343	2359	2343	2343	2343	2359	2359	2359	2343	2343	2343	2343	2343	2343	2343	2343	2343	2343	2343	2343	2343	2359	2359	2359	2343	2359	2343	2343	2359	2343	2359	2343	2343	2359	2376	2376	2376	2376	2376	2376	2359	2343	2343	2343	2343	2343	2327	2343	2359	2343	2343	2359	2359	2376	2392	2359	2376	2551	2551	2551	2551	2570	2551	2551	2551	2551	2551	2551	2551	2551	2551	2551	2551	2551	2570	2570	2570	3157	3129	3129	3129	3129	3129	3129	3101	3101	3129	3101	3101	3101	3101	3101	3101	3101	3101	3101	3101	3129	3129	3129	3129	3129	3129	3129	3621	3621	3621	3621	3659	3659	3621	3659	3659	3659	3659	3659	3698	3698	3659	3659	3659	3698	3698	3698	3738	3738	3738	3738	3738	3779	3738	3779	3779	3779	3779	3779	3779	3779	3779	3779	3779	3779	3779	3779	3779	3779	3779	3779	3738	3738	3738	3698	3698	3698	3698	3698	3698	3698	3698	3698	3738	3698	3698	3698	3738	3738	3738	3738	3698	3698	3698	3698	3698	3698	3698	3738	3738	3698	3738	3738	3738	3738	3779	3738	3738	3738	3738	3698	3738	3738	3738	3738	3738	3738	3738	3738	0	3046	3019	3019	2993	2993	2993	2967	2967	2967	2942	2942	2942	2942	2942	2942	2942	2942	2967	2967	2967	2967	2942	2942	2942	2967	2967	2967	2967	2967	2967	2967	2967	2967	0	3698	3698	3698	3738	3738	3738	3738	3779	3738	3738	3738	3779	3779	3779	3738	3779	3738	3738	3738	3738	3738	3738	3738	3738	3738	3779	3779	3779	3779	3779	3779	3779	3779	3779	3779	3779	3738	3738	3738	3738	3779	3779	3779	3779	3779	3821	3779	3821	3821	3779	3779	3779	3779	3738	3779	3779	3779	3779	3779	3779	3779	3779	3779	3779	3779	3779	3779	3779	3779	3779	3779	3779	3779	3738	3779	3779	3779	3779	3779	3779	3779	3779	3779	3779	3779	3779	3779	3779	3779	3779	3779	3821	3821	3821	3821	3779	3779	3821	3779	3821	3864	3821	3864	3864	3821	3821	3821	3821	3821	3821	3821	3779	3779	3779	3779	3779	3821	3821	3821	3821	3821	3821	3821	3779	3779	3779	3779	3779	3779	3779	3779	3821	3821	3821	3821	3821	3779	3779	3779	3779	3779	3779	3738	3779	3779	3779	3779	3779	3779	3779	3821	3821	3821	3821	3821	3821	3779	3779	3779	3821	3821	3821	3864	3864	3821	3821	3821	3821	3821	3821	3864	3864	3864	3864	3864	3864	3864	3864	3864	3864	3821	3864	3864	3864	3821	3821	3821	3821	3864	3864	3864	3864	3864	3864	3864	3864	3864	3821	3821	3821	3821	3821	3821	3821	3821	3864	3821	3821	3821	3821	3821	3821	3864	3821	3821	3821	3821	3821	3821	3864	3821	3821	3864	3821	3821	3821	3864	3864	3864	3864	3864	3864	3864	3864	3864	3864	3864	3864	3864	3821	3821	3821	3821	3821	3821	3821	3821	3821	3864	3821	3821	3821	3821	3821	3779	3779	3779	3779	3821	3821	3821	3821	3864	3864	3864	3821	3821	3821	3821	3821	3821	3864	3864	3864	3821	3821	3821	3738	3779	3738	3738	3738	3738	3738	3738	3738	3738	3738	3738	3738	3738	3738	3738	3738	3738	3779	3779	3821	3821	3821	3821	3821	3821	3821	3821	3821	3864	3907	3907	3907	3907	3952	3952	3907	3907	3907	0	0	0	0	0	0	0	0	0	0	0	0	0	0	0	0	0	0	0	0	0	0	0	0	0	0	0	0	0	0	0	0	0	0	0
0	0	0	0	0	0	0	0	1461	1467	1467	1467	1467	1473	1492	1499	1506	1512	1519	1512	1512	1618	1611	1611	1611	1611	1611	1611	1618	1618	1618	1618	1618	2312	2312	2327	2327	2327	2327	2327	2327	2359	2359	2409	2409	2409	2376	2376	2376	2376	2376	2376	2376	2376	2376	2359	2359	2359	2359	2376	2359	2359	2359	2359	2359	2359	2359	2343	2359	2359	2359	2343	2343	2343	2343	2343	2343	2343	2359	2392	2376	2359	2376	2376	2359	2359	2376	2359	2359	2359	2359	2376	2376	2376	2376	2376	2376	2376	2376	2359	2359	2359	2343	2343	2343	2359	2376	2359	2343	2359	2376	2376	2392	2392	2392	2551	2551	2551	2551	2551	2551	2551	2551	2551	2551	2551	2551	2551	2551	2570	2570	2551	2570	2570	2570	3157	3129	3129	3129	3129	3129	3129	3101	3129	3129	3129	3101	3129	3129	3129	3129	3129	3129	3129	3129	3129	3129	3129	3129	3129	3129	3129	3129	3621	3621	3621	3621	3621	3621	3659	3659	3659	3659	3659	3659	3659	3659	3659	3659	3698	3698	3698	3698	3738	3738	3779	3779	3779	3779	3779	3779	3779	3779	3779	3779	3738	3779	3779	3738	3779	3779	3779	3779	3779	3779	3779	3738	3738	3738	3698	3698	3698	3698	3698	3698	3698	3698	3698	3738	3738	3738	3738	3738	3738	3698	3698	3698	3698	3698	3698	3698	3698	3698	3698	3738	3698	3698	3698	3738	3738	3738	3738	3698	3698	3698	3698	3738	3738	3738	3738	3738	3779	3738	3738	0	0	2993	3019	2993	2967	2967	2967	2967	2967	2942	2942	2942	2942	2942	2942	2942	2942	2967	2967	2967	2967	2942	2967	2967	2967	2967	2967	2967	2967	2967	2967	2967	2967	0	0	3698	3698	3738	3738	3738	3738	3738	3738	3738	3738	3779	3779	3738	3738	3779	3738	3738	3738	3738	3738	3738	3738	3738	3738	3779	3779	3779	3779	3779	3779	3779	3779	3779	3779	3779	3779	3779	3779	3779	3779	3779	3779	3779	3779	3821	3779	3821	3821	3779	3779	3779	3738	3738	3738	3738	3738	3779	3779	3779	3779	3779	3779	3779	3779	3779	3779	3779	3779	3779	3779	3779	3779	3779	3779	3779	3779	3779	3779	3779	3779	3779	3779	3779	3779	3779	3779	3779	3779	3779	3779	3821	3821	3821	3821	3821	3821	3821	3821	3821	3821	3821	3821	3864	3821	3821	3821	3821	3821	3821	3821	3779	3779	3779	3779	3821	3821	3821	3821	3821	3821	3821	3821	3779	3779	3779	3779	3779	3779	3779	3779	3821	3821	3821	3821	3821	3779	3779	3779	3779	3779	3779	3738	3779	3738	3779	3779	3779	3779	3779	3821	3821	3821	3821	3821	3821	3779	3821	3779	3821	3821	3864	3864	3821	3821	3821	3821	3821	3821	3821	3864	3821	3864	3864	3864	3864	3864	3864	3864	3864	3864	3864	3864	3864	3821	3864	3864	3864	3864	3864	3864	3864	3864	3864	3864	3864	3864	3864	3864	3864	3864	3864	3864	3864	3821	3864	3821	3821	3821	3864	3864	3864	3864	3821	3864	3864	3821	3821	3821	3821	3821	3821	3821	3821	3821	3779	3821	3821	3821	3821	3864	3864	3864	3907	3907	3864	3864	3864	3864	3821	3821	3821	3821	3821	3821	3821	3821	3864	3864	3821	3821	3821	3821	3821	3821	3821	3821	3821	3821	3821	3821	3864	3864	3864	3864	3864	3821	3864	3864	3821	3864	3864	3864	3864	3821	3821	3821	3821	3779	3779	3738	3738	3738	3738	3738	3738	3738	3738	3738	3738	3738	3738	3738	3738	3738	3779	3821	3821	3821	3821	3821	3821	3821	3821	3864	3864	3864	3907	3907	3907	3907	3952	3952	3952	3907	3907	0	0	0	0	0	0	0	0	0	0	0	0	0	0	0	0	0	0	0	0	0	0	0	0	0	0	0	0	0	0	0	0	0	0	0
0	0	0	0	0	0	0	0	1461	1467	1467	1467	1467	1480	1492	1499	1506	1512	1506	1486	1486	1626	1618	1618	1611	1611	1618	1611	1618	1618	1626	1626	1626	1626	2312	2327	2327	2327	2343	2359	2359	2376	2376	2392	2426	2392	2392	2392	2392	2392	2392	2392	2392	2376	2376	2376	2376	2376	2376	2392	2376	2376	2376	2376	2376	2376	2359	2359	2359	2359	2359	2359	2359	2359	2359	2359	2359	2359	2359	2392	2392	2392	2392	2392	2376	2376	2376	2376	2376	2376	2376	2376	2392	2392	2392	2376	2376	2392	2376	2376	2376	2359	2359	2359	2359	2376	2376	2376	2359	2376	2376	2376	2409	2409	2409	2532	2532	2551	2551	2551	2551	2551	2551	2551	2551	2551	2551	2551	2551	2570	2551	2551	2570	2570	2570	3157	3129	3129	3129	3129	3129	3129	3129	3129	3129	3129	3129	3157	3157	3157	3157	3157	3129	3157	3157	3129	3129	3129	3129	3129	3129	3129	3129	3659	3621	3621	3621	3621	3621	3659	3659	3659	3621	3659	3659	3659	3659	3659	3659	3698	3698	3698	3698	3698	3738	3779	3738	3738	3779	3779	3779	3779	3738	3738	3738	3738	3738	3738	3738	3738	3738	3779	3779	3779	3779	3779	3738	3738	3698	3698	3698	3698	3698	3698	3698	3698	3698	3698	3698	3738	3738	3738	3738	3698	3698	3698	3698	3698	3698	3698	3698	3698	3698	3698	3738	3698	3698	3698	3738	3738	3738	3738	3698	3698	3698	3698	3738	3738	3738	3738	3738	3738	3738	3738	0	0	2993	2993	2993	2967	2967	2967	2967	2967	2942	2942	2942	2942	2942	2942	2942	2942	2967	2967	2967	2967	2942	2967	2967	2942	2942	2967	2967	2967	2967	2967	2967	2967	0	0	3698	3698	3698	3698	3738	3738	3738	3738	3738	3738	3738	3738	3738	3738	3738	3738	3738	3738	3738	3738	3738	3738	3738	3738	3779	3779	3779	3779	3779	3779	3779	3779	3779	3779	3779	3779	3779	3779	3779	3779	3779	3779	3779	3779	3779	3779	3779	3779	3779	3779	3779	3738	3738	3738	3738	3738	3779	3779	3779	3779	3779	3779	3779	3779	3779	3779	3779	3779	3779	3779	3779	3779	3779	3779	3779	3779	3779	3779	3779	3779	3779	3779	3779	3779	3779	3738	3779	3779	3779	3779	3821	3821	3821	3821	3821	3821	3821	3821	3821	3821	3821	3821	3821	3821	3821	3821	3821	3821	3821	3821	3779	3779	3779	3779	3821	3779	3779	3779	3779	3821	3779	3779	3779	3779	3779	3779	3779	3779	3779	3779	3779	3779	3779	3779	3821	3779	3779	3779	3779	3779	3779	3738	3738	3779	3779	3779	3779	3779	3779	3821	3821	3821	3821	3821	3821	3821	3821	3821	3864	3821	3821	3864	3821	3821	3821	3821	3821	3821	3821	3821	3821	3864	3864	3864	3864	3864	3864	3864	3864	3864	3864	3864	3864	3821	3821	3864	3864	3864	3864	3864	3864	3864	3864	3864	3864	3864	3864	3864	3864	3864	3864	3864	3864	3864	3864	3821	3821	3821	3821	3864	3864	3864	3821	3864	3821	3821	3821	3821	3821	3821	3821	3821	3821	3821	3779	3821	3821	3821	3821	3821	3864	3864	3907	3907	3907	3907	3864	3864	3821	3821	3821	3821	3821	3821	3821	3821	3821	3821	3821	3779	3821	3779	3821	3779	3779	3821	3821	3821	3821	3821	3864	3864	3864	3864	3864	3864	3864	3821	3821	3864	3864	3821	3821	3821	3821	3821	3821	3779	3738	3738	3738	3738	3738	3738	3738	3738	3738	3738	3738	3738	3738	3738	3738	3738	3779	3779	3821	3821	3821	3821	3821	3821	3821	3864	3864	3864	3864	3864	3907	3907	3907	3952	3952	3907	3907	0	0	0	0	0	0	0	0	0	0	0	0	0	0	0	0	0	0	0	0	0	0	0	0	0	0	0	0	0	0	0	0	0	0	0
0	0	0	0	0	0	0	0	1461	1467	1467	1473	1473	1486	1506	1506	1506	1512	1512	1512	1634	1634	1626	1618	1618	1618	1618	1618	1618	1626	1626	1626	1634	1641	1641	1649	1649	1649	2343	2376	2376	2392	2392	2392	2392	2392	2392	2392	2392	2392	2392	2392	2392	2392	2392	2392	2392	2392	2392	2392	2392	2376	2376	2376	2376	2376	2359	2359	2376	2376	2376	2359	2359	2359	2376	2359	2409	2376	2392	2392	2409	2409	2392	2392	2392	2392	2392	2376	2376	2376	2392	2392	2392	2392	2392	2392	2392	2392	2392	2376	2376	2376	2376	2376	2376	2376	2376	2392	2376	2392	2392	2392	2409	2409	2426	2532	2532	2532	2532	2551	2551	2551	2551	2551	2570	2570	2551	2551	2551	2551	2551	2551	2551	2551	2551	3129	3129	3129	3129	3129	3129	3129	3129	3157	3157	3157	3157	3157	3157	3157	3186	3157	3157	3157	3157	3157	3129	3129	3129	3157	3129	3129	3129	3659	3621	3621	3621	3621	3621	3621	3621	3659	3659	3659	3659	3659	3659	3659	3659	3698	3698	3698	3698	3738	3738	3779	3738	3738	3779	3779	3779	3779	3738	3738	3738	3738	3738	3738	3738	3738	3779	3779	3779	3779	3779	3779	3738	3738	3738	3738	3698	3698	3698	3698	3698	3698	3698	3698	3738	3698	3738	3738	3698	3698	3698	3698	3698	3698	3698	3698	3698	3698	3738	3698	3738	3698	3698	3698	3738	3738	3738	3738	3698	3698	3698	3698	3738	3738	3738	3738	3738	3738	3738	3738	0	0	3019	3019	2993	2993	2993	2993	2967	2967	2942	2942	2942	2942	2942	2942	2942	2942	2942	2942	2967	2942	2942	2967	2967	2942	2942	2967	2967	2967	2967	2942	2942	0	0	0	0	3738	3738	3698	3738	3738	3738	3738	3698	3698	3738	3738	3738	3738	3738	3738	3738	3738	3738	3738	3738	3738	3738	3738	3779	3779	3779	3779	3779	3779	3779	3779	3779	3779	3779	3779	3779	3779	3779	3779	3779	3779	3779	3779	3779	3779	3779	3779	3779	3779	3779	3738	3738	3738	3738	3738	3779	3738	3779	3779	3779	3779	3779	3779	3779	3779	3779	3779	3779	3779	3779	3779	3779	3779	3779	3779	3779	3779	3779	3779	3779	3779	3779	3779	3779	3779	3779	3779	3779	3779	3821	3821	3821	3821	3821	3821	3821	3821	3821	3821	3821	3821	3821	3821	3821	3821	3821	3821	3821	3821	3779	3779	3779	3779	3779	3779	3779	3779	3779	3821	3779	3821	3779	3821	3821	3779	3779	3779	3779	3779	3779	3779	3779	3779	3779	3779	3779	3779	3779	3779	3779	3779	3779	3779	3779	3779	3779	3779	3779	3821	3821	3821	3821	3821	3821	3821	3821	3821	3864	3864	3864	3864	3821	3821	3821	3821	3821	3821	3821	3821	3821	3864	3864	3864	3864	3864	3864	3864	3864	3864	3864	3864	3821	3821	3864	3864	3864	3864	3864	3864	3864	3864	3821	3821	3864	3864	3864	3864	3864	3864	3864	3864	3864	3821	3821	3821	3821	3821	3821	3864	3864	3864	3821	3821	3821	3821	3821	3821	3821	3821	3821	3821	3821	3779	3779	3821	3821	3821	3821	3821	3864	3864	3907	3821	3907	3907	3864	3864	3821	3821	3821	3821	3821	3821	3821	3821	3821	3821	3779	3779	3779	3779	3821	3779	3821	3821	3821	3821	3821	3821	3864	3864	3864	3864	3864	3864	3864	3821	3821	3821	3821	3821	3821	3821	3821	3821	3821	3821	3738	3738	3738	3779	3738	3738	3738	3738	3738	3738	3738	3738	3738	3738	3738	3738	3779	3779	3779	3821	3821	3779	3821	3821	3821	3821	3864	3821	3821	3821	3821	3907	3907	0	0	0	0	0	0	0	0	0	0	0	0	0	0	0	0	0	0	0	0	0	0	0	0	0	0	0	0	0	0	0	0	0	0	0	0	0	0	0
0	0	0	0	0	0	0	0	1461	1461	1467	1467	1473	1486	1506	1506	1512	1512	1512	1512	1641	1641	1626	1626	1618	1618	1618	1618	1618	1626	1626	1634	1634	1634	1641	1649	1649	1649	0	2392	2392	2409	2409	2409	2409	2409	2392	2392	2409	2392	2409	2409	2409	2392	2409	2392	2392	2392	2392	2392	2392	2392	2392	2392	2392	2392	2376	2376	2376	2376	2376	2376	2376	2376	2376	2376	2392	2392	2392	2409	2409	2409	2409	2409	2409	2409	2409	2392	2392	2392	2392	2392	2392	2392	2392	2392	2392	2392	2392	2392	2392	2392	2392	2392	2392	2376	2392	2392	2376	2392	2392	2392	2409	2409	2409	2478	2514	2514	2532	2551	2551	2551	2551	2551	2551	2551	2551	2551	2551	2551	2551	2551	2551	2532	2532	3129	3129	3129	3129	3129	3129	3129	3129	3157	3157	3157	3186	3186	3186	3186	3186	3186	3186	3186	3186	3157	3157	3157	3157	3157	3157	3157	3157	3621	3621	3621	3621	3621	3621	3659	3659	3659	3659	3659	3659	3659	3659	3659	3659	3698	3698	3698	3738	3738	3738	3738	3738	3738	3738	3738	3738	3779	3738	3738	3738	3698	3738	3738	3698	3738	3779	3779	3779	3779	3779	3779	3779	3738	3738	3738	3698	3738	3698	3698	3698	3698	3698	3698	3738	3738	3738	3738	3698	3698	3698	3698	3698	3698	3738	3738	3738	3738	3738	3738	3738	3698	3738	3698	3738	3738	3738	3738	3698	3698	3698	3698	3738	3738	3738	3738	3738	3738	3738	3864	3864	3864	3019	3019	2993	2993	2993	2993	2967	2967	2967	2942	2942	2942	2942	2942	2942	2942	2942	2942	2942	2942	2942	2967	2967	2942	2967	2967	2967	2967	2942	2942	2942	0	0	0	3738	3738	3738	3698	3738	3698	3698	3698	3738	3738	3738	3738	3738	3738	3738	3738	3738	3738	3779	3779	3738	3779	3738	3738	3779	3779	3779	3779	3779	3779	3779	3779	3779	3779	3779	3779	3779	3779	3779	3779	3779	3779	3779	3779	3779	3779	3779	3779	3779	3779	3738	3738	3738	3738	3738	3738	3779	3779	3779	3779	3779	3779	3779	3779	3779	3779	3779	3779	3779	3779	3779	3779	3779	3779	3779	3779	3779	3779	3779	3779	3779	3779	3779	3779	3779	3779	3779	3779	3779	3779	3821	3821	3821	3821	3821	3821	3821	3821	3821	3821	3821	3821	3821	3821	3821	3821	3821	3821	3821	3821	3779	3779	3779	3779	3779	3779	3779	3779	3779	3779	3779	3779	3779	3779	3821	3821	3779	3821	3821	3779	3779	3779	3779	3779	3779	3779	3779	3779	3779	3779	3779	3779	3779	3779	3779	3779	3779	3779	3779	3821	3821	3821	3821	3821	3821	3821	3779	3821	3864	3821	3821	3821	3821	3821	3821	3821	3821	3821	3821	3821	3821	3821	3864	3864	3864	3864	3864	3864	3864	3864	3864	3864	3821	3821	3864	3864	3864	3864	3864	3864	3864	3821	3821	3821	3821	3864	3864	3864	3864	3864	3864	3864	3864	3821	3821	3821	3821	3821	3821	3864	3864	3864	3821	3821	3821	3821	3821	3821	3821	3821	3821	3821	3821	3821	3821	3864	3821	3821	3821	3821	3864	3864	3864	3821	3864	3907	3864	3864	3821	3821	3821	3821	3821	3821	3821	3779	3821	3821	3779	3779	3821	3821	3821	3821	3821	3821	3821	3864	3864	3864	3864	3864	3864	3864	3864	3864	3864	3821	3821	3821	3821	3821	3821	3779	3821	3821	3821	3821	3779	3738	3738	3779	3738	3738	3738	3738	3738	3738	3738	3738	3738	3738	3738	3738	3738	3738	3738	3779	3779	3738	3779	3779	3779	3779	3779	3779	3779	3821	3821	0	0	0	0	0	0	0	0	0	0	0	0	0	0	0	0	0	0	0	0	0	0	0	0	0	0	0	0	0	0	0	0	0	0	0	0	0	0	0	0	0
0	0	0	0	0	0	0	0	1461	1461	1461	1467	1467	1486	1506	1506	1512	1519	1519	1519	1649	1649	1634	1626	1626	1626	1626	1626	1626	1634	1634	1641	1641	1641	1649	1649	1649	1649	0	2392	2392	2409	2409	2409	2409	2409	2392	2392	2409	2392	2409	2409	2409	2409	2409	2409	2409	2409	2409	2392	2392	2392	2392	2392	2392	2392	2392	2392	2392	2392	2392	2392	2392	2392	2392	2392	2392	2392	2409	2409	2409	2409	2409	2409	2409	2409	2409	2409	2409	2409	2409	2409	2392	2392	2392	2392	2392	2392	2392	2392	2392	2392	2392	2392	2392	2376	2392	2392	2392	2409	2409	2409	2426	2426	2426	2460	2478	2496	2496	2496	2551	2551	2551	2551	2551	2551	2551	2551	2551	2551	2551	2551	2551	2532	2532	3129	3129	3129	3129	3129	3157	3157	3157	3157	3157	3186	3186	3186	3186	3186	3216	3216	3186	3186	3186	3186	3186	3157	3157	3186	3186	3216	3216	3216	3659	3621	3621	3621	3621	3621	3659	3659	3659	3659	3659	3659	3659	3659	3621	3659	3698	3698	3738	3738	3738	3738	3738	3738	3779	3738	3738	3779	3738	3738	3738	3698	3738	3738	3738	3779	3779	3779	3821	3779	3779	3779	3779	3738	3738	3738	3738	3698	3698	3698	3738	3738	3738	3738	3738	3738	3738	3738	3698	3698	3698	3698	3698	3698	3698	3738	3779	3738	3738	3738	3738	3698	3738	3738	3738	3738	3738	3738	3738	3698	3698	3698	3738	3738	3738	3738	3738	3738	3738	3864	3864	3864	3019	3019	2993	2993	2993	2967	2967	2967	2967	2942	2942	2942	2942	2942	2942	2942	2942	2942	2942	2942	2942	2967	2967	2942	2942	2967	2967	2967	2942	2967	2967	0	0	0	3738	3738	3738	3698	3698	3738	3698	3738	3738	3738	3738	3738	3738	3738	3738	3738	3738	3738	3779	3779	3738	3779	3738	3738	3779	3779	3779	3779	3779	3779	3779	3779	3779	3779	3779	3779	3779	3779	3779	3779	3779	3779	3779	3779	3779	3779	3779	3779	3779	3738	3738	3738	3738	3738	3738	3738	3738	3738	3738	3738	3779	3779	3779	3779	3779	3779	3779	3779	3779	3779	3779	3779	3779	3779	3779	3779	3779	3779	3779	3779	3779	3779	3779	3779	3779	3738	3738	3779	3779	3779	3821	3821	3821	3821	3821	3821	3821	3821	3821	3821	3821	3821	3821	3821	3821	3821	3821	3821	3821	3779	3779	3779	3779	3779	3779	3779	3779	3779	3779	3779	3779	3779	3779	3779	3779	3779	3779	3779	3779	3779	3779	3779	3779	3779	3779	3779	3779	3779	3779	3779	3779	3779	3779	3779	3779	3779	3779	3779	3779	3821	3821	3821	3821	3821	3821	3821	3779	3779	3864	3821	3821	3821	3821	3821	3821	3821	3821	3821	3821	3821	3821	3821	3864	3821	3821	3864	3821	3821	3821	3864	3864	3864	3864	3821	3864	3864	3864	3864	3864	3864	3821	3821	3821	3821	3821	3864	3864	3864	3864	3864	3864	3864	3864	3821	3821	3821	3821	3821	3821	3864	3864	3864	3864	3821	3821	3821	3821	3821	3821	3821	3821	3821	3821	3821	3821	3864	3864	3864	3864	3864	3864	3864	3864	3821	3864	3907	3864	3864	3821	3821	3864	3821	3864	3821	3821	3821	3821	3821	3779	3779	3779	3779	3821	3821	3821	3821	3821	3864	3864	3864	3864	3864	3864	3864	3864	3864	3864	3821	3821	3821	3821	3821	3821	3821	3821	3821	3821	3821	3821	3779	3779	3779	3738	3738	3738	3738	3738	3738	3698	3698	3698	3738	3738	3698	3779	3779	3779	3779	3779	3738	3738	3738	3779	3779	3779	3779	3779	0	0	0	0	0	0	0	0	0	0	0	0	0	0	0	0	0	0	0	0	0	0	0	0	0	0	0	0	0	0	0	0	0	0	0	0	0	0	0	0	0	0	0
0	0	0	0	0	0	0	0	1461	1461	1467	1467	1473	1486	1499	1499	1506	1512	1512	1512	1657	1657	1641	1649	1634	1634	1634	1634	1634	1649	1641	1641	1649	1649	1649	1657	1657	1649	1649	0	2392	2409	2409	2409	2409	2409	2409	2409	2409	2409	2409	2409	2409	2409	2409	2409	2409	2409	2409	2409	2409	2392	2392	2392	2392	2392	2392	2392	2409	2392	2409	2392	2392	2392	2392	2392	2392	2392	2409	2409	2426	2426	2426	2426	2426	2426	2426	2426	2409	2409	2409	2409	2409	2409	2409	2409	2409	2409	2409	2409	2409	2409	2409	2392	2392	2392	2392	2392	2392	2426	2443	2443	2443	2443	2443	2460	2478	2478	2496	2532	2532	2532	2551	2551	2551	2570	2570	2551	2551	2551	2551	2551	2551	2551	2551	2551	3129	3157	3157	3157	3157	3157	3186	3186	3186	3216	3216	3216	3216	3216	3216	3216	3216	3216	3216	3186	3186	3186	3186	3216	3216	3216	3246	3246	3246	3621	3621	3621	3621	3621	3659	3659	3659	3659	3659	3659	3659	3621	3621	3659	3698	3698	3738	3738	3738	3779	3738	3779	3779	3779	3738	3779	3738	3738	3698	3698	3738	3738	3738	3738	3779	3779	3779	3779	3779	3779	3738	3738	3738	3738	3738	3738	3738	3698	3738	3738	3738	3738	3698	3738	3738	3698	3698	3698	3698	3698	3698	3698	3738	3738	3738	3738	3738	3698	3698	3698	3698	3698	3738	3738	3738	3738	3738	3698	3738	3698	3738	3738	3738	3738	3738	3738	3738	3738	3864	3864	0	3019	2993	2993	2993	2967	2967	2967	2942	2942	2942	2942	2942	2942	2942	2942	2942	2942	2967	2942	2942	2967	2967	2967	2967	2967	2967	2967	2942	2942	2942	0	0	0	0	0	3738	3738	3738	3738	3738	3738	3738	3738	3738	3738	3738	3738	3738	3738	3738	3779	3779	3779	3779	3779	3738	3738	3779	3779	3779	3779	3779	3779	3779	3821	3821	3821	3779	3821	3779	3779	3779	3779	3779	3779	3779	3779	3779	3779	3779	3779	3779	3779	3779	3738	3738	3738	3738	3738	3738	3738	3738	3738	3779	3779	3779	3779	3779	3779	3779	3779	3779	3779	3779	3779	3779	3779	3779	3779	3779	3779	3779	3779	3779	3779	3779	3779	3779	3779	3779	3779	3779	3779	3821	3821	3821	3821	3821	3821	3821	3821	3821	3821	3821	3821	3821	3821	3821	3821	3821	3779	3779	3779	3779	3779	3779	3779	3779	3779	3779	3779	3779	3779	3779	3779	3779	3779	3821	3821	3779	3779	3779	3779	3779	3779	3779	3779	3779	3779	3779	3779	3779	3779	3779	3779	3779	3779	3779	3779	3779	3779	3779	3821	3821	3821	3821	3821	3821	3821	3779	3779	3821	3821	3821	3821	3821	3821	3821	3821	3821	3821	3821	3821	3821	3821	3821	3821	3821	3864	3821	3821	3821	3821	3821	3821	3821	3821	3864	3864	3864	3864	3864	3864	3821	3821	3821	3821	3821	3864	3864	3864	3864	3864	3864	3864	3864	3821	3821	3821	3821	3821	3821	3864	3864	3864	3821	3821	3821	3821	3821	3821	3821	3821	3821	3821	3821	3821	3821	3864	3864	3864	3864	3907	3907	3907	3907	3907	3907	3864	3864	3864	3864	3864	3864	3864	3864	3864	3821	3821	3821	3821	3779	3779	3779	3779	3821	3821	3821	3864	3864	3864	3864	3864	3864	3864	3864	3821	3864	3864	3821	3821	3821	3821	3821	3821	3821	3864	3864	3821	3821	3821	3821	3779	3779	3779	3738	3738	3738	3738	3738	3738	3698	3698	3698	3738	3698	3698	3821	3779	3821	3779	3738	3738	3738	3738	3738	3779	3779	0	0	1539	1539	0	0	0	0	0	0	0	0	0	0	0	0	0	0	0	0	0	0	0	0	0	0	0	0	0	0	0	0	0	0	0	0	0	0	0	0	0	0	0	0	0
0	0	0	0	0	0	0	0	1461	1467	1473	1473	1480	1486	1506	1506	1512	1512	1512	1512	1665	1657	1649	1649	1649	1641	1641	1641	1641	1641	1641	1649	1649	1657	1657	1657	1657	1657	1657	0	0	2409	2426	2409	2409	2409	2409	2409	2409	2409	2426	2426	2426	2426	2426	2426	2409	2426	2409	2409	2409	2409	2409	2409	2409	2392	2409	2409	2409	2409	2409	2409	2409	2409	2409	2409	2409	2409	2409	2426	2426	2426	2426	2426	2443	2426	2426	2426	2426	2426	2426	2426	2426	2409	2409	2426	2426	2409	2409	2409	2409	2426	2409	2409	2409	2409	2409	2409	2409	2426	2443	2460	2443	2443	2460	2478	2478	2478	2496	2514	2514	2532	2551	2551	2570	2570	2570	2570	2551	2570	2570	2551	2551	2551	2551	2551	3157	3186	3186	3186	3186	3186	3216	3216	3216	3216	3216	3216	3216	3216	3216	3216	3216	3216	3216	3216	3216	3186	3186	3186	3216	3216	3246	3246	3246	3621	3621	3621	3621	3621	3659	3659	3659	3659	3659	3659	3659	3659	3621	3659	3698	3698	3738	3738	3738	3738	3738	3779	3779	3779	3779	3779	3779	3779	3698	3698	3738	3698	3698	3698	3738	3738	3738	3738	3738	3738	3738	3738	3698	3738	3738	3738	3738	3738	3738	3738	3779	3738	3738	3738	3738	3738	3698	3698	3698	3698	3698	3698	3738	3738	3738	3698	3738	3698	3698	3698	3698	3698	3738	3698	3738	3738	3738	3698	3738	3738	3738	3738	3738	3738	3738	3738	3738	3738	0	0	0	0	2993	2993	2993	2967	2967	2967	2942	2942	2942	2942	2942	2942	2942	2942	2942	2942	2967	2942	2942	2967	2967	2942	2967	2967	2967	2967	2942	2942	2942	0	0	0	0	0	3738	3738	3738	3738	3738	3738	3738	3738	3738	3738	3738	3738	3738	3738	3738	3738	3779	3779	3779	3779	3738	3738	3779	3779	3779	3779	3779	3779	3779	3821	3821	3821	3779	3821	3779	3779	3779	3779	3779	3779	3779	3779	3779	3779	3779	3779	3779	3779	3779	3738	3738	3738	3738	3738	3738	3738	3738	3738	3779	3779	3738	3779	3738	3738	3779	3779	3779	3779	3779	3779	3779	3779	3779	3779	3779	3779	3779	3779	3779	3779	3779	3779	3779	3779	3738	3779	3779	3779	3821	3821	3821	3821	3821	3821	3821	3821	3821	3821	3821	3821	3821	3821	3821	3821	3779	3779	3779	3779	3779	3779	3779	3779	3779	3779	3779	3779	3779	3779	3779	3779	3779	3779	3821	3821	3779	3779	3779	3779	3779	3779	3779	3779	3779	3779	3779	3779	3779	3779	3779	3779	3779	3779	3779	3779	3779	3779	3779	3779	3821	3821	3821	3821	3821	3821	3779	3779	3821	3821	3821	3821	3821	3821	3821	3821	3821	3821	3821	3864	3821	3821	3821	3821	3821	3821	3821	3821	3821	3821	3821	3821	3821	3821	3864	3864	3864	3864	3864	3864	3821	3821	3821	3821	3821	3821	3864	3864	3864	3864	3864	3864	3864	3821	3821	3821	3821	3821	3821	3821	3864	3864	3864	3821	3821	3821	3821	3821	3821	3821	3821	3821	3821	3821	3821	3864	3864	3864	3907	3907	3907	3907	3907	3907	3907	3907	3864	3864	3864	3864	3864	3864	3864	3821	3821	3821	3779	3779	3779	3779	3779	3821	3821	3821	3821	3864	3864	3864	3864	3864	3864	3864	3864	3821	3864	3864	3821	3821	3821	3864	3821	3864	3864	3864	3864	3821	3821	3821	3821	3821	3821	3821	3738	3738	3738	3738	3738	3738	3698	3698	3698	3698	3698	3659	3659	3779	3821	3779	3738	3738	3738	3738	1553	1546	1546	1546	1539	1539	1532	1532	0	0	0	0	0	0	0	0	0	0	0	0	0	0	0	0	0	0	0	0	0	0	0	0	0	0	0	0	0	0	0	0	0	0	0	0	0	0	0	0
0	0	0	0	0	0	0	0	1461	1467	1473	1473	1486	1492	1506	1506	1512	1512	1512	1512	1657	1657	1649	1649	1649	1649	1649	1641	1649	1649	1649	1649	1657	1657	1657	1665	1657	1665	1673	1673	0	2409	2409	2392	2409	2409	2409	2409	2426	2426	2426	2426	2426	2443	2426	2443	2443	2443	2426	2426	2426	2426	2409	2409	2409	2409	2409	2409	2409	2409	2409	2409	2409	2409	2409	2409	2409	2409	2409	2426	2426	2426	2426	2443	2460	2443	2443	2443	2443	2443	2443	2460	2443	2443	2443	2443	2443	2426	2426	2426	2426	2426	2426	2409	2409	2409	2426	2409	2409	2409	2443	2460	2443	2443	2460	2460	2460	2478	2478	2496	2514	2514	2551	2551	2551	2570	2570	2570	2551	2551	2551	2551	2551	2551	2551	2551	3216	3216	3216	3216	3216	3216	3216	3216	3216	3216	3216	3216	3216	3216	3246	3246	3246	3216	3246	3216	3216	3216	3186	3216	3216	3216	3246	3246	3246	3246	3583	3621	3621	3621	3659	3621	3659	3659	3659	3659	3659	3659	3659	3659	3698	3698	3738	3738	3738	3738	3779	3779	3779	3779	3821	3821	3821	3821	3738	3698	3738	3738	3738	3698	3738	3738	3738	3738	3738	3738	3779	3738	3738	3738	3738	3738	3738	3738	3738	3779	3779	3738	3779	3779	3738	3738	3738	3738	3698	3698	3698	3738	3738	3738	3779	3698	3738	3698	3698	3698	3698	3698	3738	3698	3738	3738	3738	3738	3738	3738	3779	3738	3738	3738	3738	3738	3738	3738	0	0	0	0	3019	2993	2993	2993	2967	2967	2967	2942	2942	2942	2942	2942	2942	2942	2942	2942	2967	2967	2942	2967	2967	2942	2942	2942	2967	2967	2967	2942	2942	0	0	0	0	3738	3738	3738	3738	3738	3738	3738	3738	3738	3738	3738	3738	3738	3738	3738	3738	3738	3779	3779	3738	3738	3738	3738	3779	3779	3738	3779	3779	3779	3821	3821	3821	3821	3821	3821	3779	3779	3779	3779	3779	3779	3779	3779	3779	3738	3738	3738	3738	3738	3738	3738	3738	3738	3738	3738	3738	3738	3738	3738	3779	3779	3779	3779	3779	3779	3779	3779	3779	3779	3779	3779	3779	3779	3779	3779	3779	3779	3779	3779	3779	3779	3779	3779	3779	3779	3738	3738	3738	3738	3821	3821	3821	3821	3821	3821	3821	3821	3821	3821	3821	3821	3821	3821	3821	3779	3779	3779	3779	3779	3779	3779	3779	3779	3779	3779	3779	3779	3779	3779	3779	3779	3779	3779	3821	3821	3779	3779	3779	3779	3779	3779	3779	3779	3779	3779	3779	3779	3779	3779	3779	3779	3738	3779	3779	3779	3779	3779	3779	3779	3821	3821	3821	3821	3821	3821	3779	3779	3821	3821	3821	3821	3821	3821	3821	3821	3821	3821	3821	3821	3821	3821	3821	3821	3821	3821	3821	3821	3821	3821	3821	3821	3821	3821	3821	3864	3864	3864	3821	3864	3821	3821	3821	3821	3821	3821	3864	3864	3864	3864	3864	3864	3864	3821	3821	3821	3821	3821	3821	3821	3864	3864	3821	3821	3821	3821	3821	3821	3821	3821	3821	3821	3821	3821	3821	3864	3864	3864	3907	3907	3907	3907	3907	3907	3907	3864	3864	3864	3864	3864	3821	3821	3864	3864	3821	3821	3779	3779	3779	3779	3779	3779	3821	3821	3821	3864	3864	3864	3864	3864	3864	3864	3821	3821	3821	3821	3821	3821	3821	3821	3821	3864	3864	3864	3864	3864	3821	3864	3821	3821	3821	3821	3738	3738	3738	3738	3738	3738	3698	3659	3659	3659	3698	3659	3659	0	0	0	0	0	1553	1553	1546	1546	1539	1539	1539	1539	1532	1532	0	0	0	0	0	0	0	0	0	0	0	0	0	0	0	0	0	0	0	0	0	0	0	0	0	0	0	0	0	0	0	0	0	0	0	0	0	0	0	0
0	0	0	0	0	0	0	0	1461	1461	1467	1473	1486	1492	1499	1506	1506	1506	1506	1506	1657	1657	1657	1657	1657	1657	1649	1649	1649	1657	1657	1657	1657	1657	1665	1665	1665	1665	1673	1690	1698	1698	1698	1698	2409	2392	2409	2409	2426	2426	2426	2443	2443	2443	2443	2443	2443	2443	2443	2443	2443	2426	2426	2426	2426	2426	2426	2426	2443	2443	2443	2443	2443	2426	2426	2426	2426	2426	2426	2426	2443	2443	2460	2460	2460	2460	2460	2443	2443	2460	2460	2460	2460	2460	2460	2460	2460	2443	2426	2443	2443	2443	2426	2409	2426	2426	2443	2426	2426	2426	2443	2460	2443	2443	2460	2460	2460	2460	2478	2496	2514	2532	2551	2551	2551	2551	2570	2551	2551	2551	2551	2551	2551	2551	2551	2551	3216	3216	3216	3216	3216	3246	3246	3246	3246	3246	3216	3246	3216	3216	3246	3246	3246	3246	3246	3216	3246	3216	3216	3216	3216	3216	3246	3246	3246	3246	3621	3621	3621	3621	3659	3621	3659	3659	3659	3659	3659	3659	3659	3659	3698	3698	3779	3738	3738	3738	3779	3779	3779	3779	3779	3779	3821	3821	3779	3738	3738	3738	3738	3738	3738	3738	3738	3738	3698	3698	3738	3738	3738	3738	3738	3779	3779	3779	3738	3779	3779	3779	3779	3779	3738	3738	3738	3738	3738	3698	3738	3738	3738	3738	3738	3698	3698	3698	3698	3698	3698	3698	3738	3698	3738	3738	3738	3738	3738	3738	3738	3738	3738	3738	3738	3738	3698	3698	0	0	0	0	2993	2993	2993	2967	2967	2967	2967	2942	2942	2942	2942	2942	2942	2942	2942	2942	2942	2942	2942	2942	2942	2942	2967	2967	2967	2967	2967	2967	2942	0	0	0	0	3738	3738	3738	3738	3738	3738	3738	3738	3738	3738	3738	3738	3738	3738	3738	3738	3738	3779	3779	3738	3738	3738	3738	3779	3779	3738	3779	3779	3779	3821	3821	3821	3821	3821	3821	3779	3779	3779	3779	3779	3779	3779	3738	3738	3738	3738	3738	3738	3738	3738	3779	3738	3779	3738	3738	3738	3738	3738	3738	3738	3779	3779	3779	3779	3779	3779	3779	3779	3779	3779	3779	3779	3779	3738	3779	3779	3779	3779	3779	3779	3779	3779	3779	3779	3779	3738	3738	3738	3738	3779	3779	3821	3821	3821	3821	3821	3821	3821	3821	3821	3821	3821	3821	3821	3821	3779	3779	3779	3779	3779	3779	3779	3779	3779	3779	3779	3779	3779	3821	3821	3821	3821	3821	3821	3821	3821	3821	3779	3779	3779	3779	3779	3779	3779	3779	3779	3779	3779	3779	3738	3779	3738	3779	3779	3779	3779	3779	3779	3779	3779	3779	3779	3779	3821	3779	3779	3779	3821	3821	3821	3821	3821	3821	3821	3821	3821	3821	3821	3821	3864	3821	3821	3821	3821	3821	3821	3821	3821	3821	3821	3821	3821	3821	3821	3864	3864	3821	3821	3821	3821	3821	3821	3821	3821	3821	3821	3821	3821	3821	3821	3864	3821	3821	3821	3821	3821	3821	3821	3821	3821	3864	3821	3821	3821	3821	3821	3821	3821	3821	3821	3821	3821	3821	3821	3864	3864	3907	3907	3907	3907	3907	3864	3864	3864	3864	3864	3864	3864	3864	3864	3864	3821	3821	3821	3821	3779	3779	3779	3779	3779	3779	3821	3821	3864	3864	3864	3864	3864	3864	3821	3821	3821	3821	3821	3821	3779	3779	3821	3821	3821	3864	3864	3864	3864	3864	3864	3864	3864	3821	3821	3821	3779	3738	3738	3738	3738	3698	3659	3659	3659	3659	0	0	0	0	0	0	0	0	1546	1546	1546	1546	1539	1539	1539	1539	1532	1532	0	0	0	0	0	0	0	0	0	0	0	0	0	0	0	0	0	0	0	0	0	0	0	0	0	0	0	0	0	0	0	0	0	0	0	0	0	0	0	0
0	0	0	0	0	0	0	0	1461	1461	1461	1473	1480	1486	1492	1492	1499	1499	1506	1673	1657	1657	1657	1657	1657	1657	1657	1657	1649	1657	1657	1657	1657	1657	1665	1665	1673	1673	1673	1698	1706	1698	1698	1698	1698	2392	2409	2426	2426	2426	2443	2460	2460	2460	2460	2478	2478	2478	2460	2460	2460	2460	2460	2443	2443	2443	2443	2443	2443	2443	2443	2443	2443	2443	2426	2426	2426	2478	2443	2443	2443	2460	2460	2460	2460	2460	2460	2443	2443	2460	2460	2460	2460	2460	2460	2460	2460	2460	2443	2460	2460	2460	2443	2443	2443	2443	2443	2426	2426	2426	2443	2443	2443	2443	2460	2460	2443	2460	2460	2478	2496	2532	2551	2551	2551	2551	2570	2551	2551	2551	2551	2551	2551	2551	2551	2551	3246	3246	3246	3246	3246	3246	3246	3246	3246	3246	3246	3246	3246	3246	3246	3246	3246	3246	3246	3216	3246	3216	3216	3216	3216	3246	3246	3246	3246	3277	3277	3621	3621	3659	3659	3621	3659	3659	3659	3659	3659	3659	3659	3698	3738	3738	3738	3779	3779	3738	3779	3779	3779	3779	3779	3779	3821	3821	3779	3738	3779	3738	3738	3738	3738	3738	3738	3738	3698	3698	3738	3738	3738	3738	3738	3738	3779	3779	3779	3779	3738	3738	3779	3779	3738	3738	3738	3738	3698	3698	3738	3738	3738	3738	3738	3698	3698	3698	3698	3698	3698	3698	3698	3698	3738	3738	3738	3738	3738	3738	3738	3738	3738	3738	3738	3738	3698	3698	0	0	0	3019	3019	2993	2967	2967	2967	2967	2967	2942	2942	2942	2942	2942	2942	2942	2942	2942	2942	2942	2942	2942	2942	2942	2942	2967	2942	2942	2942	2967	0	0	0	0	3698	3738	3738	3738	3738	3738	3738	3738	3738	3738	3738	3738	3738	3738	3738	3738	3738	3738	3738	3738	3738	3738	3738	3738	3779	3779	3779	3779	3779	3779	3821	3821	3821	3821	3821	3821	3821	3821	3821	3779	3779	3779	3779	3738	3738	3738	3738	3738	3738	3738	3738	3779	3738	3779	3738	3738	3738	3738	3738	3738	3738	3779	3779	3779	3779	3779	3779	3779	3779	3779	3779	3738	3779	3779	3738	3779	3779	3779	3779	3779	3779	3779	3779	3779	3779	3779	3738	3738	3738	3738	3779	3821	3821	3821	3821	3821	3821	3821	3821	3821	3821	3821	3821	3821	3779	3779	3779	3779	3779	3779	3779	3779	3779	3779	3779	3821	3779	3779	3821	3821	3821	3821	3821	3821	3821	3821	3779	3779	3779	3779	3779	3779	3779	3779	3779	3779	3779	3779	3779	3779	3779	3779	3779	3779	3779	3779	3779	3779	3779	3779	3779	3779	3779	3779	3779	3779	3779	3779	3821	3821	3821	3821	3821	3821	3821	3821	3821	3821	3864	3864	3821	3821	3821	3821	3821	3821	3821	3821	3821	3821	3821	3821	3821	3821	3821	3821	3821	3821	3821	3821	3821	3821	3821	3821	3821	3821	3821	3864	3821	3821	3821	3821	3821	3821	3821	3821	3821	3821	3821	3821	3864	3864	3821	3821	3821	3821	3821	3821	3821	3821	3821	3821	3821	3821	3864	3864	3864	3864	3907	3907	3907	3864	3864	3864	3864	3864	3864	3864	3864	3864	3864	3864	3864	3864	3864	3821	3821	3821	3821	3779	3779	3821	3821	3821	3821	3864	3821	3864	3864	3821	3821	3821	3821	3779	3779	3779	3779	3821	3821	3821	3821	3864	3864	3864	3864	3864	3864	3864	3864	3821	3821	3821	3738	3738	3738	3738	3738	3698	3659	3659	3659	3659	0	0	0	0	0	0	0	1546	1546	1546	1546	1539	1539	1532	1532	1532	1525	1525	0	0	0	0	0	0	0	0	0	0	0	0	0	0	0	0	0	0	0	0	0	0	0	0	0	0	0	0	0	0	0	0	0	0	0	0	0	0	0	0
