0	0	0	854	856	856	856	858	860	860	860	865	867	867	869	873	880	878	878	878	878	882	882	884	887	887	891	891	898	905	905	908	910	910	910	0	0	0	0	0	0	0	1795	1795	1795	1795	1795	1795	1804	1804	1804	1804	1804	1804	1804	1804	1804	1814	1814	1833	1853	1853	1863	1873	1883	1883	2570	2609	2609	2609	2629	2649	2690	2690	2690	2711	2711	2690	2690	2690	2690	2669	2669	2669	2649	2649	2649	2649	2649	2649	2649	2669	2669	2649	2669	2669	2669	2669	2649	2649	2649	2649	2649	2649	2649	2649	2669	2669	2649	2649	2649	2649	2649	2649	2649	2669	2669	2669	2669	2669	2669	2669	2669	2669	2669	2690	2711	2711	2690	2690	2690	2690	2690	2711	2711	2690	2669	2669	2669	2649	2649	2649	2649	2649	2649	2649	2649	2649	2649	2649	2649	2649	2649	2649	2669	2669	2669	2669	2690	2690	3546	3546	3546	3583	3583	3621	3659	3659	3659	3659	3621	3621	3659	3659	3659	3659	3659	3659	3659	3659	3659	3621	3621	3621	3621	3621	3621	3621	3659	3621	3659	3659	3659	3621	3621	3621	3621	3621	3621	3621	3621	3621	3621	3659	3698	3659	3698	3698	3738	3779	3779	3821	3821	3821	3821	3821	3864	3821	3821	3779	3779	3779	3779	3779	3779	3779	3779	3821	3864	3864	3864	3864	3864	3864	3864	3864	3864	3821	3821	3821	3779	3779	3738	3738	3738	3779	3821	3821	3821	3821	3864	3864	3821	3821	3821	3821	3821	3821	3779	3821	3779	3821	3821	3821	3821	3821	3821	3821	3821	3779	3779	3779	3779	3779	3779	3779	3821	3821	3821	3821	3779	3779	3779	3779	3779	3779	3779	3779	3779	3779	3779	3779	3779	3073	3073	3046	3073	3046	3046	3019	3019	2993	2993	2993	2993	2993	2967	2967	2967	2967	2967	2967	2967	3019	3019	3019	3019	3019	3019	3779	3779	3779	3779	3779	3738	3738	3779	3779	3779	3779	3779	3779	3779	3738	3738	3738	3738	3738	3779	3779	3779	3738	3738	3738	3738	3738	3738	3738	3738	3738	3738	3779	3738	3738	3738	3738	3738	3738	3738	3738	3738	3738	3738	3738	3738	3738	3738	3738	3738	3738	3738	3738	3738	3698	3698	3698	3698	3698	3698	3698	3698	3698	3698	3698	3698	3698	3738	3698	3698	3698	3698	3698	3698	3698	3698	3698	3698	3698	3659	3659	3659	3659	3698	3659	3659	3659	3659	3659	3698	3698	3698	3698	3698	3738	3698	3698	3698	3659	3659	3659	3659	3659	3659	3659	3659	3659	3698	3659	3698	3698	3698	3698	3698	3698	3698	3698	3698	3659	3659	3659	3659	3659	3659	3659	3659	3659	3659	3659	3659	3621	3621	3621	3621	3621	3621	3621	3659	3659	3659	3659	3659	3659	3659	3659	3659	3659	3659	3659	3698	3698	3659	3659	3659	3659	3659	3659	3659	3659	3659	3659	3659	3659	3659	3659	3659	3659	3659	3659	3659	3659	3659	3659	3659	3659	3621	3621	3621	3621	3621	3621	3621	3621	3621	3659	3659	3659	3659	3659	3659	3659	3659	3659	3698	3698	0	0	0	0	0	0	0	0	0	0	0	0	0	0	0	0	0	0	0	0	0	0	0	0	0	0	0	0	0	0	0	0	0	0	0	0	0	0	0	0	0	0	0	0	0	0	0	0	0	0	0	0	0	0	0	0	0	0	0	0	0	0	0	0	0	0	0	0	0	0	0	0	0	0	0	0	0	0	0	0	0	0	0	0	0	0	0	0	0	0	0	0	0	0	0	0	0	0	0	0	0	0	0	0	0	0	0	0	0	0	0	0	0	0	0	0	0	0	0	0	0	0	0	0	0	0
0	0	0	0	854	856	856	858	860	862	862	862	865	867	871	875	880	880	878	878	878	882	882	882	884	887	889	891	894	903	908	908	908	913	913	0	0	0	0	0	0	0	1804	1795	1804	1804	1804	1804	1814	1814	1814	1814	1804	1814	1814	1814	1814	1814	1824	1843	1853	1853	1853	1863	1873	1883	1883	2609	2609	2609	2629	2669	2669	2690	2690	2690	2690	2690	2690	2690	2690	2690	2669	2669	2669	2669	2649	2649	2649	2649	2669	2669	2669	2669	2669	2669	2649	2649	2649	2649	2649	2649	2649	2649	2649	2649	2669	2649	2649	2649	2649	2649	2649	2649	2649	2669	2669	2669	2669	2669	2669	2669	2669	2669	2669	2669	2690	2690	2690	2690	2690	2669	2669	2711	2690	2690	2669	2669	2649	2649	2649	2649	2649	2649	2649	2649	2649	2649	2649	2649	2649	2649	2649	2649	2649	2669	2669	2690	2711	2711	3546	3583	3621	3621	3621	3621	3659	3659	3659	3659	3659	3659	3659	3659	3659	3659	3698	3698	3698	3698	3659	3659	3621	3621	3621	3621	3621	3621	3621	3621	3659	3659	3659	3659	3659	3621	3621	3621	3659	3621	3621	3621	3659	3659	3659	3659	3698	3698	3738	3779	3779	3821	3821	3821	3821	3821	3864	3821	3821	3779	3779	3779	3779	3779	3779	3779	3779	3821	3864	3864	3864	3864	3864	3864	3864	3864	3864	3821	3821	3779	3779	3779	3738	3738	3738	3779	3779	3821	3821	3821	3821	3821	3821	3821	3821	3821	3821	3821	3779	3821	3779	3821	3821	3821	3821	3821	3821	3821	3821	3779	3779	3779	3779	3779	3779	3779	3779	3821	3779	3821	3779	3779	3779	3779	3779	3779	3779	3779	3779	3779	3779	3779	3779	3738	3073	3046	3046	3046	3046	3019	3019	3019	2993	2993	2993	2993	2967	2967	2967	2967	2967	2967	2967	3019	3019	3019	3019	2993	2993	3779	3779	3779	3779	3779	3738	3738	3779	3779	3779	3779	3779	3779	3779	3738	3738	3738	3738	3738	3779	3738	3738	3738	3738	3738	3738	3738	3738	3738	3738	3738	3738	3738	3738	3738	3738	3738	3738	3698	3698	3738	3738	3738	3738	3738	3738	3738	3738	3738	3738	3738	3738	3738	3738	3738	3698	3698	3698	3698	3698	3698	3698	3698	3698	3698	3698	3698	3698	3698	3698	3698	3698	3698	3698	3698	3698	3698	3698	3698	3698	3659	3698	3659	3698	3659	3659	3659	3659	3659	3698	3659	3698	3698	3698	3738	3698	3698	3659	3659	3659	3659	3698	3698	3698	3698	3698	3698	3698	3659	3698	3698	3698	3698	3698	3698	3698	3698	3698	3659	3659	3659	3659	3659	3659	3659	3659	3659	3659	3659	3659	3659	3659	3659	3659	3659	3659	3659	3659	3659	3659	3659	3659	3659	3698	3698	3698	3698	3659	3659	3698	3659	3659	3659	3659	3659	3659	3659	3659	3659	3659	3659	3659	3659	3659	3659	3659	3659	3659	3659	3659	3659	3659	3659	3659	3659	3621	3621	3621	3621	3621	3621	3621	3621	3621	3621	3659	3659	3659	3659	3659	3659	3659	3659	3698	3698	3698	0	0	0	0	0	0	0	0	0	0	0	0	0	0	0	0	0	0	0	0	0	0	0	0	0	0	0	0	0	0	0	0	0	0	0	0	0	0	0	0	0	0	0	0	0	0	0	0	0	0	0	0	0	0	0	0	0	0	0	0	0	0	0	0	0	0	0	0	0	0	0	0	0	0	0	0	0	0	0	0	0	0	0	0	0	0	0	0	0	0	0	0	0	0	0	0	0	0	0	0	0	0	0	0	0	0	0	0	0	0	0	0	0	0	0	0	0	0	0	0	0	0	0	0	0
0	0	0	0	854	856	856	858	865	862	862	862	865	867	867	875	880	880	880	880	880	882	882	884	887	887	889	891	896	901	903	903	905	913	913	0	0	0	0	0	0	0	1824	1814	1814	1833	1833	1833	1833	1833	1824	1824	1814	1814	1814	1814	1814	1814	1824	1843	1853	1853	1853	1863	1863	1883	1883	0	2629	2609	2629	2629	2669	2669	2669	2690	2690	2690	2669	2690	2690	2690	2669	2669	2669	2669	2669	2649	2669	2669	2669	2669	2669	2669	2669	2669	2669	2649	2649	2649	2649	2649	2669	2649	2649	2649	2669	2669	2649	2649	2649	2649	2669	2669	2649	2669	2669	2669	2669	2669	2669	2669	2669	2669	2669	2669	2690	2690	2690	2669	2690	2669	2669	2711	2690	2690	2669	2669	2669	2669	2649	2649	2649	2649	2649	2649	2649	2649	2649	2649	2649	2649	2649	2649	2649	2649	2669	2690	2690	2690	3546	3583	3698	3621	3621	3621	3621	3659	3659	3659	3659	3659	3659	3659	3659	3659	3659	3698	3659	3698	3659	3659	3659	3659	3659	3659	3659	3659	3659	3659	3698	3659	3659	3659	3659	3659	3659	3659	3659	3659	3621	3621	3659	3659	3659	3659	3698	3698	3738	3779	3779	3821	3821	3821	3821	3821	3864	3821	3821	3779	3779	3779	3779	3779	3779	3779	3821	3821	3864	3864	3864	3864	3864	3864	3864	3821	3821	3821	3779	3779	3779	3779	3738	3779	3779	3779	3821	3821	3821	3821	3821	3821	3821	3821	3779	3779	3779	3779	3779	3779	3779	3779	3779	3779	3821	3779	3821	3821	3821	3779	3779	3779	3779	3779	3779	3779	3779	3779	3779	3779	3779	3779	3779	3779	3779	3779	3779	3779	3779	3779	3738	3738	3738	3698	3073	3073	3073	3073	3046	3046	3019	3019	2993	2993	2967	2993	2967	2967	2967	2967	2967	2967	2967	3019	3019	3019	3019	2993	2993	3779	3779	3779	3779	3779	3738	3779	3779	3779	3779	3779	3779	3779	3779	3738	3738	3738	3738	3738	3738	3738	3738	3738	3738	3738	3738	3738	3738	3738	3738	3738	3738	3738	3738	3738	3738	3738	3698	3698	3698	3698	3738	3738	3738	3738	3738	3738	3738	3738	3738	3738	3738	3738	3738	3738	3698	3698	3698	3698	3698	3698	3698	3698	3698	3698	3698	3698	3698	3698	3698	3698	3698	3698	3698	3698	3698	3698	3698	3698	3698	3659	3698	3659	3698	3659	3659	3659	3621	3659	3659	3659	3698	3698	3698	3698	3698	3659	3659	3659	3659	3698	3698	3698	3698	3698	3698	3698	3698	3698	3698	3698	3698	3698	3698	3659	3659	3659	3659	3659	3659	3659	3659	3659	3659	3659	3659	3659	3659	3659	3659	3659	3659	3659	3659	3659	3659	3659	3659	3659	3659	3659	3698	3698	3698	3698	3698	3698	3659	3659	3659	3659	3659	3659	3659	3659	3659	3659	3659	3659	3659	3659	3659	3659	3659	3659	3621	3659	3659	3659	3659	3659	3659	3659	3659	3621	3621	3621	3621	3621	3621	3621	3621	3621	3621	3621	3621	3621	3621	3659	3659	3659	3621	3621	3698	3698	3698	0	0	0	0	0	0	0	0	0	0	0	0	0	0	0	0	0	0	0	0	0	0	0	0	0	0	0	0	0	0	0	0	0	0	0	0	0	0	0	0	0	0	0	0	0	0	0	0	0	0	0	0	0	0	0	0	0	0	0	0	0	0	0	0	0	0	0	0	0	0	0	0	0	0	0	0	0	0	0	0	0	0	0	0	0	0	0	0	0	0	0	0	0	0	0	0	0	0	0	0	0	0	0	0	0	0	0	0	0	0	0	0	0	0	0	0	0	0	0	0	0	0	0	0	0
0	0	0	0	856	856	858	858	862	862	865	867	869	869	873	880	880	882	880	880	880	882	884	884	887	889	891	894	903	905	908	908	910	910	910	0	0	0	0	0	0	0	1843	1833	1833	1833	1833	1833	1843	1833	1833	1833	1814	1814	1824	1824	1814	1824	1824	1843	1853	1853	1853	1853	1863	1873	1873	1873	2629	2629	2629	2629	2649	2649	2669	2690	2711	2669	2669	2669	2669	2669	2669	2669	2669	2669	2669	2649	2669	2669	2669	2669	2669	2669	2669	2669	2669	2649	2649	2649	2649	2649	2649	2649	2649	2649	2669	2669	2669	2649	2649	2649	2669	2669	2649	2669	2669	2669	2669	2669	2669	2669	2669	2669	2669	2669	2669	2690	2690	2669	2669	2669	2669	2690	2690	2690	2669	2669	2669	2669	2669	2669	2669	2669	2669	2669	2649	2649	2649	2649	2649	2649	2649	2649	2669	2669	2669	2690	2711	2711	3621	3621	3621	3659	3659	3659	3659	3659	3659	3659	3659	3659	3659	3659	3659	3659	3698	3698	3698	3698	3698	3659	3659	3659	3659	3659	3659	3659	3659	3698	3698	3698	3698	3698	3659	3659	3659	3659	3659	3659	3659	3659	3659	3659	3659	3659	3698	3698	3738	3779	3821	3821	3821	3821	3821	3821	3864	3821	3821	3779	3779	3779	3779	3779	3779	3779	3779	3821	3821	3864	3864	3864	3864	3864	3864	3821	3821	3821	3779	3779	3779	3779	3738	3779	3779	3821	3821	3821	3821	3821	3821	3821	3821	3821	3779	3779	3779	3779	3779	3779	3779	3779	3779	3779	3821	3779	3821	3821	3779	3779	3779	3779	3779	3779	3779	3779	3779	3779	3779	3779	3738	3738	3779	3779	3779	3779	3779	3779	3779	3738	3738	3738	3738	3738	3698	3738	3046	3046	3046	3046	3019	2993	2993	2993	2967	2967	2967	2967	2967	2967	2967	2967	2993	2993	3046	3046	3019	3019	3019	3779	3779	3779	3779	3779	3779	3779	3779	3779	3779	3779	3779	3779	3779	3779	3779	3738	3738	3738	3738	3738	3738	3738	3738	3738	3738	3738	3738	3738	3738	3738	3738	3738	3738	3738	3738	3698	3698	3698	3698	3698	3698	3738	3738	3738	3738	3738	3698	3698	3738	3738	3738	3738	3738	3738	3738	3738	3698	3698	3698	3698	3698	3698	3698	3698	3698	3698	3698	3659	3659	3659	3659	3659	3659	3659	3659	3698	3698	3698	3698	3698	3698	3659	3698	3659	3659	3621	3621	3621	3659	3659	3659	3698	3698	3698	3698	3698	3698	3698	3659	3659	3698	3698	3698	3698	3698	3659	3698	3698	3698	3698	3698	3698	3698	3659	3659	3659	3659	3659	3659	3659	3659	3659	3659	3659	3659	3659	3659	3659	3659	3659	3659	3659	3659	3659	3659	3659	3659	3659	3659	3659	3659	3659	3659	3659	3659	3659	3659	3659	3659	3659	3659	3621	3621	3659	3659	3659	3659	3659	3659	3621	3659	3621	3621	3621	3621	3621	3659	3659	3659	3659	3659	3659	3659	3621	3621	3621	3621	3621	3621	3621	3621	3621	3621	3621	3621	3621	3621	3621	3621	3621	3621	3621	3698	3659	3659	0	0	0	0	0	0	0	0	0	0	0	0	0	0	0	0	0	0	0	0	0	0	0	0	0	0	0	0	0	0	0	0	0	0	0	0	0	0	0	0	0	0	0	0	0	0	0	0	0	0	0	0	0	0	0	0	0	0	0	0	0	0	0	0	0	0	0	0	0	0	0	0	0	0	0	0	0	0	0	0	0	0	0	0	0	0	0	0	0	0	0	0	0	0	0	0	0	0	0	0	0	0	0	0	0	0	0	0	0	0	0	0	0	0	0	0	0	0	0	0	0	0	0	0	0
0	0	0	850	856	858	858	858	865	865	867	867	867	869	871	878	878	880	880	880	880	882	884	884	887	889	894	894	896	901	903	903	903	910	910	0	0	0	0	0	0	0	1843	1833	1833	1833	1843	1843	1843	1843	1843	1833	1833	1833	1833	1833	1824	1833	1843	1853	1853	1853	1853	1853	1863	1863	1863	1873	1873	2629	2609	2629	2629	2649	2649	2649	2669	2669	2669	2669	2669	2669	2669	2669	2669	2669	2669	2669	2669	2669	2669	2669	2669	2669	2669	2669	2649	2649	2649	2649	2649	2649	2649	2649	2649	2649	2649	2669	2649	2649	2649	2649	2649	2669	2649	2669	2669	2669	2669	2669	2669	2669	2669	2669	2669	2669	2669	2669	2669	2669	2669	2669	2669	2669	2669	2690	2690	2690	2669	2690	2669	2669	2669	2669	2669	2669	2649	2649	2649	2649	2649	2649	2649	2649	2669	2669	2669	2669	2690	2690	3621	3621	3659	3659	3659	3698	3698	3698	3698	3659	3659	3698	3659	3698	3698	3698	3698	3698	3698	3698	3698	3659	3659	3659	3659	3698	3659	3698	3698	3698	3698	3698	3698	3698	3698	3659	3659	3659	3659	3659	3659	3659	3659	3659	3659	3659	3698	3698	3738	3779	3821	3821	3821	3821	3821	3821	3864	3821	3821	3779	3779	3779	3779	3779	3821	3821	3821	3821	3864	3864	3864	3864	3864	3864	3864	3821	3821	3821	3779	3779	3779	3779	3779	3779	3779	3821	3821	3821	3821	3821	3821	3821	3821	3779	3779	3779	3779	3779	3779	3779	3779	3779	3779	3779	3779	3779	3821	3821	3821	3821	3821	3821	3821	3779	3779	3779	3779	3779	3738	3738	3738	3738	3738	3738	3738	3779	3779	3779	3779	3779	3738	3738	3738	3738	3698	3738	3738	3046	3046	3046	3019	2993	2993	2967	2967	2993	2967	2967	2967	2967	2993	2993	2993	2993	3046	3046	3046	3019	3019	3821	3779	3779	3779	3779	3779	3738	3738	3779	3779	3779	3779	3779	3779	3779	3779	3738	3738	3738	3738	3738	3738	3738	3738	3738	3738	3738	3738	3738	3738	3738	3738	3738	3738	3738	3738	3738	3698	3698	3698	3698	3738	3698	3698	3738	3738	3738	3698	3698	3738	3738	3738	3698	3698	3698	3698	3698	3698	3698	3698	3698	3698	3698	3698	3698	3698	3698	3659	3659	3659	3659	3659	3659	3659	3659	3659	3698	3698	3659	3698	3659	3698	3698	3698	3659	3621	3621	3621	3621	3659	3659	3659	3698	3659	3698	3698	3698	3659	3698	3659	3659	3698	3698	3698	3698	3659	3659	3698	3698	3659	3659	3659	3659	3659	3659	3659	3659	3659	3659	3659	3659	3659	3659	3659	3659	3659	3659	3659	3659	3659	3659	3659	3659	3659	3659	3659	3659	3659	3659	3659	3659	3659	3659	3659	3659	3659	3659	3659	3659	3659	3659	3659	3621	3621	3621	3621	3621	3621	3621	3621	3621	3621	3621	3621	3621	3621	3659	3659	3659	3659	3659	3659	3621	3621	3621	3621	3621	3621	3621	3621	3621	3621	3621	3621	3621	3621	3621	3621	3621	3659	3621	3621	3621	3698	3659	3659	0	0	0	0	0	0	0	0	0	0	0	0	0	0	0	0	0	0	0	0	0	0	0	0	0	0	0	0	0	0	0	0	0	0	0	0	0	0	0	0	0	0	0	0	0	0	0	0	0	0	0	0	0	0	0	0	0	0	0	0	0	0	0	0	0	0	0	0	0	0	0	0	0	0	0	0	0	0	0	0	0	0	0	0	0	0	0	0	0	0	0	0	0	0	0	0	0	0	0	0	0	0	0	0	0	0	0	0	0	0	0	0	0	0	0	0	0	0	0	0	0	0	0	0	0
0	0	0	850	856	858	860	860	865	865	867	867	869	871	873	878	875	878	878	880	880	882	884	887	887	889	894	894	898	903	905	905	905	905	910	0	0	0	0	0	0	1853	1843	1833	1833	1843	1843	1843	1843	1843	1843	1843	1833	1843	1843	1833	1833	1843	1853	1853	1853	1853	1853	1853	1853	1863	1863	1873	1873	0	2629	2629	2629	2649	2649	2629	2669	2669	2669	2669	2690	2669	2669	2690	2669	2669	2669	2669	2669	2669	2669	2669	2669	2669	2690	2669	2649	2649	2649	2649	2649	2649	2649	2649	2649	2649	2649	2649	2649	2649	2649	2649	2649	2649	2649	2669	2669	2669	2669	2669	2649	2649	2669	2669	2669	2669	2669	2690	2669	2669	2669	2669	2669	2669	2669	2690	2690	2690	2690	2690	2669	2669	2669	2669	2669	2669	2649	2649	2649	2649	2649	2649	2649	2649	2669	2669	2669	2690	2690	3659	3659	3659	3659	3698	3698	3698	3698	3698	3698	3779	3698	3698	3698	3698	3698	3698	3698	3698	3698	3698	3698	3698	3698	3698	3698	3738	3698	3698	3738	3738	3738	3698	3698	3698	3698	3698	3659	3659	3698	3659	3659	3659	3659	3659	3659	3659	3698	3738	3738	3779	3821	3821	3821	3821	3821	3779	3779	3821	3821	3821	3821	3821	3821	3821	3821	3821	3821	3864	3864	3864	3864	3864	3864	3864	3864	3821	3821	3821	3779	3779	3779	3779	3779	3779	3779	3779	3821	3821	3821	3821	3821	3821	3821	3779	3779	3779	3779	3779	3779	3779	3779	3779	3779	3779	3821	3779	3821	3821	3821	3821	3821	3821	3779	3779	3779	3779	3779	3779	3738	3738	3738	3738	3738	3738	3779	3779	3779	3779	3779	3779	3738	3738	3738	3738	3738	3738	3738	3046	3046	3046	3019	2993	2993	2967	2993	2993	2967	2967	2993	2993	2993	2993	3019	3019	3046	3046	3046	3046	3046	3821	3779	3779	3779	3779	3738	3738	3738	3779	3779	3779	3779	3779	3779	3779	3779	3738	3738	3738	3738	3738	3738	3738	3738	3738	3738	3738	3738	3738	3738	3738	3738	3738	3738	3738	3738	3698	3698	3698	3698	3698	3698	3698	3698	3698	3698	3698	3698	3698	3698	3698	3698	3698	3698	3698	3698	3698	3698	3698	3698	3698	3698	3698	3659	3659	3659	3698	3659	3659	3659	3659	3659	3659	3659	3659	3659	3698	3698	3698	3698	3659	3698	3698	3698	3659	3659	3621	3621	3621	3659	3659	3659	3698	3698	3698	3698	3698	3698	3698	3659	3659	3659	3659	3659	3659	3659	3659	3659	3659	3659	3659	3659	3659	3659	3659	3659	3659	3659	3659	3659	3659	3659	3659	3659	3659	3659	3659	3659	3659	3659	3659	3659	3659	3659	3659	3659	3659	3659	3659	3659	3659	3659	3659	3659	3659	3659	3659	3659	3659	3659	3659	3621	3621	3621	3621	3621	3621	3621	3621	3621	3621	3621	3621	3621	3621	3621	3659	3659	3659	3659	3659	3659	3621	3621	3621	3621	3621	3621	3621	3621	3621	3621	3621	3583	3583	3621	3621	3621	3621	3621	3621	3621	3621	3698	3659	3659	0	0	0	0	0	0	0	0	0	0	0	0	0	0	0	0	0	0	0	0	0	0	0	0	0	0	0	0	0	0	0	0	0	0	0	0	0	0	0	0	0	0	0	0	0	0	0	0	0	0	0	0	0	0	0	0	0	0	0	0	0	0	0	0	0	0	0	0	0	0	0	0	0	0	0	0	0	0	0	0	0	0	0	0	0	0	0	0	0	0	0	0	0	0	0	0	0	0	0	0	0	0	0	0	0	0	0	0	0	0	0	0	0	0	0	0	0	0	0	0	0	0	0	0	0
0	0	0	848	858	860	860	860	862	865	869	867	869	871	875	875	875	878	878	880	882	884	884	887	887	889	891	894	896	901	903	903	905	905	0	0	0	0	0	0	0	1853	1853	1843	1843	1843	1843	1843	1843	1843	1853	1843	1843	1843	1843	1843	1853	1853	1863	1863	1863	1863	1863	1863	1863	1863	1873	1873	1873	0	2629	2609	2609	2629	2629	2629	2669	2669	2690	2690	2690	2690	2690	2690	2690	2690	2690	2669	2669	2690	2669	2690	2690	2690	2690	2669	2649	2649	2649	2649	2649	2649	2649	2649	2649	2649	2649	2649	2649	2649	2649	2649	2649	2649	2649	2649	2669	2669	2669	2669	2669	2669	2669	2669	2690	2669	2669	2690	2690	2669	2669	2669	2669	2690	2690	2690	2690	2690	2690	2690	2669	2669	2669	2669	2669	2669	2649	2649	2649	2649	2669	2669	2649	2669	2669	2669	2669	2690	2690	3659	3698	3698	3698	3698	3698	3738	3698	3738	3698	3698	3698	3698	3698	3698	3698	3698	3698	3698	3698	3698	3698	3698	3738	3738	3738	3738	3698	3698	3738	3738	3738	3738	3698	3698	3698	3698	3698	3698	3698	3698	3698	3698	3698	3698	3698	3698	3698	3738	3738	3779	3779	3821	3821	3821	3821	3821	3821	3821	3821	3821	3821	3864	3821	3821	3821	3821	3864	3864	3864	3864	3864	3864	3864	3864	3864	3821	3821	3821	3779	3779	3779	3779	3779	3779	3779	3821	3821	3821	3821	3821	3821	3821	3779	3779	3779	3779	3779	3779	3779	3779	3779	3779	3821	3821	3821	3821	3821	3821	3821	3779	3779	3779	3779	3779	3779	3738	3738	3738	3738	3738	3738	3738	3738	3738	3779	3779	3779	3779	3779	3779	3738	3738	3738	3698	3698	3698	3698	3046	3046	3046	3046	3019	2993	2993	2993	2993	2993	2993	2993	2993	3019	3019	3019	3019	3073	3046	3046	3046	3046	3821	3779	3779	3779	3779	3738	3738	3738	3779	3779	3779	3779	3779	3779	3738	3779	3738	3738	3738	3738	3738	3738	3738	3738	3738	3738	3738	3738	3738	3738	3738	3738	3738	3738	3738	3738	3698	3698	3698	3698	3698	3698	3698	3698	3698	3738	3698	3698	3698	3698	3698	3698	3698	3698	3698	3698	3698	3698	3698	3698	3698	3698	3698	3698	3698	3698	3698	3659	3659	3659	3659	3659	3659	3659	3659	3659	3698	3698	3698	3698	3698	3698	3698	3698	3659	3659	3621	3621	3621	3621	3621	3659	3698	3698	3698	3698	3698	3698	3698	3659	3659	3659	3659	3659	3659	3659	3659	3659	3659	3659	3659	3659	3659	3659	3659	3659	3659	3659	3659	3659	3659	3659	3659	3659	3659	3659	3659	3659	3659	3659	3659	3659	3659	3659	3659	3659	3659	3659	3659	3659	3659	3659	3659	3659	3659	3659	3659	3659	3659	3659	3621	3621	3621	3621	3621	3621	3621	3621	3621	3621	3621	3621	3621	3621	3659	3659	3659	3659	3659	3621	3621	3621	3621	3621	3621	3621	3621	3621	3621	3621	3583	3583	3583	3583	3621	3621	3621	3621	3621	3621	3621	3621	3621	3659	3698	3698	0	0	0	0	0	0	0	0	0	0	0	0	0	0	0	0	0	0	0	0	0	0	0	0	0	0	0	0	0	0	0	0	0	0	0	0	0	0	0	0	0	0	0	0	0	0	0	0	0	0	0	0	0	0	0	0	0	0	0	0	0	0	0	0	0	0	0	0	0	0	0	0	0	0	0	0	0	0	0	0	0	0	0	0	0	0	0	0	0	0	0	0	0	0	0	0	0	0	0	0	0	0	0	0	0	0	0	0	0	0	0	0	0	0	0	0	0	0	0	0	0	0	0	0	0
0	0	0	852	858	860	860	862	862	865	867	867	869	871	875	875	875	878	878	880	882	882	884	884	887	889	891	891	896	901	903	903	903	903	0	0	0	0	0	0	0	1863	1853	1853	1853	1853	1853	1853	1853	1853	1853	1853	1853	1853	1853	1853	1853	1853	1863	1863	1863	1863	1863	1863	1863	1863	1873	1873	1883	1894	1894	1894	2609	2629	2629	2629	2649	2669	2669	2690	2690	2690	2669	2690	2690	2690	2690	2669	2669	2690	2669	2690	2690	2690	2669	2669	2649	2649	2649	2649	2649	2649	2649	2649	2649	2649	2649	2649	2649	2649	2649	2649	2649	2649	2649	2669	2669	2669	2690	2669	2669	2669	2669	2690	2669	2669	2669	2669	2669	2669	2669	2669	2669	2669	2669	2669	2690	2690	2690	2690	2669	2669	2669	2669	2669	2669	2649	2649	2669	2669	2649	2649	2649	2669	2669	2669	2669	2669	2669	3698	3698	3698	3698	3738	3698	3738	3698	3738	3698	3698	3698	3698	3698	3698	3698	3698	3698	3698	3698	3738	3698	3698	3738	3738	3738	3738	3698	3738	3738	3738	3738	3738	3738	3738	3698	3698	3698	3698	3698	3698	3698	3698	3698	3698	3698	3698	3698	3738	3738	3779	3821	3821	3821	3821	3779	3779	3864	3821	3821	3821	3864	3864	3864	3864	3864	3864	3864	3864	3864	3864	3864	3864	3864	3864	3864	3821	3821	3821	3779	3779	3779	3779	3779	3779	3779	3779	3821	3821	3821	3821	3821	3821	3779	3779	3779	3779	3779	3779	3779	3779	3779	3821	3821	3821	3821	3821	3821	3821	3779	3779	3779	3779	3779	3779	3738	3738	3738	3738	3738	3738	3738	3738	3738	3738	3779	3779	3779	3779	3779	3738	3738	3738	3738	3698	3738	3698	3738	3073	3046	3073	3046	3046	3019	2993	3019	3019	2993	2993	3019	3019	3019	3019	3046	3046	3073	3073	3046	3046	3821	3821	3779	3779	3779	3779	3779	3738	3738	3738	3738	3738	3738	3738	3738	3738	3738	3738	3738	3738	3738	3738	3738	3738	3738	3738	3738	3738	3738	3738	3738	3738	3738	3738	3738	3738	3738	3738	3738	3698	3698	3698	3698	3698	3698	3698	3698	3698	3698	3698	3698	3698	3698	3659	3698	3698	3698	3698	3698	3698	3698	3698	3698	3698	3698	3659	3698	3698	3659	3659	3659	3659	3659	3659	3659	3659	3659	3698	3698	3698	3698	3698	3698	3698	3698	3659	3659	3621	3621	3659	3659	3659	3659	3698	3659	3698	3698	3698	3698	3698	3659	3659	3659	3659	3659	3659	3659	3659	3659	3659	3659	3659	3659	3659	3659	3659	3659	3659	3659	3659	3659	3659	3659	3659	3659	3659	3659	3659	3659	3659	3659	3659	3659	3659	3659	3659	3659	3659	3659	3659	3659	3659	3659	3659	3659	3659	3659	3659	3659	3659	3659	3621	3621	3621	3621	3621	3621	3621	3621	3621	3621	3621	3621	3621	3621	3621	3621	3659	3659	3659	3621	3621	3621	3621	3621	3621	3621	3621	3621	3583	3583	3583	3583	3583	3583	3583	3583	3621	3621	3621	3621	3621	3621	3621	3659	3698	3698	0	0	0	0	0	0	0	0	0	0	0	0	0	0	0	0	0	0	0	0	0	0	0	0	0	0	0	0	0	0	0	0	0	0	0	0	0	0	0	0	0	0	0	0	0	0	0	0	0	0	0	0	0	0	0	0	0	0	0	0	0	0	0	0	0	0	0	0	0	0	0	0	0	0	0	0	0	0	0	0	0	0	0	0	0	0	0	0	0	0	0	0	0	0	0	0	0	0	0	0	0	0	0	0	0	0	0	0	0	0	0	0	0	0	0	0	0	0	0	0	0	0	0	0	0
0	0	0	854	858	858	860	860	862	867	867	867	871	873	875	875	878	878	880	882	882	882	884	887	887	889	891	894	896	901	903	903	903	903	0	0	0	0	0	0	1883	1863	1863	1853	1853	1853	1853	1853	1853	1853	1853	1853	1853	1853	1853	1853	1853	1853	1863	1863	1863	1863	1863	1873	1873	1873	1883	1883	1894	1894	1894	1883	1894	1894	1894	1894	2649	2690	2690	2690	2690	2690	2669	2690	2669	2669	2669	2669	2669	2669	2669	2669	2669	2669	2669	2669	2649	2649	2649	2629	2629	2629	2649	2649	2649	2649	2649	2649	2649	2649	2629	2649	2649	2649	2649	2669	2669	2669	2669	2669	2669	2669	2669	2669	2690	2669	2669	2669	2669	2669	2669	2669	2669	2669	2669	2669	2669	2690	2690	2690	2669	2669	2669	2669	2669	2669	2669	2649	2649	2649	2649	2649	2649	2669	2669	2669	2669	2669	2669	3698	3738	3738	3738	3738	3738	3738	3821	3821	3698	3698	3738	3738	3698	3698	3698	3698	3698	3698	3698	3738	3738	3698	3738	3779	3779	3738	3738	3738	3738	3738	3738	3738	3738	3738	3698	3698	3698	3698	3698	3698	3738	3779	3738	3738	3698	3698	3738	3738	3738	3779	3779	3779	3779	3779	3779	3779	3821	3821	3821	3821	3821	3864	3864	3864	3864	3864	3864	3864	3864	3864	3864	3864	3864	3864	3821	3821	3821	3821	3779	3779	3779	3779	3779	3779	3779	3821	3821	3821	3821	3779	3821	3779	3779	3779	3779	3779	3779	3779	3779	3779	3779	3779	3821	3821	3821	3779	3779	3779	3779	3779	3779	3779	3779	3779	3738	3738	3738	3738	3738	3738	3738	3738	3738	3738	3738	3738	3738	3738	3738	3738	3738	3738	3738	3698	3738	3698	3738	3738	3073	3073	3046	3046	3046	3019	3019	3019	3019	3019	3019	3019	3046	3046	3046	3046	3073	3073	3073	3073	3821	3821	3779	3779	3779	3779	3779	3738	3738	3738	3738	3738	3738	3738	3738	3738	3738	3738	3738	3738	3738	3738	3738	3738	3738	3738	3738	3738	3738	3738	3738	3738	3738	3738	3738	3738	3738	3738	3738	3738	3698	3698	3698	3698	3698	3698	3698	3698	3698	3698	3698	3659	3659	3659	3659	3659	3659	3659	3698	3698	3698	3698	3698	3659	3698	3659	3698	3698	3659	3659	3659	3659	3659	3659	3659	3659	3659	3659	3659	3698	3698	3659	3698	3698	3698	3659	3659	3621	3621	3621	3659	3659	3659	3659	3659	3698	3698	3698	3698	3698	3659	3659	3659	3659	3659	3659	3659	3659	3659	3659	3659	3659	3659	3659	3659	3659	3659	3659	3659	3659	3659	3659	3659	3659	3659	3659	3659	3659	3659	3659	3659	3659	3659	3659	3659	3659	3659	3659	3659	3659	3659	3659	3659	3659	3659	3659	3659	3621	3621	3659	3621	3621	3621	3621	3621	3621	3621	3621	3659	3621	3621	3621	3621	3621	3621	3621	3621	3659	3621	3621	3621	3621	3621	3621	3621	3621	3621	3621	3621	3583	3583	3583	3583	3583	3583	3583	3583	3621	3621	3621	3621	3621	3621	3621	3659	3698	3698	0	0	0	0	0	0	0	0	0	0	0	0	0	0	0	0	0	0	0	0	0	0	0	0	0	0	0	0	0	0	0	0	0	0	0	0	0	0	0	0	0	0	0	0	0	0	0	0	0	0	0	0	0	0	0	0	0	0	0	0	0	0	0	0	0	0	0	0	0	0	0	0	0	0	0	0	0	0	0	0	0	0	0	0	0	0	0	0	0	0	0	0	0	0	0	0	0	0	0	0	0	0	0	0	0	0	0	0	0	0	0	0	0	0	0	0	0	0	0	0	0	0	0	0	0
0	0	0	858	860	860	862	860	860	867	867	867	869	871	873	875	875	875	880	882	884	884	884	887	889	891	894	894	898	903	903	903	903	0	0	0	0	0	0	0	1883	1873	1863	1863	1863	1853	1853	1863	1863	1863	1863	1853	1853	1863	1853	1853	1863	1863	1863	1863	1863	1863	1873	1873	1883	1883	1894	1894	1894	1894	1894	1894	1894	1894	1894	1894	1894	2690	2711	2711	2711	2690	2669	2669	2669	2669	2669	2649	2649	2669	2669	2669	2669	2669	2669	2669	2649	2649	2629	2629	2629	2649	2649	2629	2649	2649	2649	2649	2629	2629	2629	2649	2649	2649	2649	2669	2669	2669	2669	2669	2669	2669	2669	2669	2669	2669	2669	2669	2669	2669	2669	2669	2669	2669	2669	2669	2690	2690	2690	2690	2690	2669	2669	2669	2669	2669	2649	2649	2669	2649	2649	2649	2649	2669	2669	2669	2669	2669	2669	2669	3738	3738	3779	3738	3738	3738	3821	3821	3779	3779	3738	3738	3738	3738	3698	3698	3698	3698	3698	3738	3738	3698	3738	3738	3738	3738	3738	3738	3738	3738	3738	3738	3738	3738	3698	3738	3738	3738	3738	3738	3738	3738	3738	3698	3698	3698	3698	3738	3738	3779	3779	3779	3779	3779	3779	3779	3821	3821	3864	3821	3821	3864	3864	3864	3864	3864	3864	3864	3864	3864	3864	3864	3864	3821	3821	3821	3821	3821	3779	3779	3779	3779	3779	3779	3779	3779	3779	3821	3821	3779	3821	3779	3779	3779	3779	3779	3779	3779	3779	3779	3779	3779	3779	3821	3779	3779	3779	3779	3779	3779	3738	3779	3779	3779	3738	3738	3738	3738	3738	3738	3738	3738	3738	3738	3738	3738	3738	3738	3738	3738	3738	3738	3738	3698	3738	3698	3738	3073	3073	3073	3073	3046	3046	3046	3046	3019	3019	3019	3046	3046	3046	3046	3046	3046	3073	3073	3073	3073	3821	3821	3779	3779	3779	3738	3738	3738	3738	3738	3738	3738	3779	3738	3779	3738	3738	3738	3738	3738	3738	3738	3738	3738	3738	3738	3738	3738	3738	3738	3738	3738	3738	3738	3738	3738	3738	3738	3738	3698	3698	3698	3698	3698	3698	3698	3698	3698	3698	3698	3659	3659	3659	3659	3659	3698	3659	3698	3698	3698	3698	3698	3698	3698	3659	3659	3659	3659	3659	3659	3621	3621	3659	3659	3621	3621	3621	3659	3659	3698	3698	3659	3698	3698	3698	3659	3659	3621	3621	3621	3659	3659	3659	3659	3659	3698	3698	3698	3698	3659	3659	3659	3659	3659	3659	3659	3659	3659	3659	3659	3659	3659	3659	3659	3659	3659	3659	3659	3659	3659	3659	3659	3659	3659	3659	3659	3659	3659	3659	3659	3659	3659	3659	3659	3659	3659	3659	3659	3659	3659	3659	3659	3659	3659	3659	3659	3659	3621	3659	3659	3621	3621	3621	3621	3621	3621	3621	3621	3659	3621	3621	3621	3621	3621	3621	3621	3621	3659	3621	3621	3621	3621	3621	3621	3621	3621	3621	3621	3621	3583	3583	3583	3583	3583	3583	3621	3621	3621	3621	3621	3621	3621	3621	3621	3659	3659	3698	0	0	0	0	0	0	0	0	0	0	0	0	0	0	0	0	0	0	0	0	0	0	0	0	0	0	0	0	0	0	0	0	0	0	0	0	0	0	0	0	0	0	0	0	0	0	0	0	0	0	0	0	0	0	0	0	0	0	0	0	0	0	0	0	0	0	0	0	0	0	0	0	0	0	0	0	0	0	0	0	0	0	0	0	0	0	0	0	0	0	0	0	0	0	0	0	0	0	0	0	0	0	0	0	0	0	0	0	0	0	0	0	0	0	0	0	0	0	0	0	0	0	0	0	0
0	0	0	858	860	862	862	862	860	867	867	867	869	869	871	873	873	873	878	882	884	884	884	891	891	891	891	894	894	903	903	903	903	0	0	0	0	0	1904	1894	1883	1883	1873	1863	1863	1863	1863	1863	1873	1873	1873	1873	1863	1863	1863	1863	1873	1873	1873	1873	1873	1873	1883	1883	1894	1883	1894	1894	1894	1894	1894	1894	1894	1904	1904	1915	1904	1904	1904	2711	2711	2690	2690	2690	2690	2669	2669	2669	2669	2669	2669	2669	2669	2649	2649	2649	2649	2649	2629	2629	2629	2649	2649	2629	2649	2629	2649	2649	2629	2629	2629	2649	2649	2649	2649	2669	2669	2669	2669	2669	2669	2669	2669	2669	2669	2669	2669	2669	2669	2669	2669	2669	2669	2669	2669	2669	2669	2690	2690	2669	2669	2669	2669	2669	2669	2669	2649	2649	2649	2649	2649	2649	2649	2669	2669	2669	2669	2649	2649	2649	3738	3738	3738	3738	3738	3738	3779	3821	3779	3779	3821	3779	3738	3738	3738	3738	3738	3738	3698	3738	3738	3738	3738	3738	3738	3738	3738	3738	3738	3779	3779	3779	3738	3738	3698	3698	3738	3698	3698	3698	3738	3738	3738	3698	3698	3698	3738	3738	3738	3779	3779	3779	3779	3779	3779	3779	3821	3821	3864	3821	3821	3864	3864	3864	3864	3864	3864	3864	3864	3864	3864	3864	3864	3821	3821	3821	3821	3821	3779	3779	3779	3779	3779	3779	3779	3821	3821	3821	3821	3779	3821	3779	3779	3779	3779	3779	3779	3779	3779	3779	3821	3821	3821	3821	3779	3779	3779	3779	3779	3779	3779	3779	3779	3779	3738	3738	3738	3738	3738	3738	3738	3738	3738	3738	3738	3738	3738	3738	3738	3738	3738	3738	3738	3738	3738	3698	3046	3073	3073	3073	3073	3046	3046	3046	3046	3046	3046	3046	3046	3046	3046	3046	3046	3046	3073	3073	3073	3821	3821	3821	3779	3779	3738	3738	3738	3738	3738	3738	3738	3738	3738	3738	3738	3738	3738	3738	3738	3738	3738	3738	3738	3738	3738	3738	3738	3738	3738	3738	3738	3738	3738	3738	3738	3738	3738	3738	3738	3698	3698	3698	3698	3698	3698	3698	3698	3698	3698	3698	3659	3659	3659	3659	3659	3659	3659	3698	3698	3698	3698	3698	3698	3659	3659	3659	3659	3659	3659	3659	3659	3659	3659	3659	3621	3621	3659	3659	3659	3698	3698	3698	3698	3698	3698	3698	3659	3659	3659	3659	3659	3659	3659	3659	3659	3698	3698	3698	3698	3659	3659	3659	3659	3659	3659	3659	3659	3621	3659	3659	3659	3659	3659	3659	3659	3659	3659	3659	3659	3659	3659	3659	3659	3659	3659	3659	3659	3659	3659	3659	3659	3659	3659	3659	3659	3659	3659	3659	3659	3659	3659	3659	3659	3659	3659	3659	3659	3659	3659	3659	3621	3621	3621	3621	3621	3621	3621	3621	3621	3621	3621	3621	3621	3621	3621	3621	3621	3621	3621	3621	3621	3621	3621	3621	3621	3621	3621	3621	3621	3583	3583	3621	3621	3621	3621	3621	3621	3621	3621	3621	3621	3621	3621	3621	3659	3659	0	0	0	0	0	0	0	0	0	0	0	0	0	0	0	0	0	0	0	0	0	0	0	0	0	0	0	0	0	0	0	0	0	0	0	0	0	0	0	0	0	0	0	0	0	0	0	0	0	0	0	0	0	0	0	0	0	0	0	0	0	0	0	0	0	0	0	0	0	0	0	0	0	0	0	0	0	0	0	0	0	0	0	0	0	0	0	0	0	0	0	0	0	0	0	0	0	0	0	0	0	0	0	0	0	0	0	0	0	0	0	0	0	0	0	0	0	0	0	0	0	0	0	0	0	0
0	0	0	0	862	862	865	865	862	867	867	867	869	869	869	871	873	873	878	880	882	882	884	889	891	891	891	891	894	898	898	0	0	0	0	0	0	0	1904	1894	1883	1883	1873	1873	1873	1863	1873	1873	1883	1883	1883	1883	1883	1873	1873	1873	1873	1873	1883	1883	1883	1883	1883	1894	1894	1894	1894	1894	1894	1894	1904	1904	1904	1904	1915	1915	1915	1915	1915	1915	2711	2733	2711	2711	2690	2669	2669	2669	2669	2669	2669	2649	2649	2649	2649	2649	2649	2649	2629	2629	2629	2629	2649	2629	2629	2629	2649	2649	2629	2629	2649	2649	2649	2649	2649	2669	2669	2669	2669	2669	2669	2669	2669	2669	2669	2669	2669	2669	2669	2649	2649	2669	2669	2669	2669	2669	2669	2669	2669	2669	2669	2669	2669	2649	2669	2649	2649	2649	2649	2649	2649	2649	2649	2669	2669	2649	2669	2669	2669	3864	3864	3779	3779	3779	3738	3738	3738	3779	3779	3779	3779	3738	3738	3738	3738	3738	3738	3738	3698	3738	3738	3738	3738	3738	3738	3738	3738	3738	3779	3738	3779	3779	3738	3738	3698	3698	3698	3698	3698	3698	3698	3738	3738	3698	3698	3738	3738	3738	3738	3779	3779	3779	3779	3779	3779	3779	3821	3821	3821	3821	3821	3864	3864	3864	3864	3821	3864	3864	3864	3864	3864	3864	3821	3821	3821	3821	3821	3821	3779	3779	3779	3779	3779	3779	3779	3821	3821	3821	3821	3821	3821	3779	3779	3779	3779	3779	3779	3821	3821	3821	3821	3821	3779	3779	3779	3779	3779	3779	3779	3779	3738	3779	3779	3779	3738	3738	3738	3738	3738	3738	3738	3738	3738	3738	3738	3738	3738	3738	3738	3738	3738	3738	3738	3738	3738	3738	3073	3073	3073	3073	3073	3073	3046	3046	3046	3046	3046	3046	3046	3046	3046	3046	3046	3046	3073	3073	3073	3821	3821	3821	3779	3779	3779	3738	3779	3738	3738	3738	3738	3738	3779	3738	3738	3738	3738	3738	3738	3738	3738	3738	3738	3738	3738	3738	3738	3738	3738	3738	3738	3738	3738	3738	3738	3738	3738	3738	3738	3698	3698	3698	3698	3738	3698	3698	3738	3738	3698	3698	3698	3659	3698	3659	3659	3698	3698	3698	3698	3698	3698	3659	3659	3659	3659	3659	3659	3659	3659	3659	3659	3659	3621	3659	3621	3621	3659	3659	3659	3698	3698	3659	3698	3698	3698	3698	3659	3659	3659	3659	3659	3659	3659	3659	3659	3698	3698	3698	3698	3659	3659	3659	3659	3659	3659	3659	3659	3659	3659	3659	3659	3659	3659	3659	3659	3659	3659	3659	3659	3659	3659	3659	3659	3659	3659	3659	3659	3659	3659	3659	3659	3659	3659	3659	3659	3659	3659	3659	3659	3659	3659	3659	3659	3659	3659	3659	3659	3621	3621	3659	3659	3621	3659	3621	3621	3621	3621	3621	3621	3621	3621	3621	3621	3621	3621	3621	3621	3621	3621	3621	3621	3621	3621	3621	3621	3621	3583	3583	3583	3583	3583	3621	3621	3621	3621	3621	3621	3621	3621	3621	3621	3621	3621	3621	3659	3659	0	0	0	0	0	0	0	0	0	0	0	0	0	0	0	0	0	0	0	0	0	0	0	0	0	0	0	0	0	0	0	0	0	0	0	0	0	0	0	0	0	0	0	0	0	0	0	0	0	0	0	0	0	0	0	0	0	0	0	0	0	0	0	0	0	0	0	0	0	0	0	0	0	0	0	0	0	0	0	0	0	0	0	0	0	0	0	0	0	0	0	0	0	0	0	0	0	0	0	0	0	0	0	0	0	0	0	0	0	0	0	0	0	0	0	0	0	0	0	0	0	0	0	0	0	0
0	0	0	0	862	862	865	862	862	862	862	865	867	867	869	871	873	873	878	880	882	882	884	887	891	889	891	891	894	898	898	0	0	0	0	0	0	0	1894	1883	1883	1883	1873	1873	1873	1873	1873	1883	1883	1883	1894	1883	1883	1883	1883	1873	1873	1873	1873	1883	1883	1883	1894	1894	1904	1904	1904	1904	1904	1904	1904	1904	1904	1904	1904	1915	1915	1915	1925	1925	0	2733	2711	2690	2690	2669	2669	2669	2669	2669	2669	2669	2649	2649	2649	2649	2649	2649	2629	2629	2629	2649	2649	2629	2629	2629	2629	2649	2629	2629	2649	2649	2649	2649	2649	2669	2669	2669	2669	2649	2669	2669	2669	2669	2669	2669	2669	2669	2669	2649	2649	2669	2669	2669	2669	2669	2669	2669	2669	2669	2669	2669	2669	2649	2669	2649	2649	2649	2649	2649	2649	2649	2649	2669	2669	2649	2649	2669	2669	3864	3864	3821	3779	3779	3779	3738	3738	3779	3779	3738	3738	3738	3738	3738	3738	3738	3738	3738	3738	3738	3738	3738	3738	3738	3738	3738	3738	3738	3738	3738	3738	3738	3738	3738	3738	3698	3698	3698	3698	3698	3698	3738	3738	3698	3698	3738	3698	3738	3738	3779	3779	3779	3779	3779	3779	3779	3779	3779	3821	3821	3821	3864	3864	3864	3864	3864	3864	3864	3821	3864	3864	3821	3821	3821	3821	3821	3821	3821	3779	3779	3779	3779	3779	3779	3779	3779	3821	3821	3821	3821	3821	3821	3779	3779	3779	3779	3779	3779	3821	3821	3821	3821	3779	3779	3779	3779	3779	3779	3779	3738	3738	3738	3779	3779	3738	3779	3779	3779	3738	3738	3738	3738	3738	3738	3738	3738	3738	3738	3738	3738	3738	3738	3738	3738	3738	3738	3073	3073	3073	3073	3073	3073	3073	3046	3046	3046	3046	3046	3046	3046	3046	3046	3046	3046	3073	3073	3073	3821	3821	3779	3779	3779	3738	3738	3779	3738	3738	3738	3738	3738	3738	3738	3738	3738	3738	3738	3738	3738	3738	3738	3738	3738	3738	3738	3738	3738	3738	3738	3738	3738	3738	3738	3738	3738	3738	3738	3738	3698	3698	3698	3698	3698	3698	3698	3698	3738	3698	3698	3698	3698	3698	3698	3698	3698	3698	3698	3698	3698	3698	3659	3659	3659	3659	3659	3659	3659	3659	3659	3659	3659	3659	3659	3659	3659	3659	3659	3659	3659	3659	3659	3659	3659	3698	3659	3659	3659	3659	3659	3659	3659	3659	3659	3659	3698	3698	3698	3698	3659	3659	3659	3659	3659	3659	3659	3659	3659	3659	3659	3659	3659	3659	3659	3659	3659	3659	3659	3659	3659	3659	3659	3659	3659	3659	3659	3659	3659	3659	3659	3659	3659	3659	3659	3659	3659	3659	3659	3659	3659	3659	3659	3659	3659	3621	3659	3659	3659	3659	3659	3659	3621	3659	3621	3621	3621	3621	3621	3621	3621	3621	3621	3621	3621	3621	3621	3621	3621	3621	3621	3621	3621	3621	3621	3583	3621	3583	3583	3583	3583	3583	3621	3583	3621	3621	3621	3621	3621	3621	3621	3621	3621	3621	3621	3659	3659	0	0	0	0	0	0	0	0	0	0	0	0	0	0	0	0	0	0	0	0	0	0	0	0	0	0	0	0	0	0	0	0	0	0	0	0	0	0	0	0	0	0	0	0	0	0	0	0	0	0	0	0	0	0	0	0	0	0	0	0	0	0	0	0	0	0	0	0	0	0	0	0	0	0	0	0	0	0	0	0	0	0	0	0	0	0	0	0	0	0	0	0	0	0	0	0	0	0	0	0	0	0	0	0	0	0	0	0	0	0	0	0	0	0	0	0	0	0	0	0	0	0	0	0	0	0
0	0	0	0	865	862	865	865	862	867	867	867	869	867	871	873	875	875	878	880	882	882	884	887	889	889	891	891	896	896	898	901	901	0	0	0	0	0	1894	1883	1873	1883	1873	1883	1883	1883	1883	1894	1894	1894	1904	1894	1894	1894	1894	1883	1883	1883	1883	1883	1883	1883	1894	1904	1915	1915	1904	1904	1904	1904	1904	1904	1904	1904	1915	1915	1925	1925	1925	1925	1925	1925	2711	2690	2690	2690	2690	2669	2669	2669	2669	2669	2649	2649	2649	2649	2649	2649	2649	2649	2649	2649	2649	2629	2649	2629	2629	2649	2629	2649	2649	2649	2649	2649	2649	2669	2669	2669	2669	2649	2669	2669	2669	2669	2669	2669	2669	2669	2669	2649	2649	2669	2669	2669	2669	2669	2669	2669	2669	2669	2669	2669	2669	2649	2669	2649	2649	2649	2649	2649	2669	2649	2649	2669	2649	2649	2649	2649	2649	2649	3864	3821	3779	3779	3738	3738	3738	3738	3738	3738	3738	3738	3779	3779	3738	3738	3738	3738	3738	3738	3738	3738	3738	3698	3698	3698	3738	3738	3738	3738	3738	3738	3738	3738	3738	3698	3698	3698	3698	3698	3698	3698	3698	3698	3698	3698	3698	3698	3738	3738	3738	3779	3779	3779	3779	3779	3779	3779	3821	3821	3821	3864	3864	3864	3864	3821	3864	3864	3821	3821	3821	3821	3821	3821	3821	3821	3821	3821	3821	3821	3779	3779	3779	3779	3779	3779	3779	3779	3821	3821	3821	3779	3779	3779	3779	3779	3779	3779	3779	3779	3779	3779	3779	3779	3779	3738	3779	3779	3779	3738	3738	3738	3779	3779	3779	3779	3779	3779	3779	3738	3738	3738	3738	3738	3738	3738	3738	3738	3738	3738	3738	3738	3738	3738	3738	3738	3101	3101	3101	3101	3073	3073	3073	3073	3046	3046	3046	3046	3046	3046	3046	3046	3046	3046	3101	3073	3073	3821	3821	3821	3779	3779	3779	3779	3779	3779	3738	3738	3779	3738	3738	3738	3779	3738	3738	3738	3738	3738	3738	3738	3738	3738	3738	3738	3738	3738	3738	3738	3738	3738	3738	3738	3738	3738	3738	3738	3738	3698	3698	3698	3698	3698	3698	3698	3698	3698	3698	3698	3698	3698	3698	3698	3698	3698	3698	3698	3698	3698	3698	3659	3659	3659	3659	3659	3659	3659	3659	3659	3659	3659	3659	3659	3659	3659	3659	3659	3659	3659	3659	3621	3659	3659	3659	3659	3659	3659	3659	3659	3659	3659	3659	3659	3659	3698	3698	3698	3698	3659	3659	3659	3659	3659	3659	3659	3659	3659	3659	3659	3659	3659	3659	3659	3659	3659	3659	3659	3659	3659	3659	3659	3659	3659	3659	3659	3659	3659	3659	3659	3659	3659	3659	3659	3659	3659	3659	3659	3659	3659	3659	3659	3659	3659	3621	3621	3659	3621	3621	3659	3621	3621	3659	3621	3621	3621	3621	3621	3621	3621	3621	3621	3621	3621	3621	3621	3621	3621	3621	3621	3621	3621	3621	3621	3583	3621	3583	3583	3583	3583	3583	3621	3583	3583	3583	3621	3621	3621	3621	3621	3621	3621	3621	3621	3621	3621	3621	0	0	0	0	0	0	0	0	0	0	0	0	0	0	0	0	0	0	0	0	0	0	0	0	0	0	0	0	0	0	0	0	0	0	0	0	0	0	0	0	0	0	0	0	0	0	0	0	0	0	0	0	0	0	0	0	0	0	0	0	0	0	0	0	0	0	0	0	0	0	0	0	0	0	0	0	0	0	0	0	0	0	0	0	0	0	0	0	0	0	0	0	0	0	0	0	0	0	0	0	0	0	0	0	0	0	0	0	0	0	0	0	0	0	0	0	0	0	0	0	0	0	0	0	0
0	0	0	0	860	862	862	862	865	867	867	867	867	867	869	873	873	875	878	880	880	882	884	887	889	889	891	894	896	896	901	903	903	0	0	0	0	0	0	0	1894	1894	1883	1894	1894	1894	1894	1904	1904	1904	1904	1904	1894	1894	1894	1894	1894	1883	1883	1894	1894	1894	1904	1904	1915	1915	1915	1904	1904	1915	1904	1904	1904	1915	1925	1925	1925	1925	1936	1925	1936	1936	0	2690	2690	2669	2690	2669	2669	2669	2669	2649	2649	2649	2649	2649	2649	2649	2649	2649	2649	2649	2649	2629	2629	2629	2629	2649	2629	2649	2649	2649	2649	2649	2649	2669	2669	2669	2669	2649	2669	2669	2669	2669	2669	2669	2669	2669	2669	2649	2649	2669	2669	2649	2649	2649	2669	2669	2669	2669	2669	2669	2669	2669	2669	2669	2649	2649	2649	2669	2669	2649	2669	2669	2649	2649	2649	2629	2629	2629	3864	3821	3779	3779	3779	3738	3738	3738	3738	3738	3738	3738	3738	3738	3738	3738	3738	3698	3738	3698	3738	3738	3738	3698	3698	3698	3698	3738	3738	3738	3738	3738	3738	3738	3738	3698	3698	3698	3698	3698	3698	3698	3698	3698	3698	3698	3698	3698	3738	3738	3738	3738	3738	3738	3738	3738	3779	3779	3779	3779	3821	3864	3864	3864	3821	3864	3821	3864	3821	3821	3821	3821	3821	3821	3821	3821	3821	3821	3821	3821	3779	3779	3779	3779	3779	3779	3779	3779	3779	3779	3779	3779	3779	3738	3779	3779	3779	3779	3779	3779	3779	3779	3779	3779	3779	3779	3779	3779	3779	3779	3738	3738	3779	3779	3779	3779	3779	3779	3779	3738	3738	3738	3738	3738	3738	3738	3738	3738	3738	3738	3738	3738	3738	3738	3738	3738	3101	3101	3101	3101	3073	3073	3073	3073	3073	3046	3046	3046	3046	3046	3046	3046	3046	3046	3073	3073	3073	3073	3073	3821	3779	3779	3779	3779	3779	3779	3779	3738	3779	3738	3738	3779	3779	3779	3738	3738	3738	3738	3738	3738	3738	3738	3738	3738	3738	3738	3738	3738	3738	3738	3738	3738	3738	3738	3738	3738	3738	3698	3698	3698	3698	3698	3698	3698	3698	3698	3698	3698	3698	3698	3698	3698	3698	3698	3659	3659	3698	3698	3698	3659	3659	3659	3659	3659	3659	3659	3659	3659	3659	3659	3659	3659	3659	3659	3621	3659	3659	3659	3659	3659	3659	3659	3659	3659	3659	3659	3621	3659	3621	3659	3621	3659	3659	3698	3698	3698	3659	3659	3659	3659	3659	3659	3659	3659	3659	3659	3659	3659	3659	3698	3659	3698	3659	3659	3659	3659	3659	3659	3659	3659	3659	3659	3659	3659	3659	3659	3659	3659	3659	3659	3659	3659	3659	3659	3659	3659	3659	3659	3659	3659	3659	3659	3659	3659	3659	3659	3621	3621	3621	3621	3621	3621	3621	3621	3621	3621	3659	3621	3659	3621	3621	3621	3621	3621	3621	3621	3621	3621	3621	3621	3621	3621	3583	3583	3583	3583	3583	3583	3583	3583	3583	3583	3583	3583	3621	3621	3621	3621	3621	3621	3583	3583	3621	3621	3621	0	0	0	0	0	0	0	0	0	0	0	0	0	0	0	0	0	0	0	0	0	0	0	0	0	0	0	0	0	0	0	0	0	0	0	0	0	0	0	0	0	0	0	0	0	0	0	0	0	0	0	0	0	0	0	0	0	0	0	0	0	0	0	0	0	0	0	0	0	0	0	0	0	0	0	0	0	0	0	0	0	0	0	0	0	0	0	0	0	0	0	0	0	0	0	0	0	0	0	0	0	0	0	0	0	0	0	0	0	0	0	0	0	0	0	0	0	0	0	0	0	0	0	0	0
0	0	0	0	862	862	865	865	865	865	865	865	865	867	869	871	873	873	875	880	882	882	884	887	889	891	894	896	901	898	903	905	903	903	0	0	0	0	0	0	1894	1904	1904	1894	1904	1904	1915	1915	1915	1915	1915	1915	1904	1904	1904	1904	1894	1894	1904	1904	1915	1904	1915	1915	1925	1925	1915	1915	1915	1925	1915	1915	1915	1925	1925	1925	1936	1936	1936	1936	1947	1947	1947	2690	2690	2690	2690	2669	2669	2669	2690	2669	2669	2649	2649	2669	2649	2649	2649	2649	2649	2649	2649	2629	2649	2629	2649	2629	2649	2649	2649	2649	2649	2649	2649	2669	2669	2669	2649	2649	2649	2669	2669	2649	2649	2669	2669	2669	2669	2649	2649	2669	2669	2649	2649	2649	2669	2669	2669	2669	2669	2669	2669	2669	2669	2649	2649	2649	2649	2649	2649	2649	2649	2649	2649	2649	2649	2629	2629	2629	3821	3821	3779	3779	3779	3738	3738	3779	3738	3738	3738	3738	3738	3738	3738	3738	3738	3738	3738	3738	3738	3738	3738	3738	3738	3698	3698	3698	3738	3738	3738	3738	3738	3738	3738	3738	3738	3698	3698	3698	3698	3698	3698	3698	3698	3698	3698	3698	3738	3738	3738	3738	3779	3738	3738	3738	3779	3779	3779	3779	3779	3821	3821	3821	3821	3821	3821	3821	3821	3821	3821	3821	3821	3821	3821	3821	3779	3821	3821	3821	3779	3779	3779	3779	3779	3779	3779	3779	3779	3779	3779	3779	3779	3779	3779	3779	3779	3779	3779	3779	3779	3779	3779	3779	3738	3779	3779	3779	3779	3779	3738	3738	3779	3779	3779	3779	3779	3779	3738	3738	3738	3738	3738	3738	3738	3738	3738	3738	3738	3738	3738	3738	3738	3738	3738	3129	3101	3073	3073	3073	3073	3073	3073	3073	3046	3046	3046	3046	3046	3046	3046	3046	3046	3046	3073	3073	3073	3073	3073	3821	3779	3779	3779	3779	3779	3779	3779	3738	3779	3779	3779	3779	3779	3779	3779	3738	3738	3779	3779	3738	3738	3738	3738	3738	3738	3738	3738	3738	3738	3738	3738	3738	3738	3738	3738	3738	3698	3698	3698	3698	3698	3698	3698	3698	3698	3698	3698	3698	3659	3698	3698	3659	3698	3698	3698	3659	3659	3698	3698	3659	3659	3659	3659	3659	3659	3659	3659	3659	3659	3659	3659	3659	3659	3659	3659	3659	3659	3659	3659	3659	3659	3659	3659	3659	3659	3659	3621	3621	3621	3659	3621	3659	3659	3698	3698	3698	3659	3659	3659	3659	3659	3659	3659	3659	3659	3659	3659	3659	3659	3698	3659	3659	3659	3659	3659	3659	3659	3659	3659	3659	3659	3659	3659	3659	3659	3659	3659	3659	3659	3659	3659	3659	3659	3659	3659	3659	3621	3621	3659	3659	3659	3659	3621	3621	3659	3621	3621	3621	3621	3621	3621	3621	3621	3621	3621	3621	3621	3621	3621	3621	3621	3621	3621	3621	3621	3621	3621	3621	3621	3621	3621	3621	3583	3583	3583	3583	3583	3583	3583	3583	3583	3583	3583	3583	3621	3621	3621	3621	3621	3621	3583	3583	3621	3621	3621	0	0	0	0	0	0	0	0	0	0	0	0	0	0	0	0	0	0	0	0	0	0	0	0	0	0	0	0	0	0	0	0	0	0	0	0	0	0	0	0	0	0	0	0	0	0	0	0	0	0	0	0	0	0	0	0	0	0	0	0	0	0	0	0	0	0	0	0	0	0	0	0	0	0	0	0	0	0	0	0	0	0	0	0	0	0	0	0	0	0	0	0	0	0	0	0	0	0	0	0	0	0	0	0	0	0	0	0	0	0	0	0	0	0	0	0	0	0	0	0	0	0	0	0	0
0	0	0	0	858	865	862	865	862	865	865	867	865	865	867	869	871	873	875	878	880	880	882	884	887	889	891	894	898	896	903	903	903	903	0	0	0	0	0	2063	2063	1947	1915	1915	1915	1915	1925	1925	1925	1925	1925	1925	1925	1915	1915	1915	1915	1925	1925	1925	1925	1925	1925	1925	1925	1925	1925	1925	1925	1925	1925	1925	1925	1925	1936	1936	1936	1936	1936	1936	1947	1958	1958	0	2711	2690	2690	2690	2690	2669	2669	2669	2649	2649	2649	2649	2649	2649	2649	2649	2649	2649	2649	2629	2629	2629	2629	2629	2649	2649	2649	2649	2649	2649	2649	2669	2669	2669	2649	2649	2669	2669	2669	2649	2649	2649	2669	2649	2649	2649	2649	2669	2669	2649	2649	2649	2669	2669	2669	2669	2669	2669	2669	2669	2669	2669	2649	2649	2649	2649	2649	2649	2649	2649	2649	2649	2629	2629	2629	3821	3821	3821	3779	3779	3779	3738	3738	3779	3779	3738	3738	3738	3779	3738	3738	3738	3779	3738	3738	3738	3738	3738	3738	3698	3698	3698	3698	3698	3738	3738	3738	3738	3738	3738	3738	3738	3738	3698	3698	3698	3698	3698	3698	3698	3698	3698	3698	3698	3738	3738	3738	3779	3779	3779	3779	3738	3779	3779	3779	3779	3779	3821	3821	3821	3821	3821	3821	3821	3821	3821	3821	3821	3779	3821	3821	3821	3821	3821	3821	3821	3821	3779	3779	3779	3779	3779	3779	3779	3779	3779	3779	3779	3779	3779	3779	3779	3779	3779	3779	3779	3779	3779	3779	3779	3738	3779	3779	3779	3779	3738	3738	3779	3779	3738	3779	3779	3779	3738	3738	3738	3738	3738	3738	3738	3738	3738	3738	3738	3738	3738	3738	3738	3738	3779	3129	3101	3101	3073	3073	3073	3073	3073	3073	3073	3073	3046	3046	3046	3046	3046	3046	3046	3046	3046	3073	3073	3073	3073	3073	3073	3821	3779	3779	3779	3779	3779	3779	3779	3779	3738	3738	3779	3779	3779	3779	3738	3738	3779	3738	3738	3738	3738	3738	3738	3738	3738	3738	3738	3738	3738	3738	3738	3738	3738	3738	3738	3738	3698	3698	3698	3698	3698	3659	3659	3698	3698	3659	3659	3659	3698	3698	3659	3659	3698	3659	3659	3659	3698	3698	3659	3698	3698	3698	3698	3659	3659	3659	3659	3659	3659	3659	3659	3659	3659	3659	3659	3659	3659	3659	3659	3659	3621	3659	3659	3659	3659	3659	3659	3659	3659	3659	3659	3659	3698	3698	3698	3698	3659	3659	3659	3659	3659	3659	3659	3659	3659	3659	3659	3659	3698	3698	3698	3698	3659	3659	3659	3659	3659	3659	3659	3659	3659	3659	3659	3659	3621	3659	3659	3659	3659	3659	3659	3659	3659	3659	3659	3621	3659	3659	3659	3621	3621	3621	3621	3659	3621	3621	3621	3621	3621	3621	3621	3621	3621	3621	3621	3621	3621	3621	3621	3621	3621	3621	3621	3621	3621	3621	3621	3621	3621	3621	3621	3583	3583	3621	3583	3583	3583	3583	3583	3583	3546	3546	3583	3583	3621	3621	3621	3621	3621	3621	3621	3621	3621	3621	0	0	0	0	0	0	0	0	0	0	0	0	0	0	0	0	0	0	0	0	0	0	0	0	0	0	0	0	0	0	0	0	0	0	0	0	0	0	0	0	0	0	0	0	0	0	0	0	0	0	0	0	0	0	0	0	0	0	0	0	0	0	0	0	0	0	0	0	0	0	0	0	0	0	0	0	0	0	0	0	0	0	0	0	0	0	0	0	0	0	0	0	0	0	0	0	0	0	0	0	0	0	0	0	0	0	0	0	0	0	0	0	0	0	0	0	0	0	0	0	0	0	0	0	0
0	0	0	856	858	860	862	865	862	865	867	867	867	867	871	873	873	873	875	878	880	880	882	884	887	889	894	896	901	901	903	905	905	905	0	0	0	0	0	2063	2063	1958	1925	1925	1925	1925	1936	1936	1925	1925	1936	1936	1936	1936	1936	1936	1936	1936	1947	1936	1925	1925	1936	1936	1936	1936	1925	1925	1925	1925	1925	1925	1925	1925	1947	1947	1958	1947	1947	1947	1958	1969	1969	1969	2711	2711	2711	2711	2690	2669	2669	2649	2649	2649	2649	2669	2649	2649	2649	2649	2649	2649	2649	2649	2649	2649	2649	2629	2649	2649	2649	2649	2649	2649	2649	2669	2669	2649	2649	2649	2649	2669	2669	2649	2669	2669	2669	2669	2669	2669	2649	2669	2669	2669	2649	2669	2649	2669	2669	2669	2669	2669	2669	2669	2669	2649	2649	2649	2649	2649	2649	2649	2649	2649	2649	2649	2649	2629	2629	3821	3821	3821	3779	3738	3738	3738	3779	3779	3779	3738	3738	3738	3738	3738	3738	3738	3738	3738	3738	3738	3738	3738	3738	3698	3698	3698	3698	3698	3698	3738	3738	3738	3738	3738	3738	3738	3738	3698	3698	3698	3698	3698	3698	3698	3698	3698	3698	3698	3738	3738	3738	3779	3779	3779	3779	3738	3779	3779	3779	3779	3779	3779	3821	3821	3821	3821	3821	3821	3821	3821	3779	3821	3779	3821	3821	3821	3821	3821	3821	3821	3779	3779	3779	3779	3779	3779	3779	3779	3779	3779	3779	3779	3779	3779	3779	3779	3779	3779	3779	3779	3779	3779	3779	3779	3738	3738	3779	3779	3738	3738	3779	3779	3779	3779	3738	3779	3779	3738	3738	3738	3738	3738	3738	3738	3698	3698	3738	3738	3738	3738	3779	3779	3157	3129	3157	3101	3101	3073	3073	3073	3073	3073	3073	3073	3073	3046	3046	3046	3046	3046	3046	3046	3046	3046	3073	3073	3073	3073	3046	3046	3821	3779	3779	3779	3779	3779	3779	3779	3779	3738	3738	3779	3779	3779	3779	3738	3738	3738	3738	3738	3738	3738	3738	3738	3738	3738	3738	3738	3738	3738	3738	3738	3738	3738	3738	3738	3738	3698	3698	3698	3698	3659	3659	3659	3659	3698	3659	3698	3698	3698	3698	3698	3698	3698	3698	3659	3659	3698	3698	3659	3698	3698	3698	3698	3698	3698	3698	3659	3659	3698	3698	3698	3698	3698	3698	3698	3659	3659	3659	3659	3659	3621	3659	3659	3659	3659	3659	3621	3659	3659	3621	3621	3659	3698	3698	3698	3659	3659	3659	3659	3659	3659	3659	3659	3659	3659	3659	3659	3659	3659	3659	3659	3659	3659	3698	3659	3659	3659	3659	3659	3659	3659	3621	3659	3621	3621	3659	3659	3659	3659	3621	3659	3659	3659	3659	3659	3621	3621	3659	3659	3621	3621	3621	3621	3621	3621	3621	3621	3621	3621	3621	3621	3621	3621	3621	3621	3621	3621	3621	3621	3621	3621	3621	3621	3621	3621	3621	3621	3621	3621	3621	3621	3621	3583	3621	3583	3583	3583	3583	3583	3546	3546	3546	3583	3583	3621	3621	3621	3583	3583	3583	3583	3621	3621	3621	0	0	0	0	0	0	0	0	0	0	0	0	0	0	0	0	0	0	0	0	0	0	0	0	0	0	0	0	0	0	0	0	0	0	0	0	0	0	0	0	0	0	0	0	0	0	0	0	0	0	0	0	0	0	0	0	0	0	0	0	0	0	0	0	0	0	0	0	0	0	0	0	0	0	0	0	0	0	0	0	0	0	0	0	0	0	0	0	0	0	0	0	0	0	0	0	0	0	0	0	0	0	0	0	0	0	0	0	0	0	0	0	0	0	0	0	0	0	0	0	0	0	0	0	0
0	0	0	854	858	858	860	860	862	865	865	867	867	867	869	871	873	873	875	878	880	880	882	884	887	891	896	898	903	901	903	903	905	905	0	0	0	0	0	1969	1958	1947	1947	1925	1925	1936	1936	1936	1936	1936	1936	1947	1947	1947	1958	1958	1969	1969	1947	1947	1947	1936	1936	1936	1936	1936	1936	1936	1936	1936	1925	1925	1936	1936	1958	1958	1958	1958	1969	1969	1969	1969	1969	1980	2003	2015	2015	2711	2690	2669	2669	2669	2649	2649	2649	2669	2669	2649	2649	2669	2649	2649	2649	2649	2649	2649	2649	2649	2649	2649	2649	2649	2649	2649	2649	2669	2669	2649	2649	2649	2669	2669	2669	2669	2669	2669	2669	2669	2669	2669	2669	2669	2669	2669	2669	2669	2669	2669	2669	2669	2669	2669	2669	2669	2669	2649	2649	2649	2649	2649	2649	2649	2649	2649	2649	2649	2629	2629	2629	3821	3821	3779	3779	3738	3779	3738	3779	3779	3779	3738	3738	3738	3738	3738	3738	3738	3779	3738	3738	3698	3738	3698	3698	3698	3698	3698	3698	3698	3698	3698	3738	3738	3738	3738	3738	3738	3738	3738	3698	3698	3698	3698	3698	3698	3698	3698	3698	3738	3738	3738	3738	3738	3779	3779	3779	3738	3779	3779	3779	3779	3821	3821	3821	3821	3821	3821	3821	3821	3821	3821	3821	3779	3779	3821	3779	3821	3821	3821	3821	3821	3779	3779	3779	3738	3738	3738	3738	3738	3779	3779	3779	3779	3779	3779	3779	3779	3779	3779	3779	3779	3738	3738	3738	3738	3738	3738	3738	3738	3738	3738	3738	3738	3738	3738	3738	3738	3738	3738	3738	3738	3738	3738	3738	3698	3738	3738	3738	3779	3779	3779	3779	3157	3129	3101	3101	3101	3073	3073	3073	3073	3073	3073	3046	3046	3046	3046	3046	3046	3046	3046	3046	3046	3046	3046	3073	3073	3073	3073	3101	3101	3073	3073	3821	3821	3821	3821	3779	3779	3779	3779	3779	3779	3779	3779	3779	3738	3738	3738	3738	3738	3738	3738	3738	3738	3738	3738	3738	3738	3738	3738	3738	3738	3738	3738	3738	3738	3738	3698	3698	3698	3659	3659	3659	3659	3659	3659	3659	3659	3698	3698	3698	3698	3698	3698	3698	3659	3659	3659	3659	3659	3698	3659	3698	3659	3659	3659	3659	3659	3659	3698	3698	3698	3698	3698	3698	3698	3659	3659	3659	3659	3659	3659	3659	3659	3659	3659	3659	3621	3659	3659	3621	3621	3621	3698	3698	3698	3659	3659	3659	3659	3659	3659	3659	3659	3659	3659	3659	3659	3659	3659	3659	3659	3659	3659	3659	3659	3659	3659	3659	3659	3621	3621	3621	3621	3621	3621	3659	3659	3659	3659	3659	3659	3659	3659	3621	3659	3621	3621	3621	3621	3621	3621	3621	3621	3621	3621	3621	3621	3621	3621	3621	3621	3621	3621	3621	3621	3621	3621	3621	3621	3621	3621	3621	3621	3621	3621	3621	3621	3621	3621	3621	3621	3621	3621	3621	3583	3583	3583	3583	3546	3546	3546	3546	3546	3546	3583	3583	3583	3583	3583	3583	3583	3621	3621	3621	0	0	0	0	0	0	0	0	0	0	0	0	0	0	0	0	0	0	0	0	0	0	0	0	0	0	0	0	0	0	0	0	0	0	0	0	0	0	0	0	0	0	0	0	0	0	0	0	0	0	0	0	0	0	0	0	0	0	0	0	0	0	0	0	0	0	0	0	0	0	0	0	0	0	0	0	0	0	0	0	0	0	0	0	0	0	0	0	0	0	0	0	0	0	0	0	0	0	0	0	0	0	0	0	0	0	0	0	0	0	0	0	0	0	0	0	0	0	0	0	0	0	0	0	0
0	0	0	854	858	858	860	860	862	865	865	869	867	867	871	873	873	873	875	878	880	880	882	887	891	896	898	901	905	903	903	903	0	0	0	0	0	0	0	1969	1958	1958	1947	1936	1936	1936	1936	1947	1947	1947	1958	1958	1958	1958	1969	1969	1969	1969	1969	1958	1969	1947	1947	1947	1947	1947	1947	1947	1936	1936	1947	1947	1958	1958	1969	1969	1969	1969	1969	1969	1980	1980	1980	1980	1992	1992	2003	2015	2015	2015	2669	2649	2649	2649	2649	2669	2669	2669	2669	2669	2669	2649	2649	2649	2649	2649	2629	2649	2649	2649	2649	2649	2649	2649	2649	2669	2669	2649	2649	2649	2669	2669	2669	2669	2669	2669	2669	2669	2669	2669	2669	2669	2669	2669	2669	2669	2669	2669	2669	2649	2669	2669	2649	2669	2649	2649	2649	2649	2649	2649	2649	2649	2649	2649	2649	2649	2629	2629	2629	0	3779	3779	3779	3738	3738	3738	3779	3779	3738	3738	3738	3738	3738	3738	3738	3698	3779	3738	3738	3698	3698	3698	3698	3698	3698	3698	3698	3698	3698	3698	3738	3738	3738	3738	3738	3738	3738	3738	3738	3698	3698	3698	3698	3698	3698	3698	3698	3738	3738	3738	3738	3738	3738	3738	3738	3738	3779	3821	3779	3821	3821	3821	3821	3821	3821	3821	3821	3821	3821	3821	3821	3779	3821	3821	3779	3779	3779	3779	3779	3779	3779	3779	3779	3738	3738	3738	3738	3738	3738	3738	3779	3779	3779	3779	3779	3738	3779	3779	3738	3738	3738	3738	3738	3738	3738	3738	3738	3738	3738	3738	3738	3738	3738	3738	3738	3738	3738	3738	3738	3738	3738	3738	3738	3738	3738	3738	3738	3779	3779	3821	3157	3129	3129	3101	3101	3101	3073	3073	3073	3073	3073	3073	3046	3073	3073	3046	3046	3046	3046	3046	3046	3046	3046	3046	3073	3073	3073	3073	3073	3073	3073	3101	3101	3101	3101	3101	3101	3101	3779	3779	3779	3779	3738	3738	3779	3738	3779	3779	3779	3738	3738	3738	3738	3738	3738	3738	3738	3738	3738	3738	3738	3738	3738	3738	3738	3738	3698	3698	3698	3698	3659	3659	3659	3659	3659	3659	3659	3659	3659	3698	3698	3698	3698	3698	3659	3659	3659	3659	3659	3659	3659	3659	3659	3659	3698	3698	3698	3698	3698	3698	3698	3698	3698	3698	3698	3698	3698	3698	3659	3698	3659	3659	3659	3659	3659	3659	3659	3621	3659	3621	3621	3621	3659	3698	3659	3698	3659	3659	3659	3659	3659	3659	3659	3659	3659	3659	3659	3659	3659	3659	3659	3659	3659	3659	3659	3659	3659	3659	3659	3659	3621	3621	3621	3621	3621	3621	3621	3659	3659	3659	3659	3659	3659	3659	3621	3659	3621	3621	3621	3621	3621	3621	3621	3621	3621	3621	3621	3659	3621	3659	3621	3659	3621	3621	3621	3621	3621	3621	3621	3621	3621	3621	3621	3621	3621	3621	3621	3621	3621	3621	3621	3621	3621	3621	3621	3621	3583	3583	3583	3583	3546	3546	3546	3546	3546	3583	3583	3583	3583	3583	3583	3583	3621	3621	3621	0	0	0	0	0	0	0	0	0	0	0	0	0	0	0	0	0	0	0	0	0	0	0	0	0	0	0	0	0	0	0	0	0	0	0	0	0	0	0	0	0	0	0	0	0	0	0	0	0	0	0	0	0	0	0	0	0	0	0	0	0	0	0	0	0	0	0	0	0	0	0	0	0	0	0	0	0	0	0	0	0	0	0	0	0	0	0	0	0	0	0	0	0	0	0	0	0	0	0	0	0	0	0	0	0	0	0	0	0	0	0	0	0	0	0	0	0	0	0	0	0	0	0	0	0
0	0	0	854	856	858	860	860	860	865	865	867	867	867	869	871	873	873	875	878	880	878	882	887	896	901	901	903	905	905	905	903	0	0	0	0	0	0	1969	1969	1958	1958	1947	1947	1947	1947	1947	1958	1958	1958	1969	1969	1969	1969	1980	1969	1969	1969	1969	1969	1969	1969	1958	1947	1947	1947	1947	1947	1947	1958	1969	1969	1969	1969	1980	1980	1980	1980	1980	1980	1980	1980	1980	1980	1992	1992	2003	2027	2027	2027	0	2629	2629	2629	2649	2669	2669	2649	2669	2669	2669	2649	2649	2649	2649	2649	2629	2649	2649	2649	2649	2649	2649	2649	2649	2649	2669	2649	2649	2649	2669	2669	2669	2649	2669	2669	2669	2669	2669	2669	2669	2669	2669	2669	2669	2669	2669	2669	2669	2669	2669	2669	2649	2649	2649	2649	2649	2649	2649	2649	2649	2649	2649	2649	2649	2649	2649	2649	2649	0	3821	3779	3779	3738	3738	3738	3779	3779	3738	3738	3738	3779	3779	3738	3738	3738	3738	3738	3738	3698	3698	3698	3698	3698	3698	3698	3698	3698	3698	3738	3738	3698	3738	3738	3738	3738	3738	3738	3738	3738	3698	3698	3698	3698	3698	3738	3738	3738	3738	3738	3738	3738	3779	3738	3738	3738	3821	3821	3821	3821	3821	3821	3821	3821	3821	3821	3821	3821	3821	3821	3821	3779	3821	3821	3779	3779	3779	3779	3779	3779	3779	3738	3738	3738	3738	3738	3738	3738	3738	3738	3779	3779	3779	3779	3738	3738	3738	3738	3738	3738	3738	3738	3738	3738	3738	3738	3738	3738	3738	3738	3738	3738	3738	3738	3738	3738	3738	3738	3738	3738	3738	3738	3738	3738	3738	3738	3779	3129	3129	3129	3129	3129	3101	3101	3101	3073	3073	3073	3073	3073	3073	3073	3046	3046	3073	3046	3046	3046	3046	3046	3046	3046	3046	3046	3073	3073	3073	3073	3101	3073	3101	3101	3101	3101	3101	3101	3101	3101	3101	3073	3073	3073	3738	3779	3779	3738	3738	3738	3738	3738	3738	3738	3738	3738	3738	3738	3698	3698	3738	3698	3738	3738	3738	3698	3698	3698	3698	3698	3698	3659	3659	3659	3659	3659	3659	3659	3659	3659	3659	3698	3698	3698	3698	3698	3659	3659	3659	3659	3659	3659	3698	3698	3698	3698	3698	3698	3698	3698	3659	3698	3698	3698	3659	3698	3698	3698	3698	3698	3698	3698	3698	3698	3698	3659	3659	3659	3659	3621	3621	3621	3621	3621	3621	3659	3659	3659	3659	3659	3659	3659	3659	3659	3659	3659	3659	3659	3659	3659	3659	3659	3659	3659	3659	3659	3659	3659	3659	3659	3659	3621	3621	3621	3621	3621	3621	3621	3621	3659	3659	3659	3621	3659	3621	3659	3621	3659	3621	3621	3621	3621	3621	3621	3621	3621	3659	3621	3621	3621	3621	3621	3621	3621	3621	3621	3621	3621	3621	3621	3621	3621	3621	3621	3621	3621	3621	3621	3621	3621	3621	3621	3621	3621	3621	3621	3621	3621	3621	3583	3583	3583	3583	3546	3583	3546	3583	3583	3583	3583	3583	3583	3583	3583	3621	3583	3583	0	0	0	0	0	0	0	0	0	0	0	0	0	0	0	0	0	0	0	0	0	0	0	0	0	0	0	0	0	0	0	0	0	0	0	0	0	0	0	0	0	0	0	0	0	0	0	0	0	0	0	0	0	0	0	0	0	0	0	0	0	0	0	0	0	0	0	0	0	0	0	0	0	0	0	0	0	0	0	0	0	0	0	0	0	0	0	0	0	0	0	0	0	0	0	0	0	0	0	0	0	0	0	0	0	0	0	0	0	0	0	0	0	0	0	0	0	0	0	0	0	0	0	0	0
0	0	0	854	856	858	858	860	860	862	865	867	867	867	869	871	873	873	875	878	880	878	880	887	896	903	903	905	905	905	905	0	0	0	0	0	0	0	1969	1969	1969	1969	1958	1958	1958	1958	1980	1980	1969	1969	1969	1969	1969	1980	1980	1980	1980	1980	1980	1980	1980	1969	1969	1958	1958	1958	1958	1958	1958	1969	1980	1980	1980	1980	1980	1980	1980	1980	1980	1980	1980	1980	1980	1980	1992	2003	2003	2015	2015	2027	2027	2629	2629	2629	2629	2649	2649	2649	2669	2649	2649	2649	2649	2649	2629	2629	2629	2629	2629	2629	2629	2649	2649	2649	2649	2669	2669	2669	2649	2669	2649	2649	2649	2649	2669	2669	2669	2669	2669	2669	2669	2669	2669	2669	2669	2669	2669	2649	2669	2649	2649	2649	2649	2649	2649	2649	2649	2649	2649	2649	2649	2649	2649	2649	2649	2649	2649	2649	2649	3864	3821	3821	3779	3738	3738	3738	3779	3779	3738	3738	3779	3779	3779	3738	3738	3738	3738	3738	3698	3698	3698	3698	3698	3698	3698	3698	3698	3698	3698	3698	3738	3698	3698	3738	3738	3738	3738	3738	3738	3738	3698	3698	3698	3698	3698	3738	3738	3738	3738	3738	3738	3738	3738	3738	3779	3738	3821	3821	3821	3821	3821	3821	3821	3821	3821	3821	3821	3821	3821	3821	3821	3779	3779	3779	3779	3779	3779	3779	3779	3779	3779	3779	3779	3738	3738	3738	3738	3738	3738	3738	3779	3779	3779	3779	3738	3738	3738	3738	3738	3738	3738	3738	3738	3738	3738	3738	3738	3738	3738	3738	3738	3738	3738	3738	3738	3738	3738	3738	3738	3738	3738	3738	3738	3101	3129	3129	3101	3101	3101	3101	3129	3101	3101	3073	3073	3073	3073	3073	3073	3073	3073	3073	3046	3046	3073	3046	3046	3046	3046	3046	3046	3046	3046	3046	3073	3073	3073	3073	3073	3073	3101	3073	3073	3101	3101	3101	3101	3101	3101	3101	3073	3046	3046	3046	3738	3738	3738	3738	3738	3738	3738	3738	3738	3738	3738	3738	3698	3698	3698	3698	3698	3738	3738	3698	3698	3698	3698	3698	3698	3698	3698	3659	3659	3659	3659	3659	3659	3698	3698	3698	3698	3698	3698	3698	3698	3698	3698	3698	3698	3659	3698	3698	3698	3659	3698	3698	3698	3698	3698	3698	3698	3698	3659	3698	3698	3698	3698	3698	3659	3698	3698	3698	3698	3659	3659	3659	3659	3659	3659	3621	3621	3621	3621	3659	3659	3659	3659	3659	3659	3659	3659	3659	3659	3659	3659	3659	3659	3659	3659	3659	3659	3659	3659	3659	3621	3659	3659	3621	3621	3621	3621	3621	3621	3621	3621	3621	3621	3621	3659	3621	3621	3621	3621	3621	3621	3621	3621	3621	3621	3621	3621	3621	3621	3621	3621	3621	3621	3621	3621	3621	3621	3621	3621	3621	3621	3621	3621	3621	3621	3621	3621	3621	3621	3621	3621	3621	3621	3621	3621	3621	3621	3621	3621	3621	3621	3621	3621	3621	3621	3583	3583	3583	3583	3583	3583	3583	3583	3583	3583	3583	3583	3583	3621	3583	3583	0	0	0	0	0	0	0	0	0	0	0	0	0	0	0	0	0	0	0	0	0	0	0	0	0	0	0	0	0	0	0	0	0	0	0	0	0	0	0	0	0	0	0	0	0	0	0	0	0	0	0	0	0	0	0	0	0	0	0	0	0	0	0	0	0	0	0	0	0	0	0	0	0	0	0	0	0	0	0	0	0	0	0	0	0	0	0	0	0	0	0	0	0	0	0	0	0	0	0	0	0	0	0	0	0	0	0	0	0	0	0	0	0	0	0	0	0	0	0	0	0	0	0	0	0
0	0	0	854	854	856	858	858	858	860	862	865	865	865	869	871	875	875	878	880	882	882	884	891	896	903	903	908	908	908	908	0	0	0	0	0	0	0	1969	1980	1969	1969	1969	1980	1980	1980	1980	1980	1980	1980	1980	1980	1980	1980	1980	1980	1980	1980	1980	1980	1980	1980	1980	1969	1969	1980	1969	1969	1969	1980	1980	1980	1980	1980	1992	1992	1992	1992	1992	1992	1992	1992	1992	1992	1992	2003	2015	2015	2027	2027	2027	0	2629	2629	2629	2649	2649	2649	2649	2649	2649	2649	2649	2649	2629	2629	2629	2629	2629	2629	2649	2649	2649	2649	2649	2669	2669	2669	2649	2669	2669	2669	2669	2669	2669	2669	2669	2669	2669	2669	2669	2669	2669	2669	2669	2669	2669	2669	2669	2649	2649	2669	2649	2649	2649	2649	2649	2649	2649	2649	2649	2649	2649	2649	2649	2649	2649	2649	0	3864	3864	3821	3779	3738	3738	3779	3779	3779	3779	3779	3779	3779	3779	3738	3738	3738	3738	3738	3698	3698	3698	3698	3698	3698	3698	3698	3698	3698	3698	3698	3738	3698	3698	3698	3698	3698	3698	3698	3738	3698	3698	3698	3698	3698	3698	3738	3738	3738	3738	3738	3738	3738	3738	3738	3738	3738	3779	3779	3821	3821	3821	3821	3821	3821	3821	3779	3821	3779	3821	3821	3779	3779	3779	3821	3779	3779	3779	3779	3779	3779	3779	3779	3779	3779	3738	3738	3779	3738	3738	3779	3779	3779	3779	3779	3738	3738	3738	3738	3738	3738	3738	3738	3738	3738	3738	3738	3738	3738	3738	3738	3738	3738	3738	3738	3738	3738	3738	3738	3738	3698	3698	3738	3073	3073	3101	3101	3101	3101	3101	3101	3101	3101	3101	3073	3073	3073	3073	3073	3073	3073	3073	3046	3046	3046	3046	3046	3046	3046	3046	3046	3046	3046	3046	3046	3073	3073	3073	3073	3073	3073	3073	3073	3073	3101	3101	3101	3101	3101	3101	3101	3073	3073	3073	3073	3046	3046	3738	3738	3738	3738	3738	3738	3738	3738	3738	3698	3698	3698	3698	3698	3698	3698	3738	3698	3698	3698	3698	3698	3698	3698	3698	3659	3659	3698	3698	3698	3698	3698	3698	3698	3698	3698	3698	3698	3698	3698	3698	3698	3698	3659	3659	3659	3698	3659	3698	3698	3698	3659	3659	3659	3659	3659	3659	3659	3698	3659	3698	3659	3659	3698	3698	3698	3698	3659	3659	3659	3659	3659	3659	3621	3621	3621	3621	3659	3659	3659	3659	3659	3659	3659	3659	3659	3659	3659	3659	3659	3659	3659	3621	3621	3659	3621	3659	3621	3621	3659	3659	3621	3621	3621	3621	3621	3621	3621	3621	3621	3621	3621	3621	3659	3621	3659	3659	3659	3659	3659	3659	3621	3621	3621	3621	3659	3659	3621	3621	3621	3621	3621	3621	3621	3621	3621	3621	3621	3621	3621	3621	3621	3621	3621	3621	3621	3621	3621	3621	3621	3621	3621	3621	3621	3621	3621	3621	3621	3621	3621	3621	3621	3621	3621	3583	3583	3583	3583	3583	3583	3583	3583	3583	3583	3583	3583	3621	3583	3583	0	0	0	0	0	0	0	0	0	0	0	0	0	0	0	0	0	0	0	0	0	0	0	0	0	0	0	0	0	0	0	0	0	0	0	0	0	0	0	0	0	0	0	0	0	0	0	0	0	0	0	0	0	0	0	0	0	0	0	0	0	0	0	0	0	0	0	0	0	0	0	0	0	0	0	0	0	0	0	0	0	0	0	0	0	0	0	0	0	0	0	0	0	0	0	0	0	0	0	0	0	0	0	0	0	0	0	0	0	0	0	0	0	0	0	0	0	0	0	0	0	0	0	0	0
0	0	0	852	854	856	856	858	858	865	867	869	869	867	869	873	875	878	878	880	882	882	884	889	894	901	903	903	905	905	905	0	0	0	0	0	0	0	1980	1980	1969	1980	1992	2003	1992	2003	2003	2003	2003	1992	1992	1980	1980	1980	1980	1980	1980	1980	1992	1992	1992	1992	1992	1980	1980	1980	1980	1980	1980	1980	1992	1992	1992	1992	1992	2003	2003	2003	1992	1992	1992	1992	1992	1992	1992	2003	2003	2003	2015	2015	2027	2027	2027	2629	2609	2629	2649	2649	2649	2649	2649	2649	2649	2649	2629	2629	2629	2629	2629	2629	2649	2649	2649	2649	2649	2669	2669	2669	2649	2649	2649	2649	2669	2669	2669	2669	2669	2669	2669	2669	2669	2669	2669	2669	2669	2669	2669	2669	2649	2649	2649	2649	2649	2649	2649	2649	2649	2649	2649	2649	2649	2649	2649	2649	2649	2649	2669	2669	0	3864	3821	3821	3738	3738	3738	3779	3779	3779	3779	3779	3779	3779	3779	3738	3698	3738	3738	3698	3698	3698	3698	3698	3698	3698	3698	3698	3698	3698	3698	3698	3698	3698	3698	3698	3698	3698	3738	3738	3698	3698	3698	3698	3698	3698	3698	3698	3738	3738	3738	3738	3738	3738	3738	3738	3738	3738	3779	3779	3821	3821	3821	3821	3821	3864	3821	3821	3821	3821	3821	3821	3821	3779	3821	3821	3779	3779	3779	3779	3779	3779	3779	3779	3779	3779	3738	3738	3738	3738	3738	3738	3779	3779	3779	3779	3738	3738	3738	3738	3698	3698	3698	3698	3738	3738	3738	3738	3738	3738	3738	3738	3738	3738	3738	3738	3738	3738	2993	2993	2993	2993	2993	3073	3073	3073	3101	3101	3101	3101	3101	3101	3101	3101	3073	3073	3073	3073	3073	3073	3073	3073	3073	3073	3046	3046	3046	3046	3046	3046	3046	3046	3046	3046	3046	3046	3046	3073	3073	3073	3073	3073	3073	3073	3073	3073	3073	3101	3101	3101	3101	3101	3073	3073	3073	3073	3073	3046	3073	3073	3738	3738	3738	3738	3738	3738	3738	3698	3698	3698	3738	3698	3698	3698	3698	3698	3698	3698	3698	3698	3698	3698	3698	3698	3659	3659	3659	3698	3698	3698	3698	3698	3698	3698	3738	3738	3698	3698	3698	3659	3659	3659	3659	3659	3659	3659	3659	3659	3659	3659	3659	3659	3659	3659	3659	3659	3659	3659	3698	3659	3659	3698	3698	3659	3698	3659	3659	3659	3659	3659	3659	3621	3621	3621	3621	3659	3659	3659	3659	3659	3659	3659	3659	3659	3659	3659	3659	3659	3621	3621	3621	3621	3621	3621	3621	3621	3621	3621	3621	3621	3621	3621	3621	3621	3621	3621	3621	3621	3621	3621	3621	3621	3621	3659	3621	3621	3621	3621	3621	3621	3621	3621	3621	3659	3659	3659	3659	3659	3621	3621	3621	3621	3621	3621	3621	3621	3621	3621	3621	3621	3621	3621	3583	3621	3621	3583	3621	3621	3621	3621	3621	3621	3659	3621	3621	3621	3621	3621	3621	3621	3621	3583	3583	3583	3583	3583	3583	3583	3583	3583	3583	3583	3583	3583	3621	3621	3621	3621	0	0	0	0	0	0	0	0	0	0	0	0	0	0	0	0	0	0	0	0	0	0	0	0	0	0	0	0	0	0	0	0	0	0	0	0	0	0	0	0	0	0	0	0	0	0	0	0	0	0	0	0	0	0	0	0	0	0	0	0	0	0	0	0	0	0	0	0	0	0	0	0	0	0	0	0	0	0	0	0	0	0	0	0	0	0	0	0	0	0	0	0	0	0	0	0	0	0	0	0	0	0	0	0	0	0	0	0	0	0	0	0	0	0	0	0	0	0	0	0	0	0	0	0
0	0	0	852	854	856	858	860	860	862	867	867	867	867	871	873	878	878	880	882	882	884	887	889	894	898	901	903	905	908	908	0	0	0	0	0	0	0	1980	1980	1980	1992	2003	2003	2015	2015	2015	2015	2015	2015	2003	1992	1992	1992	1980	1992	1980	1992	1992	1992	2003	1992	1992	1992	1992	1992	1992	1980	1992	1992	1992	1992	2003	1992	2003	2003	2003	2003	2003	1992	1992	1992	1992	1992	2003	2003	2003	2015	2015	2027	2027	2027	2039	2039	2609	2629	2649	2649	2649	2649	2649	2649	2649	2629	2629	2629	2629	2629	2629	2629	2629	2649	2649	2649	2649	2669	2669	2649	2649	2649	2649	2649	2649	2669	2669	2669	2669	2669	2669	2669	2669	2669	2669	2669	2669	2669	2669	2669	2649	2649	2649	2649	2649	2649	2649	2649	2649	2649	2649	2649	2649	2649	2649	2649	2649	2669	2669	2711	2711	3864	3821	3779	3738	3738	3738	3738	3779	3779	3738	3738	3779	3779	3779	3738	3698	3738	3698	3698	3698	3698	3698	3698	3698	3698	3738	3738	3738	3698	3698	3698	3698	3698	3698	3698	3698	3698	3738	3698	3698	3698	3698	3698	3698	3698	3698	3698	3738	3698	3738	3738	3738	3738	3738	3738	3738	3738	3779	3779	3821	3821	3821	3821	3821	3864	3821	3821	3821	3779	3821	3821	3821	3779	3821	3821	3779	3779	3738	3738	3738	3738	3738	3738	3738	3738	3738	3738	3738	3738	3738	3779	3779	3779	3738	3738	3738	3738	3738	3698	3698	3698	3698	3698	3698	3738	3738	3738	3738	3738	3738	3738	3738	3738	3738	3738	2993	3019	3019	3019	3019	2993	3046	3073	3073	3073	3073	3073	3073	3073	3073	3073	3073	3073	3073	3073	3073	3073	3073	3073	3073	3073	3073	3073	3046	3046	3046	3046	3046	3046	3046	3046	3046	3046	3046	3046	3073	3073	3073	3073	3073	3073	3073	3073	3073	3073	3073	3073	3073	3101	3101	3101	3101	3073	3073	3073	3073	3073	3073	3073	3738	3738	3738	3738	3738	3738	3738	3738	3738	3738	3738	3698	3698	3698	3698	3698	3698	3698	3698	3698	3698	3698	3698	3698	3659	3698	3698	3698	3698	3698	3698	3698	3698	3698	3698	3738	3698	3698	3698	3698	3659	3659	3659	3659	3659	3659	3659	3659	3659	3659	3659	3659	3659	3659	3659	3659	3659	3659	3698	3659	3659	3698	3659	3698	3659	3659	3659	3659	3659	3659	3621	3621	3659	3659	3621	3659	3659	3659	3659	3659	3659	3659	3659	3659	3659	3659	3621	3659	3621	3621	3621	3621	3621	3621	3621	3621	3621	3659	3659	3621	3621	3621	3621	3621	3621	3621	3621	3621	3621	3621	3621	3621	3621	3621	3621	3621	3621	3621	3621	3621	3621	3621	3621	3621	3621	3659	3659	3621	3621	3621	3621	3621	3621	3621	3621	3621	3621	3621	3621	3621	3621	3621	3621	3621	3621	3621	3621	3621	3621	3621	3621	3621	3621	3621	3621	3621	3621	3621	3621	3621	3621	3583	3583	3583	3583	3583	3583	3583	3583	3583	3583	3583	3583	3583	3621	3583	3583	3621	0	0	0	0	0	0	0	0	0	0	0	0	0	0	0	0	0	0	0	0	0	0	0	0	0	0	0	0	0	0	0	0	0	0	0	0	0	0	0	0	0	0	0	0	0	0	0	0	0	0	0	0	0	0	0	0	0	0	0	0	0	0	0	0	0	0	0	0	0	0	0	0	0	0	0	0	0	0	0	0	0	0	0	0	0	0	0	0	0	0	0	0	0	0	0	0	0	0	0	0	0	0	0	0	0	0	0	0	0	0	0	0	0	0	0	0	0	0	0	0	0	0	0	0
0	0	0	852	854	854	858	860	860	862	865	865	867	867	869	873	878	880	880	882	884	887	889	889	894	896	901	901	903	905	905	0	0	0	0	0	0	0	2003	1992	2003	2003	2015	2015	2015	2015	2027	2027	2015	2015	2003	2003	2003	1992	1992	1992	1992	1992	2003	2003	2015	2003	2003	1992	2003	2003	2003	1980	1992	1992	2003	2003	2003	2003	2003	2003	2015	2015	2015	2003	2003	2003	2003	2003	2003	2003	2015	2015	2015	2027	2039	2039	2051	2051	2101	2101	2649	2649	2649	2649	2649	2649	2649	2629	2629	2629	2629	2629	2629	2629	2629	2629	2649	2649	2649	2669	2649	2649	2649	2649	2649	2649	2649	2649	2649	2649	2649	2649	2669	2669	2669	2669	2669	2669	2669	2669	2649	2649	2649	2649	2649	2649	2649	2649	2649	2649	2649	2649	2649	2649	2649	2649	2649	2649	2649	2649	2669	2669	2669	0	3779	3779	3738	3738	3738	3738	3779	3779	3738	3738	3779	3779	3779	3738	3698	3738	3738	3698	3698	3698	3738	3738	3738	3738	3738	3738	3738	3738	3698	3698	3698	3698	3698	3698	3698	3698	3698	3698	3698	3698	3698	3698	3698	3698	3698	3698	3698	3698	3698	3738	3698	3738	3738	3738	3738	3738	3779	3779	3821	3821	3821	3821	3821	3821	3821	3821	3779	3779	3821	3821	3779	3779	3779	3779	3779	3738	3738	3738	3738	3738	3738	3738	3738	3738	3738	3738	3738	3738	3738	3738	3738	3779	3738	3738	3738	3738	3738	3698	3698	3698	3698	3698	3698	3738	3738	3738	3698	3738	3738	3738	3698	3738	3738	3019	3019	3019	3019	3019	3019	3019	3046	3073	3073	3101	3073	3073	3073	3073	3073	3073	3073	3073	3073	3073	3073	3073	3073	3073	3073	3073	3073	3073	3046	3046	3046	3046	3046	3046	3046	3046	3046	3046	3019	3046	3073	3073	3073	3073	3073	3073	3073	3073	3073	3073	3073	3073	3073	3073	3073	3073	3073	3073	3073	3073	3073	3073	3073	3073	3073	3073	3738	3738	3738	3738	3738	3738	3738	3738	3738	3738	3738	3698	3698	3698	3698	3698	3698	3659	3659	3698	3698	3698	3659	3698	3698	3698	3698	3698	3698	3698	3698	3698	3698	3738	3698	3698	3698	3698	3659	3659	3659	3659	3659	3659	3659	3659	3659	3659	3659	3659	3698	3698	3659	3659	3659	3659	3698	3698	3659	3698	3698	3698	3659	3659	3621	3659	3659	3659	3621	3621	3621	3659	3621	3659	3659	3659	3659	3659	3659	3659	3659	3659	3659	3659	3621	3621	3621	3621	3621	3621	3621	3621	3621	3621	3621	3659	3659	3659	3621	3621	3621	3621	3621	3621	3621	3621	3621	3621	3621	3621	3621	3621	3621	3621	3621	3621	3621	3621	3621	3621	3621	3621	3621	3621	3621	3621	3621	3621	3621	3621	3621	3621	3621	3621	3621	3621	3621	3621	3621	3621	3621	3621	3621	3621	3621	3621	3621	3621	3621	3621	3621	3621	3621	3621	3583	3621	3621	3583	3583	3583	3583	3583	3583	3583	3583	3583	3583	3583	3583	3621	3621	3583	3621	3621	3621	0	0	0	0	0	0	0	0	0	0	0	0	0	0	0	0	0	0	0	0	0	0	0	0	0	0	0	0	0	0	0	0	0	0	0	0	0	0	0	0	0	0	0	0	0	0	0	0	0	0	0	0	0	0	0	0	0	0	0	0	0	0	0	0	0	0	0	0	0	0	0	0	0	0	0	0	0	0	0	0	0	0	0	0	0	0	0	0	0	0	0	0	0	0	0	0	0	0	0	0	0	0	0	0	0	0	0	0	0	0	0	0	0	0	0	0	0	0	0	0	0	0	0	0	0
0	0	0	852	854	856	862	865	862	862	867	867	867	867	869	873	875	880	882	882	887	887	889	891	894	896	901	901	903	905	905	0	0	0	0	0	0	0	2015	2015	2015	2027	2027	2027	2027	2027	2027	2027	2027	2015	2003	2003	2003	1992	1992	1992	1992	2003	2015	2015	2015	2015	2015	2015	2015	2015	2003	2003	2003	2003	2015	2015	2027	2027	2015	2015	2015	2015	2015	2003	2003	2003	2003	2015	2003	2015	2015	2015	2027	2027	2039	2039	2039	2051	2088	2101	2101	2649	2649	2649	2649	2649	2649	2629	2629	2629	2629	2629	2629	2629	2629	2629	2629	2649	2649	2669	2669	2649	2669	2669	2649	2649	2649	2649	2649	2649	2649	2649	2669	2669	2669	2669	2669	2669	2649	2669	2649	2649	2649	2649	2649	2649	2649	2649	2649	2649	2649	2649	2649	2649	2649	2649	2649	2649	2649	2669	2669	2669	2669	3864	3821	3779	3779	3738	3738	3738	3738	3738	3738	3738	3779	3779	3779	3738	3698	3738	3698	3698	3698	3698	3738	3738	3738	3738	3738	3738	3738	3738	3698	3738	3698	3698	3698	3698	3698	3698	3698	3698	3698	3698	3698	3698	3698	3698	3698	3698	3698	3698	3698	3698	3698	3698	3698	3738	3738	3738	3779	3779	3779	3821	3821	3821	3821	3821	3821	3779	3779	3779	3779	3779	3779	3779	3779	3779	3779	3779	3738	3738	3738	3738	3738	3738	3738	3738	3738	3738	3738	3738	3738	3738	3738	3738	3738	3738	3738	3738	3738	3698	3698	3698	3698	3698	3698	3738	3738	3738	3738	3738	3738	3738	3698	3738	3046	3046	3046	3046	3046	3046	3046	3046	3046	3073	3073	3073	3073	3073	3073	3073	3073	3073	3073	3073	3073	3073	3073	3073	3073	3073	3073	3073	3073	3073	3046	3046	3046	3046	3046	3046	3046	3046	3046	3046	3019	3046	3073	3073	3073	3073	3073	3073	3073	3073	3073	3073	3073	3073	3073	3073	3073	3073	3073	3073	3101	3073	3073	3073	3073	3073	3073	3073	3738	3738	3738	3738	3738	3738	3738	3738	3738	3738	3738	3698	3698	3698	3698	3698	3698	3659	3698	3698	3698	3698	3659	3698	3698	3698	3698	3698	3698	3698	3698	3698	3698	3698	3698	3698	3698	3698	3698	3659	3659	3659	3659	3659	3659	3698	3698	3659	3659	3698	3698	3698	3659	3659	3659	3698	3698	3698	3698	3698	3698	3659	3659	3659	3659	3659	3659	3659	3621	3621	3621	3659	3621	3698	3659	3659	3659	3659	3659	3659	3659	3659	3659	3659	3621	3621	3621	3621	3621	3621	3621	3621	3621	3621	3621	3659	3659	3659	3659	3621	3621	3621	3621	3621	3621	3621	3621	3621	3621	3621	3621	3621	3621	3621	3621	3621	3621	3621	3621	3621	3621	3621	3621	3621	3621	3621	3621	3621	3621	3621	3621	3621	3621	3621	3621	3621	3621	3621	3621	3621	3621	3621	3621	3621	3621	3621	3621	3621	3621	3621	3621	3621	3621	3621	3621	3621	3621	3583	3583	3583	3583	3583	3583	3583	3583	3583	3583	3583	3583	3583	3583	3583	3621	3621	3621	0	0	0	0	0	0	0	0	0	0	0	0	0	0	0	0	0	0	0	0	0	0	0	0	0	0	0	0	0	0	0	0	0	0	0	0	0	0	0	0	0	0	0	0	0	0	0	0	0	0	0	0	0	0	0	0	0	0	0	0	0	0	0	0	0	0	0	0	0	0	0	0	0	0	0	0	0	0	0	0	0	0	0	0	0	0	0	0	0	0	0	0	0	0	0	0	0	0	0	0	0	0	0	0	0	0	0	0	0	0	0	0	0	0	0	0	0	0	0	0	0	0	0	0	0
0	0	0	850	852	854	865	865	862	862	865	867	867	867	869	871	875	880	880	882	884	887	889	891	894	894	898	898	903	905	905	0	0	0	0	0	0	0	2027	2027	2027	2039	2039	2027	2039	2027	2027	2027	2027	2027	2015	2015	2015	2003	2015	2015	2015	2027	2027	2027	2039	2027	2027	2027	2015	2015	2015	2015	2003	2015	2027	2027	2039	2039	2039	2027	2027	2027	2039	2027	2027	2015	2015	2027	2015	2015	2015	2027	2027	2027	2039	2039	2051	2051	2076	2101	2101	2101	2649	2649	2649	2649	2629	2629	2629	2629	2629	2629	2629	2629	2629	2629	2629	2649	2649	2669	2649	2649	2669	2669	2649	2649	2649	2649	2649	2649	2649	2649	2649	2669	2649	2649	2649	2669	2649	2649	2669	2649	2649	2649	2649	2649	2649	2649	2649	2649	2649	2649	2649	2649	2649	2649	2649	2649	2649	2649	2669	2669	0	3821	3821	3779	3738	3738	3738	3738	3738	3779	3779	3779	3779	3779	3779	3779	3738	3738	3698	3698	3698	3698	3698	3738	3738	3738	3738	3738	3738	3738	3738	3738	3698	3698	3698	3698	3698	3698	3698	3698	3698	3698	3698	3698	3698	3698	3698	3698	3698	3698	3698	3698	3698	3698	3698	3738	3738	3738	3779	3779	3779	3821	3779	3821	3821	3821	3821	3821	3779	3779	3821	3821	3779	3779	3779	3779	3779	3779	3738	3738	3738	3738	3738	3738	3738	3738	3738	3738	3738	3738	3738	3738	3738	3738	3738	3738	3738	3738	3738	3698	3698	3698	3698	3698	3698	3698	3698	3738	3698	3698	3738	3738	3698	3738	3738	3073	3073	3046	3073	3073	3046	3046	3073	3073	3073	3073	3073	3073	3073	3073	3073	3073	3073	3073	3046	3046	3046	3046	3046	3046	3046	3046	3046	3046	3046	3046	3046	3046	3046	3046	3046	3046	3046	3046	3019	3046	3073	3073	3073	3073	3046	3073	3073	3073	3046	3073	3073	3073	3073	3073	3073	3073	3073	3073	3073	3073	3073	3073	3073	3073	3073	3073	3073	3738	3738	3738	3738	3738	3738	3738	3738	3738	3738	3698	3698	3698	3698	3698	3698	3698	3698	3698	3698	3698	3659	3698	3698	3698	3698	3698	3698	3698	3698	3698	3698	3698	3738	3698	3698	3698	3698	3659	3659	3659	3659	3659	3659	3659	3659	3659	3659	3659	3659	3659	3659	3659	3659	3659	3698	3698	3659	3659	3659	3659	3659	3659	3659	3659	3621	3659	3659	3621	3621	3659	3621	3698	3659	3659	3659	3659	3659	3659	3659	3659	3659	3659	3659	3659	3621	3621	3621	3621	3621	3621	3621	3621	3621	3659	3659	3659	3621	3621	3621	3621	3621	3621	3621	3621	3621	3621	3621	3621	3621	3621	3621	3621	3621	3621	3621	3621	3621	3621	3621	3621	3621	3621	3621	3621	3621	3621	3621	3621	3621	3621	3621	3621	3621	3621	3621	3621	3621	3621	3621	3621	3621	3621	3621	3621	3621	3621	3621	3621	3621	3621	3621	3621	3583	3621	3583	3583	3583	3583	3583	3583	3583	3583	3583	3583	3583	3583	3583	3583	3583	3583	3583	3583	3583	0	0	0	0	0	0	0	0	0	0	0	0	0	0	0	0	0	0	0	0	0	0	0	0	0	0	0	0	0	0	0	0	0	0	0	0	0	0	0	0	0	0	0	0	0	0	0	0	0	0	0	0	0	0	0	0	0	0	0	0	0	0	0	0	0	0	0	0	0	0	0	0	0	0	0	0	0	0	0	0	0	0	0	0	0	0	0	0	0	0	0	0	0	0	0	0	0	0	0	0	0	0	0	0	0	0	0	0	0	0	0	0	0	0	0	0	0	0	0	0	0	0	0	0	0
0	0	0	848	850	850	862	862	862	862	865	867	867	867	869	873	875	880	880	882	884	887	889	891	894	894	898	896	898	898	905	0	0	0	0	0	0	2039	2027	2039	2039	2039	2039	2039	2039	2039	2039	2039	2027	2027	2027	2027	2027	2027	2027	2027	2027	2027	2039	2039	2039	2039	2027	2027	2027	2015	2015	2015	2015	2027	2027	2027	2051	2051	2051	2051	2051	2039	2051	2039	2027	2039	2039	2039	2027	2027	2027	2039	2039	2039	2051	2051	2063	2063	2076	2076	2088	2088	2088	2649	2629	2629	2629	2629	2629	2629	2629	2629	2629	2629	2649	2629	2629	2649	2649	2669	2649	2649	2649	2649	2649	2649	2649	2649	2649	2649	2649	2649	2649	2649	2649	2649	2649	2649	2649	2649	2649	2649	2649	2649	2649	2649	2649	2649	2649	2649	2649	2649	2649	2649	2649	2629	2629	2629	2649	2649	2649	2669	2669	3821	3779	3779	3779	3779	3779	3779	3821	3779	3779	3779	3779	3779	3779	3738	3738	3738	3738	3698	3738	3698	3738	3738	3738	3779	3779	3779	3738	3738	3738	3738	3698	3698	3698	3698	3698	3698	3698	3698	3698	3698	3698	3698	3698	3698	3698	3698	3698	3698	3698	3698	3698	3698	3698	3738	3738	3738	3779	3779	3779	3821	3779	3821	3821	3821	3821	3821	3779	3821	3821	3821	3779	3779	3779	3779	3779	3779	3738	3738	3738	3738	3738	3738	3738	3738	3738	3738	3738	3738	3738	3738	3738	3738	3738	3738	3738	3738	3738	3698	3698	3698	3698	3698	3698	3698	3698	3698	3698	3698	3698	3738	3698	3698	3101	3101	3073	3073	3073	3073	3073	3073	3073	3073	3073	3073	3073	3073	3073	3046	3046	3073	3046	3046	3046	3046	3046	3046	3046	3046	3046	3046	3046	3046	3046	3046	3046	3046	3046	3019	3019	3019	3019	3019	3019	3019	3046	3046	3046	3046	3046	3073	3046	3073	3046	3073	3073	3073	3073	3073	3073	3073	3073	3073	3073	3073	3073	3073	3073	3101	3101	3073	3073	3073	3073	3738	3738	3738	3738	3738	3738	3738	3738	3738	3698	3698	3698	3698	3698	3659	3698	3698	3698	3659	3659	3698	3698	3698	3698	3698	3698	3698	3659	3698	3698	3698	3698	3698	3698	3698	3698	3659	3659	3659	3659	3659	3659	3659	3659	3659	3659	3659	3659	3659	3659	3659	3659	3659	3659	3659	3659	3698	3659	3659	3659	3659	3621	3659	3621	3659	3659	3659	3621	3659	3659	3698	3659	3659	3659	3659	3659	3659	3659	3659	3659	3659	3621	3621	3621	3621	3621	3621	3621	3621	3621	3621	3621	3621	3621	3621	3621	3621	3621	3621	3621	3621	3621	3621	3621	3621	3621	3621	3621	3621	3621	3621	3621	3621	3621	3621	3621	3621	3621	3621	3621	3621	3621	3621	3621	3621	3621	3621	3621	3621	3621	3621	3621	3659	3659	3621	3621	3621	3621	3621	3621	3621	3621	3621	3621	3621	3621	3621	3621	3621	3621	3621	3583	3583	3583	3546	3546	3546	3546	3546	3546	3583	3583	3583	3583	3583	3583	3583	3583	3583	3621	3621	3621	0	0	0	0	0	0	0	0	0	0	0	0	0	0	0	0	0	0	0	0	0	0	0	0	0	0	0	0	0	0	0	0	0	0	0	0	0	0	0	0	0	0	0	0	0	0	0	0	0	0	0	0	0	0	0	0	0	0	0	0	0	0	0	0	0	0	0	0	0	0	0	0	0	0	0	0	0	0	0	0	0	0	0	0	0	0	0	0	0	0	0	0	0	0	0	0	0	0	0	0	0	0	0	0	0	0	0	0	0	0	0	0	0	0	0	0	0	0	0	0	0	0	0	0	0
0	0	0	848	850	854	865	865	865	865	867	867	867	867	869	873	875	878	880	882	884	884	889	891	891	894	894	894	896	896	0	0	0	0	0	0	0	2039	2063	2063	2063	2063	2051	2051	2051	2051	2051	2039	2039	2039	2039	2039	2039	2039	2039	2051	2039	2039	2051	2051	2051	2051	2039	2039	2039	2027	2027	2027	2039	2051	2063	2063	2063	2063	2063	2051	2063	2051	2051	2051	2039	2051	2051	2051	2039	2051	2039	2039	2051	2051	2051	2051	2063	2076	2076	2076	2076	2088	2088	2088	2629	2629	2629	2629	2629	2629	2629	2629	2649	2649	2649	2629	2629	2629	2629	2649	2649	2649	2649	2649	2649	2649	2649	2649	2649	2649	2649	2649	2649	2649	2649	2649	2649	2649	2669	2649	2669	2669	2669	2649	2649	2649	2649	2649	2649	2649	2649	2649	2649	2649	2649	2629	2629	2649	2649	2649	2669	2669	2669	0	3779	3738	3738	3779	3779	3738	3738	3738	3779	3779	3779	3779	3779	3779	3779	3738	3698	3698	3738	3698	3738	3738	3738	3779	3779	3779	3779	3779	3738	3738	3698	3698	3698	3698	3698	3698	3698	3698	3698	3698	3698	3698	3698	3698	3698	3698	3698	3698	3698	3698	3698	3698	3698	3738	3738	3738	3779	3779	3779	3821	3821	3821	3821	3821	3821	3821	3821	3821	3821	3821	3779	3779	3779	3779	3779	3779	3738	3738	3738	3738	3738	3738	3738	3738	3738	3738	3738	3738	3738	3738	3738	3738	3738	3738	3738	3738	3738	3698	3698	3738	3698	3698	3698	3698	3738	3738	3698	3698	3698	3738	3698	3101	3101	3073	3073	3073	3073	3073	3073	3073	3073	3073	3073	3073	3073	3073	3073	3046	3046	3046	3046	3046	3046	3046	3046	3046	3046	3046	3046	3046	3046	3046	3046	3046	3046	3046	3046	3019	3019	3019	3019	3019	3019	3019	3046	3046	3046	3046	3046	3073	3046	3073	3046	3073	3073	3046	3046	3046	3046	3046	3073	3073	3073	3073	3073	3073	3073	3073	3101	3073	3073	3073	3046	3073	3073	3738	3738	3738	3738	3738	3738	3738	3698	3698	3698	3698	3698	3659	3698	3698	3698	3698	3659	3698	3659	3698	3659	3698	3698	3698	3659	3698	3698	3698	3698	3698	3698	3698	3698	3698	3659	3659	3698	3659	3659	3659	3659	3698	3659	3659	3659	3659	3659	3659	3659	3659	3659	3659	3659	3698	3659	3659	3659	3659	3659	3659	3621	3659	3659	3659	3659	3659	3659	3698	3659	3659	3659	3659	3659	3659	3659	3659	3659	3659	3659	3659	3621	3621	3621	3621	3621	3621	3621	3621	3621	3621	3621	3621	3621	3621	3621	3621	3621	3621	3621	3621	3621	3621	3621	3621	3621	3621	3621	3621	3621	3621	3621	3621	3621	3621	3621	3621	3621	3621	3621	3621	3621	3621	3621	3621	3621	3621	3621	3621	3621	3621	3621	3621	3621	3621	3621	3621	3621	3621	3621	3621	3621	3621	3621	3621	3621	3621	3621	3583	3583	3583	3583	3546	3546	3546	3546	3546	3546	3546	3546	3546	3583	3583	3583	3583	3583	3583	3583	3583	3583	0	0	0	0	0	0	0	0	0	0	0	0	0	0	0	0	0	0	0	0	0	0	0	0	0	0	0	0	0	0	0	0	0	0	0	0	0	0	0	0	0	0	0	0	0	0	0	0	0	0	0	0	0	0	0	0	0	0	0	0	0	0	0	0	0	0	0	0	0	0	0	0	0	0	0	0	0	0	0	0	0	0	0	0	0	0	0	0	0	0	0	0	0	0	0	0	0	0	0	0	0	0	0	0	0	0	0	0	0	0	0	0	0	0	0	0	0	0	0	0	0	0	0	0	0
0	0	0	848	856	858	858	865	865	865	867	867	867	867	869	873	875	878	880	882	887	889	891	894	894	894	894	896	896	896	0	0	0	0	0	0	0	2088	2076	2063	2063	2063	2063	2063	2063	2063	2063	2063	2051	2063	2063	2051	2051	2051	2051	2051	2051	2051	2051	2051	2051	2051	2039	2039	2039	2039	2039	2039	2051	2063	2063	2088	2076	2076	2076	2063	2076	2063	2063	2063	2051	2063	2063	2063	2051	2051	2051	2051	2063	2051	2063	2063	2076	2076	2076	2076	2076	2088	2088	2088	2088	2609	2629	2629	2629	2629	2629	2629	2649	2649	2649	2629	2629	2629	2629	2649	2649	2649	2649	2649	2649	2649	2649	2649	2649	2649	2649	2649	2649	2649	2629	2649	2649	2649	2649	2649	2669	2669	2649	2649	2649	2629	2649	2649	2649	2649	2649	2629	2649	2649	2649	2629	2629	2649	2649	2649	2669	2669	2669	2669	3779	3738	3738	3779	3779	3738	3738	3738	3779	3779	3779	3779	3779	3779	3779	3738	3738	3698	3738	3698	3738	3738	3738	3779	3779	3738	3738	3738	3738	3738	3698	3698	3698	3698	3698	3698	3698	3698	3698	3698	3698	3698	3698	3698	3698	3698	3698	3698	3698	3698	3698	3698	3698	3738	3738	3738	3779	3779	3779	3821	3821	3821	3821	3821	3821	3821	3821	3779	3779	3821	3779	3779	3779	3779	3779	3779	3738	3738	3738	3738	3738	3738	3738	3738	3738	3738	3738	3738	3738	3738	3738	3738	3738	3738	3738	3738	3738	3698	3738	3738	3738	3698	3698	3698	3738	3698	3698	3698	3698	3738	3129	3129	3101	3073	3073	3073	3073	3073	3073	3073	3073	3073	3073	3073	3046	3046	3046	3046	3046	3019	3019	3019	3019	3019	3046	3046	3046	3046	3046	3046	3046	3046	3046	3046	3046	3046	3046	3019	3019	3019	3019	3019	3019	3019	3046	3046	3019	3046	3046	3046	3046	3046	3046	3046	3046	3046	3046	3046	3046	3046	3073	3073	3073	3073	3073	3073	3073	3073	3073	3073	3073	3073	3073	3073	3073	3779	3779	3738	3738	3738	3738	3738	3698	3698	3698	3659	3698	3659	3659	3698	3698	3659	3659	3698	3659	3698	3698	3698	3698	3698	3659	3659	3698	3698	3698	3698	3698	3698	3698	3698	3698	3659	3698	3659	3659	3659	3659	3698	3659	3659	3659	3659	3659	3659	3659	3659	3659	3659	3659	3698	3659	3659	3659	3659	3621	3659	3621	3659	3659	3659	3621	3659	3659	3698	3659	3659	3659	3659	3659	3659	3659	3659	3659	3659	3659	3659	3659	3621	3621	3621	3621	3621	3621	3621	3621	3621	3621	3621	3621	3621	3621	3621	3621	3621	3621	3621	3621	3621	3621	3621	3621	3621	3621	3621	3621	3621	3621	3621	3621	3621	3621	3621	3621	3583	3621	3621	3621	3621	3621	3621	3621	3621	3621	3621	3621	3621	3621	3621	3621	3621	3621	3621	3621	3621	3621	3621	3621	3621	3621	3621	3621	3621	3621	3583	3583	3583	3583	3546	3546	3546	3546	3510	3510	3546	3546	3546	3546	3546	3546	3583	3583	3546	3546	3546	3546	0	0	0	0	0	0	0	0	0	0	0	0	0	0	0	0	0	0	0	0	0	0	0	0	0	0	0	0	0	0	0	0	0	0	0	0	0	0	0	0	0	0	0	0	0	0	0	0	0	0	0	0	0	0	0	0	0	0	0	0	0	0	0	0	0	0	0	0	0	0	0	0	0	0	0	0	0	0	0	0	0	0	0	0	0	0	0	0	0	0	0	0	0	0	0	0	0	0	0	0	0	0	0	0	0	0	0	0	0	0	0	0	0	0	0	0	0	0	0	0	0	0	0	0	0
0	0	0	848	852	858	858	865	865	867	867	869	869	869	871	873	875	875	880	882	887	891	894	894	896	896	896	896	896	0	0	0	0	0	0	0	0	2114	2076	2076	2063	2063	2063	2063	2063	2063	2063	2063	2063	2076	2063	2063	2063	2051	2051	2063	2063	2051	2063	2063	2063	2051	2051	2051	2039	2039	2051	2063	2076	2088	2101	2101	2088	2088	2076	2076	2076	2063	2063	2063	2063	2063	2063	2063	2063	2063	2063	2063	2063	2063	2076	2076	2088	2088	2076	2076	2088	2088	2088	2088	2088	2609	2609	2629	2629	2629	2629	2649	2649	2649	2649	2629	2629	2629	2629	2649	2649	2649	2649	2669	2649	2649	2649	2649	2649	2649	2649	2649	2649	2649	2629	2629	2629	2629	2649	2649	2649	2649	2649	2649	2649	2649	2649	2649	2649	2649	2629	2629	2629	2629	2629	2629	2629	2649	2649	2649	2669	2649	2669	2669	0	3738	3738	3738	3779	3738	3738	3738	3779	3779	3779	3779	3779	3779	3779	3738	3738	3698	3738	3698	3738	3738	3738	3779	3738	3738	3738	3738	3698	3698	3698	3698	3698	3698	3698	3698	3698	3698	3698	3698	3698	3698	3698	3698	3698	3698	3698	3698	3698	3698	3698	3698	3698	3698	3738	3738	3738	3779	3779	3779	3821	3821	3821	3821	3821	3821	3779	3779	3779	3779	3779	3779	3779	3779	3779	3779	3738	3738	3738	3738	3738	3738	3738	3738	3738	3738	3738	3738	3738	3738	3738	3738	3738	3738	3738	3738	3738	3738	3738	3738	3738	3738	3738	3738	3738	3738	3738	3738	3738	3129	3129	3101	3101	3073	3073	3073	3073	3073	3073	3073	3073	3073	3046	3046	3046	3046	3046	3046	3019	3019	3019	3019	3019	3019	3019	3019	3046	3046	3046	3046	3046	3046	3046	3046	3046	3046	3046	3019	3019	3019	3019	3019	3019	3019	3046	3046	3019	3046	3046	3046	3046	3046	3046	3046	3046	3046	3019	3046	3046	3046	3046	3073	3073	3073	3073	3073	3073	3073	3073	3073	3073	3073	3073	3073	3073	3779	3779	3738	3738	3738	3738	3738	3698	3698	3698	3698	3698	3659	3659	3698	3698	3659	3659	3659	3659	3698	3659	3659	3698	3698	3659	3659	3698	3698	3698	3698	3698	3738	3698	3698	3698	3659	3698	3698	3659	3659	3659	3659	3659	3659	3659	3659	3659	3659	3659	3659	3659	3659	3659	3659	3659	3659	3621	3659	3621	3621	3621	3659	3659	3659	3659	3621	3659	3698	3698	3659	3659	3659	3659	3659	3659	3659	3659	3659	3659	3659	3621	3621	3621	3621	3621	3621	3621	3621	3621	3621	3621	3621	3621	3621	3621	3621	3621	3621	3621	3621	3621	3621	3621	3621	3621	3621	3621	3621	3621	3621	3621	3621	3621	3621	3621	3621	3583	3583	3583	3621	3621	3621	3621	3621	3621	3621	3621	3621	3621	3621	3621	3621	3621	3621	3621	3621	3621	3621	3621	3621	3621	3621	3621	3621	3621	3621	3621	3583	3583	3583	3546	3546	3510	3510	3510	3510	3546	3546	3546	3546	3546	3583	3583	3583	3583	3583	3583	3583	3546	3546	0	0	0	0	0	0	0	0	0	0	0	0	0	0	0	0	0	0	0	0	0	0	0	0	0	0	0	0	0	0	0	0	0	0	0	0	0	0	0	0	0	0	0	0	0	0	0	0	0	0	0	0	0	0	0	0	0	0	0	0	0	0	0	0	0	0	0	0	0	0	0	0	0	0	0	0	0	0	0	0	0	0	0	0	0	0	0	0	0	0	0	0	0	0	0	0	0	0	0	0	0	0	0	0	0	0	0	0	0	0	0	0	0	0	0	0	0	0	0	0	0	0	0	0
0	0	0	850	854	858	862	865	865	867	867	869	869	869	871	873	873	875	880	884	887	891	894	896	896	896	896	901	901	0	0	0	0	0	0	0	0	2114	2114	2088	2076	2076	2076	2076	2076	2076	2076	2076	2076	2076	2076	2076	2076	2076	2076	2076	2076	2076	2063	2076	2076	2076	2063	2063	2063	2088	2101	2101	2101	2101	2114	2101	2101	2088	2088	2076	2076	2076	2076	2076	2063	2063	2076	2076	2076	2063	2063	2076	2076	2076	2076	2076	2088	2088	2076	2076	2088	2101	2088	2088	2570	2589	2609	2609	2609	2629	2629	2629	2649	2649	2649	2629	2629	2629	2629	2669	2649	2649	2649	2669	2649	2649	2649	2649	2649	2649	2649	2649	2649	2649	2629	2629	2629	2649	2649	2649	2669	2669	2649	2649	2649	2629	2649	2649	2649	2649	2629	2629	2629	2629	2629	2629	2629	2649	2649	2649	2649	2649	2669	2669	0	3738	3738	3738	3821	3738	3738	3738	3779	3779	3779	3779	3779	3779	3779	3779	3738	3738	3738	3738	3738	3738	3698	3738	3738	3738	3738	3698	3698	3698	3698	3698	3698	3698	3698	3698	3738	3698	3698	3698	3698	3698	3698	3698	3698	3698	3698	3698	3698	3698	3698	3698	3698	3698	3779	3779	3821	3779	3779	3779	3779	3821	3821	3821	3779	3779	3779	3779	3779	3779	3779	3779	3779	3779	3779	3779	3738	3738	3738	3738	3738	3738	3738	3738	3738	3738	3738	3738	3738	3738	3738	3738	3738	3738	3738	3738	3738	3738	3738	3738	3738	3738	3738	3738	3738	3738	3738	3698	3129	3129	3129	3101	3101	3101	3073	3073	3073	3073	3073	3073	3073	3073	3046	3046	3046	3046	3046	3046	3019	3019	3019	3019	3019	3019	3019	3019	3019	3019	3046	3046	3046	3046	3046	3019	3019	3019	3019	3019	2993	3019	2993	2993	2993	3019	3046	3046	3019	3046	3046	3046	3046	3046	3046	3046	3046	3019	3019	3046	3019	3019	3046	3046	3073	3073	3073	3073	3073	3073	3073	3073	3073	3073	3073	3073	3073	3073	3779	3779	3738	3738	3738	3698	3698	3698	3698	3659	3698	3659	3659	3659	3659	3659	3659	3659	3659	3698	3698	3698	3698	3698	3659	3698	3698	3698	3698	3698	3698	3698	3698	3698	3698	3698	3698	3698	3698	3659	3659	3659	3659	3621	3621	3621	3621	3621	3621	3621	3659	3659	3659	3659	3659	3659	3621	3659	3621	3621	3621	3621	3621	3621	3659	3621	3659	3698	3659	3659	3659	3659	3659	3659	3659	3659	3659	3659	3659	3659	3659	3659	3659	3621	3621	3621	3621	3621	3621	3621	3621	3621	3621	3621	3621	3621	3621	3621	3621	3659	3621	3621	3621	3621	3621	3621	3621	3621	3621	3621	3621	3621	3621	3621	3621	3621	3621	3583	3621	3621	3621	3621	3621	3621	3621	3621	3621	3621	3621	3621	3621	3621	3621	3621	3621	3621	3621	3621	3621	3621	3621	3621	3621	3621	3621	3621	3621	3583	3583	3546	3546	3546	3510	3510	3510	3510	3510	3546	3546	3546	3546	3583	3583	3583	3583	3546	3546	3546	3546	3546	0	0	0	0	0	0	0	0	0	0	0	0	0	0	0	0	0	0	0	0	0	0	0	0	0	0	0	0	0	0	0	0	0	0	0	0	0	0	0	0	0	0	0	0	0	0	0	0	0	0	0	0	0	0	0	0	0	0	0	0	0	0	0	0	0	0	0	0	0	0	0	0	0	0	0	0	0	0	0	0	0	0	0	0	0	0	0	0	0	0	0	0	0	0	0	0	0	0	0	0	0	0	0	0	0	0	0	0	0	0	0	0	0	0	0	0	0	0	0	0	0	0	0	0
0	0	0	848	852	858	862	862	865	867	867	869	869	871	873	875	875	878	882	882	887	891	894	896	896	896	896	896	896	0	0	0	0	0	0	0	0	2127	2114	2088	2088	2088	2088	2088	2088	2076	2076	2088	2088	2088	2101	2088	2088	2088	2088	2101	2088	2088	2076	2088	2088	2088	2076	2076	2088	2101	2114	2101	2114	2114	2114	2114	2114	2101	2101	2088	2088	2076	2076	2076	2076	2076	2076	2076	2076	2076	2076	2088	2088	2088	2088	2088	2101	2101	2088	2088	2101	2101	2101	2101	2551	2570	2589	2609	2629	2629	2629	2629	2649	2649	2649	2649	2649	2649	2649	2669	2649	2649	2649	2649	2649	2649	2649	2649	2649	2649	2649	2649	2649	2649	2649	2649	2649	2649	2649	2649	2669	2669	2649	2649	2649	2629	2649	2649	2649	2629	2629	2629	2629	2629	2629	2629	2629	2649	2649	2649	2649	2649	2669	2669	0	3779	3779	3738	3779	3738	3779	3821	3821	3821	3779	3779	3738	3779	3779	3779	3738	3738	3738	3738	3738	3738	3698	3738	3738	3738	3738	3698	3698	3698	3698	3698	3698	3698	3738	3738	3738	3738	3698	3698	3698	3698	3698	3698	3698	3698	3698	3698	3698	3698	3698	3698	3698	3738	3738	3779	3779	3779	3779	3779	3779	3821	3821	3821	3779	3779	3821	3779	3779	3779	3779	3779	3779	3779	3779	3779	3779	3738	3738	3738	3738	3738	3738	3738	3738	3779	3738	3738	3738	3738	3738	3738	3738	3738	3738	3738	3738	3738	3738	3738	3738	3738	3738	3738	3738	3738	3738	3698	3101	3101	3101	3101	3101	3073	3073	3073	3073	3073	3073	3073	3073	3073	3046	3046	3046	3046	3046	3019	3019	3019	3019	3019	3019	3019	3019	3019	3019	3019	3019	3046	3046	3046	3019	3019	3019	3019	3019	2993	2993	2993	2993	2993	2993	2993	3019	3019	3019	3046	3046	3046	3046	3046	3046	3046	3046	3046	3019	3019	3046	3046	3046	3046	3073	3073	3073	3073	3073	3073	3073	3073	3073	3101	3073	3073	3073	3073	3779	3779	3738	3738	3738	3698	3698	3698	3698	3659	3698	3698	3698	3698	3659	3659	3659	3659	3659	3698	3698	3698	3698	3698	3698	3698	3698	3698	3698	3659	3659	3698	3698	3698	3698	3698	3698	3698	3698	3659	3659	3659	3659	3621	3621	3621	3621	3621	3621	3621	3621	3659	3621	3659	3621	3621	3621	3621	3621	3621	3621	3621	3621	3621	3621	3621	3659	3698	3659	3659	3659	3659	3659	3659	3659	3659	3659	3659	3659	3659	3659	3659	3621	3621	3621	3621	3621	3621	3621	3621	3621	3621	3621	3621	3621	3621	3621	3621	3659	3659	3621	3621	3621	3621	3621	3621	3621	3621	3621	3621	3621	3621	3621	3621	3621	3621	3621	3583	3583	3621	3621	3621	3621	3621	3621	3621	3621	3621	3621	3621	3621	3621	3621	3621	3621	3621	3621	3621	3621	3621	3621	3621	3621	3621	3621	3621	3621	3583	3583	3546	3546	3546	3510	3510	3510	3510	3510	3510	3546	3546	3583	3583	3583	3583	3583	3583	3583	3583	3546	3546	0	0	0	0	0	0	0	0	0	0	0	0	0	0	0	0	0	0	0	0	0	0	0	0	0	0	0	0	0	0	0	0	0	0	0	0	0	0	0	0	0	0	0	0	0	0	0	0	0	0	0	0	0	0	0	0	0	0	0	0	0	0	0	0	0	0	0	0	0	0	0	0	0	0	0	0	0	0	0	0	0	0	0	0	0	0	0	0	0	0	0	0	0	0	0	0	0	0	0	0	0	0	0	0	0	0	0	0	0	0	0	0	0	0	0	0	0	0	0	0	0	0	0	0
