0	0	0	0	0	0	0	0	0	0	0	0	0	0	2426	2409	2426	2409	2392	2392	2392	2392	2409	2409	2409	2409	2409	2409	2426	2426	2426	2426	2426	2426	2426	2443	2443	2443	2443	2443	2443	2443	2443	2443	2443	2443	2443	2426	2426	2426	2426	2426	2426	2426	2443	2443	2443	2443	2443	2460	2460	2460	2443	2443	2460	2460	2443	2443	2443	2443	2443	2443	2443	2443	2443	2443	2443	2443	2426	2426	2409	2409	2409	2409	2409	2409	2426	2426	2426	2426	2426	2443	2443	2478	2478	2496	2496	2496	2496	2496	2496	2514	2514	2514	2514	2514	2514	3341	3373	3373	3373	3373	3373	3373	3373	3406	3406	3373	3373	3406	3406	3406	3406	3373	3406	3406	3406	3406	3406	3406	3406	3475	3510	3510	3546	3546	3546	3546	3546	3546	3583	3583	3546	3583	3583	3583	3583	3583	3583	3583	3583	3546	3546	3546	3546	3583	3583	3621	3621	3621	3659	3659	3659	3659	3659	3659	3659	3659	3659	3621	3621	3621	3659	3621	3659	3659	3659	3659	3659	3659	3659	3659	3621	3659	3659	3621	3621	3621	3621	3621	3621	3621	3659	3659	3659	3659	3659	3659	3659	3621	3621	3659	3659	3659	3659	3659	3659	3698	3659	3659	3659	3659	3621	3621	2799	2799	2822	2822	2822	2822	2845	2845	2845	2845	2845	2822	2822	2799	2777	2777	2754	2754	2754	2754	2754	2754	2754	2754	2754	2754	2754	2754	2754	2754	2754	2754	2754	2754	2754	2754	2754	2754	2754	2754	2754	2754	2754	2754	2754	2754	2754	2777	2777	2777	2777	2777	2777	2777	2777	2799	2799	2822	2869	2893	2917	2917	2917	2893	2869	2845	2845	2822	2822	2822	2822	2845	2869	2869	3698	3698	3698	3698	3698	3698	3698	3659	3659	3659	3659	3659	3659	3659	3659	3698	3659	3659	3659	3659	3659	3659	3698	3698	3698	3698	3738	3738	3738	3738	3738	3738	3738	3738	3738	3738	3738	3738	3738	3738	3738	3738	3738	3738	3738	3738	3698	3698	3698	3698	3698	3698	3698	3698	3698	3738	3738	3738	3698	3698	3698	3698	3698	3659	3659	3659	3659	3659	3659	3659	3659	3698	3698	3659	3659	3698	3698	3698	3659	3659	3698	3698	3659	3698	3698	3659	3659	3659	3698	3698	3698	3698	3698	3738	3738	3738	3738	3738	3738	3738	3738	3698	3738	3698	3698	3738	3738	3738	3738	3738	3738	3738	3698	3738	3698	3698	3698	3698	3698	3698	3698	3738	3738	3738	3738	3738	3738	3738	3698	3698	3659	3659	3659	3659	3659	3659	3738	3738	3738	3738	3738	3738	3738	3738	3738	3738	3738	3738	3738	3738	3738	3738	3738	3698	3698	3659	3659	3659	3659	3659	3659	3659	3659	3698	3698	3698	3738	3738	3738	3738	3738	3698	3698	3698	3698	3698	3659	3659	3659	3698	3659	3698	3698	3698	3738	3698	3698	3698	3738	3738	3738	3698	3698	3738	3738	3738	3698	3698	3738	3738	3738	3698	3698	3698	3738	3698	3698	3698	3698	3659	3659	3659	0	0	0	0	0	1723	1723	1706	1706	1698	1698	1698	1690	1681	1681	1673	1665	1665	1665	1657	1641	1641	1634	1634	1634	1626	1618	1611	1611	1603	1603	1596	1589	1581	1581	1574	1567	1560	1553	1553	1553	1546	1539	1532	1532	1532	1532	1532	1532	1539	1539	1546	1546	1553	1553	1553	1553	1553	1553	1553	1553	1553	1553	1553	1553	1553	1553	1553	1553	1553	1553	1553	1553	1553	1560	1560	1560	1560	1553	1560	1553	1553	1553	1553	1553	1553	1553	1553	1553	1553	1553	1553	0	0	0	0	0	0	0	0	0	0	0	0	0	0	0	0	0	0	0	0	0	0	0	0	0	0	0	0	0	0	0	0	0	0	0	0	0	0	0	0	0	0	0	0	0	0	0	0
0	0	0	0	0	0	0	0	0	0	0	0	0	0	2426	2426	2426	2426	2409	2409	2409	2409	2409	2426	2426	2426	2426	2426	2426	2426	2426	2426	2426	2443	2443	2443	2460	2460	2460	2443	2443	2443	2460	2443	2443	2443	2443	2443	2426	2426	2426	2426	2426	2426	2443	2460	2460	2460	2478	2478	2478	2478	2460	2460	2460	2460	2460	2443	2443	2443	2460	2460	2443	2460	2460	2460	2460	2460	2443	2426	2426	2426	2426	2426	2426	2426	2426	2426	2426	2426	2443	2443	2460	2478	2496	2496	2496	2496	2496	2496	2496	2514	2514	2514	2514	2514	0	3309	3341	3373	3373	3373	3373	3373	3406	3406	3406	3406	3406	3406	3406	3406	3406	3406	3406	3406	3406	3406	3406	3406	3440	3475	3510	3510	3546	3546	3546	3546	3546	3546	3583	3583	3546	3583	3583	3583	3583	3583	3583	3583	3583	3583	3546	3546	3546	3583	3583	3621	3621	3621	3659	3659	3659	3659	3659	3621	3659	3621	3621	3621	3621	3621	3621	3621	3621	3659	3659	3659	3659	3659	3659	3659	3621	3659	3659	3621	3621	3621	3621	3621	3621	3659	3659	3659	3659	3659	3659	3659	3659	3659	3659	3659	3659	3659	3621	3659	3698	3698	3659	3659	3659	3659	3583	3583	2799	2799	2822	2822	2822	2845	2845	2845	2845	2845	2845	2822	2799	2777	2777	2754	2754	2754	2754	2754	2754	2754	2754	2754	2754	2754	2754	2754	2754	2754	2754	2754	2754	2754	2754	2754	2754	2754	2754	2754	2754	2754	2754	2754	2754	2754	2754	2754	2777	2777	2799	2777	2777	2777	2777	2777	2799	2822	2845	2893	2893	2893	2893	2893	2869	2845	2822	2822	2822	2822	2822	2845	2845	2845	3698	3698	3698	3698	3698	3698	3698	3659	3659	3659	3659	3659	3659	3659	3659	3698	3698	3659	3698	3659	3659	3659	3698	3659	3698	3698	3738	3738	3738	3738	3738	3738	3698	3698	3698	3698	3738	3738	3738	3738	3738	3738	3738	3738	3738	3698	3698	3698	3698	3698	3698	3698	3698	3698	3738	3738	3738	3738	3738	3698	3698	3698	3698	3698	3659	3659	3659	3659	3659	3659	3698	3698	3698	3698	3698	3698	3698	3698	3698	3698	3698	3698	3698	3698	3698	3698	3698	3698	3698	3698	3698	3698	3698	3738	3738	3738	3738	3738	3738	3738	3738	3738	3738	3738	3738	3738	3738	3738	3738	3738	3738	3738	3738	3738	3698	3698	3698	3698	3738	3738	3738	3738	3738	3738	3738	3738	3738	3738	3698	3698	3659	3659	3659	3659	3659	3659	3698	3738	3738	3738	3738	3738	3738	3738	3738	3738	3738	3738	3738	3738	3738	3738	3738	3698	3698	3698	3698	3698	3659	3659	3659	3659	3659	3698	3698	3698	3738	3738	3738	3738	3738	3698	3698	3698	3698	3698	3659	3659	3659	3698	3659	3698	3698	3698	3698	3698	3698	3698	3698	3738	3738	3698	3698	3738	3738	3738	3698	3738	3738	3738	3738	3698	3738	3698	3698	3698	3698	3698	3659	3659	3659	0	0	0	0	0	1732	1723	1723	1706	1706	1698	1698	1690	1690	1681	1681	1673	1673	1673	1665	1657	1649	1641	1641	1641	1634	1634	1626	1611	1611	1603	1603	1596	1589	1581	1581	1574	1567	1560	1553	1560	1553	1546	1539	1532	1532	1532	1532	1532	1532	1532	1539	1546	1546	1553	1553	1553	1553	1553	1553	1553	1553	1553	1560	1553	1553	1560	1553	1553	1553	1553	1553	1553	1553	1553	1553	1553	1553	1553	1553	1560	1553	1553	1553	1553	1553	1553	1553	1553	1553	1546	1546	1553	0	0	0	0	0	0	0	0	0	0	0	0	0	0	0	0	0	0	0	0	0	0	0	0	0	0	0	0	0	0	0	0	0	0	0	0	0	0	0	0	0	0	0	0	0	0	0	0
0	0	0	0	0	0	0	0	0	0	0	0	0	0	0	2426	2426	2443	2443	2443	2443	2443	2443	2426	2426	2426	2426	2426	2443	2426	2426	2426	2443	2460	2443	2460	2460	2460	2460	2460	2443	2460	2460	2460	2443	2460	2443	2443	2443	2443	2426	2426	2443	2426	2460	2460	2460	2478	2478	2478	2478	2478	2478	2478	2478	2478	2460	2460	2460	2460	2460	2460	2460	2460	2460	2460	2460	2460	2443	2443	2426	2426	2426	2426	2426	2426	2426	2443	2443	2443	2460	2460	2460	2496	2496	2496	2496	2496	2496	2496	2496	2514	2514	2514	2532	2532	0	3309	3341	3373	3373	3373	3373	3373	3406	3406	3406	3406	3406	3440	3440	3406	3406	3406	3406	3406	3406	3406	3406	3440	3440	3475	3510	3510	3546	3546	3546	3546	3546	3546	3546	3546	3546	3546	3583	3583	3583	3583	3583	3583	3583	3583	3546	3583	3583	3583	3583	3621	3621	3621	3659	3659	3659	3659	3659	3621	3621	3621	3621	3621	3621	3621	3621	3621	3621	3659	3659	3659	3659	3659	3659	3659	3621	3621	3621	3621	3621	3583	3583	3621	3621	3621	3659	3659	3659	3659	3659	3659	3659	3659	3659	3659	3659	3659	3621	3659	3698	3698	3698	3659	3659	3659	3621	3621	2799	2799	2822	2822	2822	2845	2845	2845	2845	2845	2845	2799	2799	2777	2777	2754	2754	2754	2754	2754	2754	2754	2754	2754	2754	2733	2733	2733	2754	2754	2754	2754	2754	2754	2754	2754	2754	2754	2754	2754	2754	2754	2754	2754	2754	2754	2777	2777	2777	2799	2799	2777	2777	2777	2777	2777	2799	2822	2845	2869	2869	2893	2893	2869	2869	2845	2822	2799	2799	2822	2822	2822	2822	2845	3698	3698	3698	3698	3698	3698	3698	3659	3659	3659	3659	3659	3659	3659	3659	3659	3659	3659	3659	3659	3659	3659	3659	3659	3698	3659	3659	3738	3738	3738	3738	3738	3738	3738	3738	3738	3738	3738	3738	3738	3738	3738	3738	3738	3738	3698	3698	3698	3698	3698	3698	3698	3698	3698	3698	3738	3738	3698	3698	3738	3738	3698	3698	3698	3659	3659	3659	3659	3659	3659	3698	3698	3698	3698	3698	3698	3698	3698	3698	3698	3698	3698	3698	3698	3698	3698	3698	3698	3698	3698	3698	3698	3698	3738	3738	3738	3738	3738	3738	3738	3738	3738	3738	3738	3738	3738	3738	3738	3738	3738	3738	3738	3738	3738	3698	3698	3698	3698	3738	3738	3738	3738	3738	3738	3698	3698	3698	3698	3698	3698	3659	3698	3698	3659	3659	3698	3738	3738	3738	3738	3738	3738	3738	3738	3738	3738	3738	3738	3738	3738	3738	3738	3738	3738	3698	3698	3698	3698	3659	3659	3659	3659	3659	3698	3698	3698	3738	3698	3698	3698	3698	3698	3698	3698	3698	3698	3698	3659	3698	3698	3698	3698	3698	3698	3738	3698	3698	3698	3698	3738	3698	3698	3698	3698	3698	3738	3698	3698	3698	3738	3698	3698	3698	3698	3698	3698	3659	3698	3659	3659	0	0	0	0	0	0	1732	1723	1723	1715	1706	1698	1698	1690	1690	1681	1681	1673	1673	1673	1665	1665	1649	1641	1634	1634	1634	1626	1618	1611	1611	1603	1603	1596	1589	1581	1574	1574	1567	1560	1553	1553	1553	1546	1539	1532	1532	1532	1532	1532	1532	1532	1539	1546	1546	1553	1553	1553	1553	1553	1553	1553	1553	1553	1553	1553	1553	1553	1553	1553	1553	1553	1553	1553	1553	1553	1553	1553	1553	1553	1553	1560	1553	1553	1553	1553	1553	1553	1553	1553	1553	1553	1553	0	0	0	0	0	0	0	0	0	0	0	0	0	0	0	0	0	0	0	0	0	0	0	0	0	0	0	0	0	0	0	0	0	0	0	0	0	0	0	0	0	0	0	0	0	0	0	0	0
0	0	0	0	0	0	0	0	0	0	0	0	0	0	0	2443	2460	2460	2460	2460	2460	2478	2478	2460	2443	2443	2443	2443	2460	2443	2443	2443	2460	2460	2460	2443	2460	2460	2460	2460	2460	2460	2460	2460	2460	2460	2460	2443	2443	2443	2443	2443	2443	2443	2460	2478	2478	2478	2478	2478	2478	2478	2478	2478	2478	2478	2478	2460	2460	2460	2460	2460	2460	2460	2478	2478	2478	2478	2460	2460	2443	2443	2460	2426	2443	2443	2460	2460	2460	2460	2478	2478	2478	2496	2496	2496	2496	2496	2496	2496	2496	2514	2514	2514	2514	2551	2551	3309	3309	3341	3341	3373	3373	3406	3406	3406	3406	3406	3406	3440	3406	3406	3406	3406	3406	3406	3406	3406	3440	3440	3475	3510	3510	3510	3546	3546	3546	3546	3546	3546	3546	3546	3546	3546	3546	3583	3583	3583	3583	3583	3546	3583	3546	3583	3583	3583	3583	3621	3621	3621	3621	3621	3621	3621	3621	3621	3621	3621	3621	3621	3621	3621	3621	3621	3621	3659	3659	3659	3659	3659	3659	3659	3621	3659	3659	3621	3621	3621	3621	3621	3659	3659	3659	3659	3659	3659	3659	3659	3659	3659	3659	3659	3659	3621	3621	3659	3698	3698	3698	3698	3698	3659	3659	2845	2822	2822	2822	2845	2845	2845	2845	2845	2845	2845	2822	2799	2799	2777	2777	2754	2754	2754	2754	2754	2754	2733	2733	2754	2733	2733	2733	2733	2733	2733	2733	2733	2754	2733	2733	2733	2733	2754	2754	2754	2754	2754	2754	2754	2754	2777	2777	2777	2777	2799	2799	2777	2777	2777	2777	2777	2777	2799	2822	2869	2869	2917	2893	2893	2869	2845	2822	2799	2799	2799	2799	2799	2822	2822	3698	3698	3698	3698	3698	3698	3698	3659	3659	3659	3659	3659	3659	3659	3659	3659	3659	3659	3659	3659	3659	3659	3659	3659	3659	3659	3698	3738	3738	3738	3738	3738	3738	3738	3738	3698	3738	3738	3738	3738	3738	3738	3738	3738	3738	3698	3698	3698	3698	3698	3698	3698	3698	3698	3698	3698	3698	3698	3698	3738	3738	3738	3738	3698	3698	3659	3659	3659	3659	3698	3698	3738	3698	3698	3698	3698	3698	3698	3698	3698	3698	3698	3698	3698	3698	3659	3698	3698	3698	3698	3698	3698	3738	3738	3738	3738	3738	3738	3738	3738	3738	3738	3738	3738	3738	3738	3738	3738	3738	3738	3738	3738	3738	3698	3698	3698	3698	3698	3698	3698	3698	3698	3698	3738	3698	3698	3698	3698	3698	3698	3698	3698	3698	3659	3698	3698	3738	3738	3738	3738	3698	3738	3738	3738	3738	3738	3738	3738	3738	3738	3738	3738	3738	3738	3738	3698	3698	3698	3659	3659	3659	3659	3659	3698	3698	3698	3698	3698	3698	3698	3698	3698	3698	3698	3698	3698	3698	3659	3698	3698	3698	3698	3698	3698	3738	3738	3698	3698	3698	3738	3738	3698	3698	3698	3698	3738	3698	3698	3698	3698	3698	3698	3698	3698	3659	3659	3659	3659	3659	3659	0	0	0	0	0	1732	1732	1723	1723	1706	1706	1698	1690	1690	1690	1681	1681	1673	1673	1673	1665	1665	1657	1657	1641	1641	1634	1634	1626	1618	1611	1603	1603	1596	1589	1581	1574	1574	1560	1560	1553	1553	1553	1546	1539	1532	1532	1532	1532	1532	1532	1532	1539	1546	1546	1546	1553	1553	1553	1553	1553	1553	1553	1553	1553	1553	1553	1553	1553	1553	1553	1553	1553	1560	1553	1553	1553	1560	1553	1553	1553	1553	1553	1553	1553	1553	1553	1553	1553	1546	1546	1546	1553	0	0	0	0	0	0	0	0	0	0	0	0	0	0	0	0	0	0	0	0	0	0	0	0	0	0	0	0	0	0	0	0	0	0	0	0	0	0	0	0	0	0	0	0	0	0	0	0	0
0	0	0	0	0	0	0	0	0	0	0	0	0	0	0	2460	2460	2460	2460	2478	2478	2478	2478	2460	2460	2443	2443	2443	2460	2443	2443	2443	2460	2460	2460	2460	2460	2460	2460	2460	2460	2460	2460	2460	2460	2460	2460	2460	2460	2460	2443	2460	2460	2460	2460	2478	2478	2478	2478	2478	2478	2478	2478	2478	2478	2478	2478	2478	2478	2478	2460	2460	2460	2478	2478	2478	2460	2478	2460	2460	2443	2443	2460	2460	2460	2460	2460	2478	2478	2478	2478	2478	2478	2496	2496	2496	2496	2496	2496	2496	2496	2496	2514	2496	2514	2551	2551	3309	3341	3373	3406	3373	3373	3406	3406	3406	3406	3406	3406	3406	3406	3406	3406	3406	3406	3406	3406	3406	3406	3440	3475	3510	3546	3546	3546	3546	3546	3546	3546	3546	3546	3546	3546	3546	3546	3583	3583	3583	3583	3583	3546	3546	3546	3546	3583	3583	3583	3583	3583	3583	3621	3621	3621	3621	3621	3583	3621	3621	3583	3583	3621	3621	3621	3621	3659	3659	3659	3659	3659	3659	3659	3659	3621	3659	3621	3621	3621	3621	3621	3621	3659	3659	3659	3659	3659	3659	3659	3659	3659	3659	3659	3659	3659	3659	3659	3659	3698	3698	3698	3698	3698	3698	3659	2845	2845	2845	2845	2845	2845	2845	2845	2845	2845	2822	2822	2799	2777	2777	2754	2754	2754	2754	2754	2754	2754	2754	2733	2754	2733	2733	2733	2733	2733	2733	2733	2733	2733	2733	2733	2733	2733	2754	2754	2754	2754	2754	2754	2754	2754	2777	2777	2777	2777	2799	2777	2777	2777	2777	2777	2777	2777	2799	2822	2869	2869	2917	2893	2893	2869	2845	2822	2799	2799	2799	2799	2799	2799	2799	3698	3698	3698	3698	3698	3698	3698	3659	3698	3659	3659	3659	3659	3659	3659	3659	3659	3659	3659	3659	3659	3659	3659	3659	3659	3659	3698	3738	3738	3738	3738	3738	3738	3738	3738	3698	3698	3738	3738	3738	3738	3738	3738	3738	3738	3698	3698	3698	3698	3698	3698	3698	3698	3698	3698	3698	3738	3738	3738	3738	3738	3738	3738	3698	3698	3698	3698	3698	3659	3698	3698	3698	3698	3698	3698	3698	3698	3698	3698	3698	3698	3698	3698	3698	3698	3659	3698	3698	3698	3698	3698	3738	3738	3738	3738	3738	3738	3738	3738	3738	3738	3738	3738	3738	3738	3738	3738	3738	3738	3738	3738	3738	3738	3698	3698	3698	3698	3698	3698	3698	3738	3698	3698	3698	3698	3698	3698	3698	3698	3698	3698	3698	3698	3698	3698	3698	3738	3698	3738	3738	3698	3698	3738	3738	3738	3738	3738	3738	3738	3738	3738	3738	3738	3738	3738	3738	3738	3698	3659	3659	3659	3659	3659	3659	3698	3698	3659	3659	3698	3698	3659	3659	3698	3698	3698	3698	3698	3659	3698	3698	3698	3698	3698	3698	3738	3698	3698	3698	3698	3738	3698	3698	3659	3698	3698	3738	3698	3698	3698	3738	3698	3738	3698	3698	3698	3659	3659	3659	0	0	0	0	0	0	1741	1732	1732	1723	1723	1715	1706	1698	1698	1690	1690	1681	1681	1673	1673	1673	1673	1665	1665	1657	1641	1641	1634	1634	1626	1618	1611	1603	1603	1603	1596	1581	1574	1567	1560	1553	1553	1553	1553	1546	1546	1532	1539	1532	1532	1532	1532	1532	1539	1546	1546	1553	1553	1553	1560	1560	1553	1553	1553	1553	1553	1546	1553	1553	1553	1553	1553	1553	1553	1560	1553	1553	1553	1553	1553	1553	1553	1553	1553	1553	1553	1553	1553	1546	1546	1546	1546	1546	0	0	0	0	0	0	0	0	0	0	0	0	0	0	0	0	0	0	0	0	0	0	0	0	0	0	0	0	0	0	0	0	0	0	0	0	0	0	0	0	0	0	0	0	0	0	0	0	0	0
0	0	0	0	0	0	0	0	0	0	0	0	0	0	0	2460	2460	2460	2478	2478	2478	2478	2478	2460	2460	2443	2443	2443	2460	2443	2443	2443	2460	2460	2460	2460	2460	2460	2460	2460	2460	2460	2460	2460	2460	2460	2460	2460	2460	2460	2443	2460	2460	2460	2460	2478	2478	2478	2478	2478	2478	2478	2478	2478	2478	2478	2478	2478	2478	2478	2478	2478	2478	2478	2478	2478	2478	2478	2460	2460	2443	2443	2460	2443	2460	2460	2460	2478	2478	2478	2478	2478	2478	2478	2496	2496	2496	2496	2496	2496	2496	2496	2496	2478	2496	2496	2496	0	3341	3341	3406	3373	3373	3406	3406	3406	3406	3406	3406	3406	3406	3406	3406	3406	3406	3406	3406	3406	3406	3440	3475	3510	3546	3546	3546	3546	3546	3546	3546	3546	3546	3546	3546	3546	3546	3583	3583	3583	3583	3583	3546	3546	3546	3546	3546	3546	3546	3583	3583	3583	3621	3583	3621	3621	3583	3583	3583	3583	3583	3583	3621	3621	3621	3621	3621	3659	3659	3659	3659	3659	3659	3659	3621	3621	3621	3621	3621	3621	3583	3621	3621	3659	3659	3659	3659	3659	3659	3659	3659	3659	3659	3659	3659	3621	3659	3659	3698	3698	3698	3698	3698	3698	3698	2845	2845	2845	2845	2845	2845	2845	2845	2845	2845	2822	2799	2777	2754	2754	2754	2754	2754	2754	2754	2754	2754	2733	2733	2754	2733	2733	2733	2733	2733	2733	2733	2733	2733	2733	2733	2733	2733	2754	2754	2754	2754	2754	2754	2754	2754	2777	2777	2777	2777	2777	2777	2777	2777	2777	2777	2777	2799	2799	2822	2845	2869	2893	2893	2869	2869	2845	2822	2799	2799	2799	2799	2799	2799	2799	3698	3698	3698	3659	3659	3659	3659	3659	3659	3659	3659	3659	3659	3659	3659	3659	3659	3659	3659	3659	3659	3659	3659	3659	3659	3659	3698	3738	3738	3738	3738	3738	3738	3738	3738	3698	3698	3698	3698	3738	3738	3738	3738	3738	3738	3698	3698	3698	3698	3698	3659	3698	3698	3698	3698	3698	3698	3698	3738	3738	3738	3738	3738	3698	3698	3698	3698	3698	3698	3698	3698	3738	3738	3738	3738	3738	3738	3738	3738	3698	3738	3698	3698	3698	3698	3698	3698	3698	3698	3698	3698	3698	3698	3698	3698	3698	3698	3698	3698	3698	3698	3738	3738	3738	3738	3738	3738	3738	3738	3738	3738	3738	3738	3698	3698	3698	3738	3738	3738	3698	3738	3738	3738	3698	3698	3698	3698	3698	3698	3698	3698	3698	3698	3698	3698	3698	3738	3698	3698	3738	3738	3738	3738	3738	3738	3738	3738	3738	3738	3738	3738	3779	3779	3779	3738	3738	3738	3698	3659	3659	3659	3659	3698	3698	3698	3698	3659	3659	3698	3659	3659	3659	3698	3698	3698	3698	3698	3698	3698	3698	3698	3698	3698	3698	3698	3698	3698	3698	3698	3698	3698	3698	3659	3698	3698	3698	3698	3738	3738	3738	3698	3698	3698	3698	3698	3698	3659	0	0	0	0	0	0	1750	1741	1732	1732	1723	1723	1715	1706	1698	1698	1690	1690	1681	1681	1673	1673	1673	1673	1665	1665	1657	1641	1641	1634	1626	1618	1611	1611	1603	1603	1603	1596	1581	1574	1567	1560	1553	1553	1553	1553	1546	1532	1532	1532	1532	1532	1532	1532	1532	1539	1546	1553	1553	1553	1553	1560	1560	1553	1553	1553	1553	1553	1546	1546	1553	1553	1553	1553	1553	1553	1560	1560	1553	1553	1560	1553	1560	1553	1553	1553	1553	1553	1553	1546	1546	1546	1546	1546	1546	0	0	0	0	0	0	0	0	0	0	0	0	0	0	0	0	0	0	0	0	0	0	0	0	0	0	0	0	0	0	0	0	0	0	0	0	0	0	0	0	0	0	0	0	0	0	0	0	0	0
0	0	0	0	0	0	0	0	0	0	0	0	0	0	0	2460	2460	2460	2478	2478	2478	2478	2478	2460	2460	2443	2443	2443	2460	2443	2443	2443	2443	2460	2460	2460	2443	2460	2460	2460	2460	2460	2460	2478	2478	2460	2478	2460	2460	2460	2460	2460	2460	2460	2460	2478	2478	2478	2478	2478	2478	2478	2478	2478	2478	2478	2478	2478	2478	2478	2478	2478	2478	2478	2478	2478	2478	2478	2460	2460	2460	2460	2460	2460	2460	2478	2478	2478	2478	2478	2478	2478	2478	2496	2496	2496	2496	2496	2496	2496	2496	2496	2514	2496	2514	2514	2589	2589	3373	3373	3406	3373	3406	3406	3406	3406	3406	3406	3406	3406	3406	3406	3406	3406	3406	3406	3406	3406	3406	3475	3510	3546	3546	3546	3546	3546	3546	3546	3546	3546	3546	3546	3546	3546	3546	3583	3583	3583	3583	3583	3546	3546	3546	3546	3546	3546	3546	3583	3583	3583	3621	3583	3621	3621	3621	3583	3583	3583	3583	3583	3583	3621	3621	3621	3659	3659	3659	3659	3659	3659	3659	3659	3621	3621	3621	3621	3621	3621	3621	3621	3621	3659	3659	3659	3659	3659	3659	3659	3659	3659	3659	3621	3621	3621	3621	3659	3698	3698	3698	3698	3698	3698	3698	2845	2845	2822	2822	2822	2822	2822	2822	2822	2822	2799	2799	2777	2777	2754	2754	2754	2754	2754	2754	2754	2754	2733	2733	2733	2733	2733	2733	2733	2733	2733	2733	2733	2733	2733	2733	2733	2754	2754	2754	2754	2754	2754	2754	2754	2754	2777	2777	2777	2777	2777	2777	2777	2777	2777	2777	2777	2799	2822	2822	2869	2869	2893	2893	2869	2869	2845	2822	2822	2799	2799	2799	2799	2799	2799	3698	3698	3698	3659	3659	3659	3659	3659	3659	3659	3659	3659	3659	3659	3659	3659	3659	3659	3659	3659	3659	3659	3659	3659	3659	3659	3698	3698	3738	3738	3738	3738	3738	3698	3698	3698	3698	3698	3698	3698	3738	3738	3738	3738	3738	3698	3698	3698	3659	3698	3659	3659	3698	3698	3698	3698	3698	3698	3738	3738	3738	3738	3738	3698	3698	3698	3698	3698	3698	3698	3698	3698	3698	3698	3698	3698	3698	3698	3698	3698	3738	3698	3698	3698	3698	3698	3698	3698	3698	3698	3698	3698	3698	3698	3698	3698	3698	3698	3698	3698	3698	3738	3738	3738	3738	3738	3738	3738	3738	3698	3698	3738	3738	3698	3738	3738	3738	3738	3738	3698	3738	3698	3698	3698	3698	3698	3698	3698	3698	3698	3698	3698	3698	3698	3698	3659	3698	3698	3738	3738	3738	3738	3738	3738	3738	3738	3738	3738	3738	3738	3738	3738	3738	3738	3738	3738	3738	3738	3698	3698	3698	3698	3698	3698	3698	3659	3659	3659	3659	3659	3659	3659	3698	3698	3698	3698	3738	3738	3698	3698	3698	3698	3698	3698	3698	3698	3698	3698	3698	3698	3698	3698	3698	3698	3698	3698	3659	3659	3698	3698	3659	3659	3698	3698	3698	3698	0	0	0	0	0	0	0	1750	1741	1741	1732	1732	1723	1715	1706	1706	1698	1690	1690	1681	1681	1673	1673	1673	1665	1665	1665	1657	1641	1641	1634	1626	1618	1611	1611	1603	1603	1603	1596	1581	1574	1567	1560	1553	1553	1553	1546	1546	1539	1532	1532	1532	1532	1532	1532	1532	1539	1546	1553	1553	1553	1553	1560	1560	1553	1553	1553	1553	1553	1553	1553	1553	1553	1553	1553	1553	1553	1553	1553	1553	1553	1553	1553	1560	1553	1553	1553	1553	1553	1553	1546	1546	1546	1546	1546	0	0	0	0	0	0	0	0	0	0	0	0	0	0	0	0	0	0	0	0	0	0	0	0	0	0	0	0	0	0	0	0	0	0	0	0	0	0	0	0	0	0	0	0	0	0	0	0	0	0	0
0	0	0	0	0	0	0	0	0	0	0	0	0	0	0	2443	2460	2460	2478	2478	2478	2478	2478	2460	2460	2443	2443	2443	2443	2443	2443	2443	2460	2460	2478	2478	2443	2460	2460	2460	2460	2460	2460	2460	2460	2460	2460	2460	2460	2460	2460	2460	2460	2478	2460	2478	2478	2478	2478	2478	2460	2478	2460	2460	2478	2478	2478	2478	2478	2478	2478	2478	2478	2478	2460	2460	2460	2460	2460	2460	2443	2443	2460	2460	2478	2478	2478	2478	2478	2478	2478	2478	2478	2496	2496	2514	2496	2496	2496	2496	2496	2496	2496	2496	2478	2514	2551	2609	2609	3373	3373	3373	3406	3373	3373	3406	3406	3406	3406	3406	3406	3406	3406	3406	3406	3406	3373	3406	3406	3440	3510	3546	3546	3546	3546	3546	3546	3546	3546	3546	3546	3546	3546	3546	3546	3583	3583	3583	3583	3583	3546	3546	3546	3546	3546	3546	3546	3583	3583	3583	3621	3583	3621	3621	3583	3583	3583	3583	3583	3583	3621	3621	3621	3659	3659	3659	3659	3659	3659	3659	3659	3659	3659	3621	3621	3621	3621	3621	3621	3621	3659	3659	3659	3659	3659	3659	3659	3659	3659	3621	3621	3621	3621	3621	3621	3621	3698	3698	3659	3659	3659	2845	2845	2845	2822	2822	2822	2822	2822	2822	2822	2822	2822	2799	2799	2777	2777	2754	2754	2754	2754	2754	2754	2754	2733	2733	2733	2733	2733	2733	2733	2733	2733	2733	2733	2733	2733	2733	2733	2733	2754	2754	2754	2754	2754	2754	2754	2754	2754	2777	2754	2777	2777	2777	2777	2777	2777	2777	2777	2777	2799	2822	2845	2869	2893	2893	2893	2869	2869	2845	2822	2822	2799	2799	2799	2799	2777	2777	0	3698	3698	3659	3659	3659	3659	3659	3659	3659	3659	3659	3659	3659	3659	3659	3659	3659	3659	3659	3659	3659	3659	3659	3659	3659	3698	3698	3738	3738	3738	3738	3698	3698	3698	3698	3698	3698	3698	3738	3738	3738	3738	3738	3738	3698	3698	3698	3698	3698	3698	3698	3698	3698	3698	3698	3698	3698	3738	3738	3738	3738	3738	3738	3698	3698	3698	3698	3698	3698	3698	3698	3698	3698	3698	3698	3698	3698	3698	3698	3698	3698	3698	3698	3698	3698	3698	3698	3698	3698	3698	3738	3698	3698	3698	3698	3698	3698	3698	3698	3698	3738	3738	3738	3738	3738	3738	3738	3738	3698	3698	3738	3738	3698	3738	3738	3738	3738	3738	3698	3738	3698	3698	3698	3698	3698	3698	3698	3698	3698	3738	3738	3698	3698	3698	3698	3738	3698	3738	3738	3738	3738	3738	3738	3738	3738	3738	3738	3738	3738	3738	3738	3738	3738	3738	3738	3738	3738	3698	3698	3698	3659	3698	3698	3698	3659	3659	3659	3659	3659	3659	3659	3659	3698	3698	3738	3738	3738	3738	3738	3698	3698	3698	3698	3698	3698	3698	3698	3698	3738	3738	3698	3698	3698	3698	3698	3659	3698	3698	3698	3659	3659	0	0	0	0	0	1814	1814	1804	1804	1804	1777	1768	1741	1741	1741	1732	1723	1723	1715	1706	1706	1698	1690	1681	1681	1673	1673	1673	1673	1665	1665	1657	1641	1641	1626	1618	1611	1611	1603	1603	1603	1603	1596	1581	1574	1567	1560	1553	1553	1553	1553	1546	1539	1532	1532	1532	1525	1532	1532	1532	1539	1546	1553	1553	1560	1560	1560	1553	1553	1553	1553	1553	1553	1553	1553	1553	1553	1553	1553	1553	1553	1553	1553	1553	1553	1553	1553	1560	1553	1553	1553	1553	1553	1546	1539	1539	1539	1546	0	0	0	0	0	0	0	0	0	0	0	0	0	0	0	0	0	0	0	0	0	0	0	0	0	0	0	0	0	0	0	0	0	0	0	0	0	0	0	0	0	0	0	0	0	0	0	0	0	0	0	0
0	0	0	0	0	0	0	0	0	0	0	0	0	0	0	2443	2460	2460	2478	2478	2478	2478	2478	2478	2460	2460	2460	2460	2460	2460	2460	2460	2478	2478	2478	2460	2443	2443	2443	2443	2460	2460	2460	2460	2460	2460	2460	2460	2460	2460	2443	2460	2460	2460	2460	2460	2478	2460	2460	2460	2460	2478	2460	2460	2478	2478	2478	2478	2478	2478	2478	2478	2478	2478	2460	2460	2460	2460	2460	2460	2443	2443	2460	2460	2478	2478	2478	2478	2478	2478	2478	2478	2478	2496	2496	2514	2496	2496	2496	2496	2496	2496	2496	2496	2478	2532	2532	2589	2589	3373	3373	3406	3373	3373	3373	3373	3406	3406	3406	3406	3406	3406	3406	3406	3406	3406	3373	3406	3406	3475	3510	3546	3546	3583	3546	3546	3546	3546	3546	3546	3546	3546	3546	3546	3546	3546	3546	3546	3546	3546	3546	3546	3546	3546	3546	3546	3546	3583	3583	3621	3621	3621	3621	3621	3621	3621	3583	3583	3583	3583	3621	3659	3659	3659	3659	3659	3659	3659	3659	3659	3659	3659	3659	3621	3621	3621	3621	3621	3621	3621	3621	3621	3621	3659	3659	3659	3621	3621	3621	3621	3621	3621	3621	3621	3621	3621	3659	3659	3659	3659	3659	2845	2845	2822	2822	2822	2822	2822	2822	2822	2822	2822	2822	2799	2777	2777	2754	2754	2754	2754	2754	2754	2733	2733	2754	2733	2733	2733	2733	2733	2733	2733	2733	2733	2733	2733	2733	2733	2733	2733	2733	2733	2754	2754	2754	2754	2754	2754	2754	2754	2754	2754	2777	2777	2777	2777	2777	2777	2777	2799	2799	2822	2845	2869	2869	2893	2893	2869	2869	2845	2845	2822	2799	2799	2799	2799	2777	2777	2777	3698	3698	3698	3659	3659	3659	3659	3659	3659	3659	3659	3659	3659	3659	3659	3659	3659	3659	3659	3659	3621	3659	3659	3659	3659	3698	3698	3738	3698	3738	3698	3698	3698	3698	3698	3698	3698	3698	3698	3738	3738	3738	3738	3738	3698	3698	3698	3698	3698	3698	3698	3698	3698	3698	3698	3738	3738	3738	3738	3738	3698	3698	3698	3698	3698	3698	3698	3698	3698	3698	3698	3698	3698	3698	3698	3698	3698	3698	3698	3698	3698	3698	3698	3698	3698	3698	3698	3698	3698	3698	3698	3698	3698	3698	3698	3698	3698	3698	3698	3698	3698	3698	3738	3738	3738	3738	3738	3698	3698	3698	3698	3698	3698	3698	3698	3698	3738	3698	3698	3698	3698	3698	3698	3659	3698	3698	3698	3698	3698	3698	3738	3698	3698	3738	3698	3738	3738	3738	3738	3738	3738	3738	3738	3738	3738	3738	3738	3698	3698	3738	3738	3738	3738	3738	3738	3738	3738	3698	3698	3698	3698	3698	3698	3698	3659	3659	3659	3659	3659	3659	3659	3698	3698	3698	3738	3738	3738	3738	3738	3738	3698	3698	3698	3698	3698	3698	3698	3698	3698	3698	3698	3698	3698	3698	3698	3659	3698	3698	3698	3698	3659	0	0	1843	1824	1814	1814	1804	1804	1804	1786	1777	1768	1741	1741	1741	1732	1732	1723	1715	1715	1706	1698	1690	1681	1681	1673	1673	1673	1665	1665	1665	1657	1649	1641	1626	1618	1611	1611	1603	1603	1603	1596	1589	1581	1574	1567	1560	1553	1553	1553	1546	1546	1539	1532	1532	1532	1525	1525	1532	1532	1539	1539	1553	1553	1553	1553	1553	1553	1553	1553	1553	1546	1546	1546	1553	1553	1553	1553	1553	1553	1553	1553	1553	1553	1553	1553	1553	1553	1553	1553	1553	1553	1553	1546	1539	1539	1539	0	0	0	0	0	0	0	0	0	0	0	0	0	0	0	0	0	0	0	0	0	0	0	0	0	0	0	0	0	0	0	0	0	0	0	0	0	0	0	0	0	0	0	0	0	0	0	0	0	0	0	0	0
0	0	0	0	0	0	0	0	0	0	0	0	0	0	0	2443	2443	2460	2460	2478	2478	2478	2478	2478	2460	2460	2460	2460	2478	2460	2460	2460	2460	2460	2460	2443	2443	2443	2443	2443	2460	2460	2460	2460	2460	2460	2478	2478	2460	2460	2460	2460	2460	2478	2460	2460	2460	2460	2460	2460	2460	2460	2460	2460	2460	2460	2478	2478	2478	2478	2478	2478	2478	2478	2460	2460	2460	2460	2443	2443	2443	2460	2460	2460	2460	2460	2478	2478	2460	2460	2478	2478	2478	2496	2496	2514	2496	2496	2496	2496	2496	2496	2496	2496	2478	2514	2514	2589	2649	2649	3373	3373	3373	3373	3373	3373	3406	3406	3406	3406	3406	3406	3406	3406	3406	3406	3406	3406	3406	3440	3510	3546	3546	3546	3546	3546	3546	3546	3546	3546	3546	3546	3546	3546	3546	3546	3546	3546	3546	3546	3546	3546	3546	3546	3546	3546	3546	3583	3621	3621	3621	3621	3621	3621	3621	3621	3583	3583	3583	3583	3621	3659	3659	3659	3659	3659	3659	3659	3659	3659	3659	3659	3659	3621	3621	3621	3621	3621	3621	3621	3621	3621	3621	3659	3659	3659	3621	3621	3621	3621	3621	3621	3621	3621	3621	3621	3659	3698	3659	3659	3659	2845	2822	2822	2822	2822	2822	2822	2822	2822	2822	2822	2799	2799	2777	2777	2754	2754	2754	2754	2754	2733	2733	2733	2754	2733	2733	2733	2733	2733	2733	2733	2733	2733	2733	2733	2733	2733	2733	2733	2733	2733	2733	2733	2754	2754	2754	2754	2754	2754	2754	2754	2754	2777	2777	2777	2777	2777	2777	2799	2799	2822	2845	2869	2893	2893	2893	2869	2869	2845	2845	2822	2799	2799	2799	2799	2777	2777	2777	0	3698	3698	3659	3659	3659	3659	3659	3659	3659	3659	3659	3659	3659	3659	3659	3659	3659	3659	3659	3659	3659	3659	3659	3659	3698	3698	3738	3738	3738	3698	3698	3698	3698	3698	3698	3738	3698	3738	3738	3738	3738	3738	3698	3698	3698	3698	3698	3698	3698	3698	3698	3698	3698	3698	3738	3738	3738	3738	3738	3738	3738	3698	3738	3698	3698	3698	3698	3698	3698	3698	3698	3698	3698	3698	3698	3698	3698	3659	3698	3698	3698	3698	3698	3698	3698	3698	3698	3698	3698	3698	3698	3698	3698	3698	3698	3698	3698	3698	3698	3698	3738	3738	3738	3738	3738	3698	3698	3698	3698	3698	3698	3698	3698	3738	3738	3738	3698	3698	3698	3698	3698	3698	3698	3698	3698	3698	3698	3698	3698	3698	3698	3698	3698	3698	3738	3738	3738	3738	3738	3738	3738	3738	3738	3738	3738	3698	3698	3698	3738	3738	3738	3738	3738	3738	3698	3698	3659	3659	3698	3698	3698	3698	3698	3659	3659	3659	3659	3659	3659	3659	3698	3698	3698	3738	3738	3738	3698	3738	3698	3698	3698	3698	3698	3698	3698	3698	3698	3698	3698	3698	3659	3698	3698	3698	3659	3698	3738	3738	3698	0	0	1843	1843	1824	1814	1814	1804	1804	1795	1786	1777	1768	1741	1741	1741	1732	1732	1723	1723	1715	1706	1698	1690	1681	1681	1681	1673	1673	1665	1665	1665	1657	1649	1641	1634	1626	1618	1611	1603	1596	1603	1596	1589	1581	1574	1567	1560	1553	1553	1546	1546	1546	1539	1532	1525	1525	1525	1525	1532	1532	1539	1539	1546	1546	1553	1553	1553	1553	1553	1553	1546	1546	1553	1553	1553	1553	1553	1553	1553	1553	1553	1553	1553	1553	1553	1560	1553	1560	1553	1553	1553	1553	1546	1546	1539	1539	0	0	0	0	0	0	0	0	0	0	0	0	0	0	0	0	0	0	0	0	0	0	0	0	0	0	0	0	0	0	0	0	0	0	0	0	0	0	0	0	0	0	0	0	0	0	0	0	0	0	0	0	0	0
0	0	0	0	0	0	0	0	0	0	0	0	0	0	0	2443	2443	2443	2460	2460	2460	2460	2478	2460	2460	2460	2460	2478	2478	2478	2478	2478	2460	2443	2443	2443	2443	2443	2443	2443	2460	2460	2460	2460	2460	2443	2460	2460	2460	2460	2460	2460	2460	2460	2460	2460	2460	2443	2443	2443	2443	2443	2460	2460	2460	2478	2478	2478	2478	2478	2478	2478	2478	2460	2460	2460	2478	2460	2460	2460	2460	2460	2460	2460	2460	2460	2478	2460	2460	2460	2460	2460	2460	2478	2496	2496	2496	2496	2496	2496	2496	2496	2496	2478	2478	2496	2514	2514	2669	2669	3406	3406	3373	3373	3373	3373	3373	3373	3373	3373	3373	3406	3406	3406	3406	3406	3406	3406	3406	3440	3510	3546	3546	3546	3546	3546	3546	3546	3546	3546	3546	3546	3546	3546	3583	3583	3546	3546	3546	3546	3546	3546	3546	3546	3546	3546	3546	3583	3583	3621	3621	3621	3621	3621	3621	3583	3583	3583	3583	3583	3621	3621	3659	3659	3659	3659	3659	3659	3659	3659	3659	3659	3659	3621	3621	3621	3621	3621	3621	3621	3621	3621	3621	3621	3621	3659	3621	3621	3583	3583	3621	3621	3621	3621	3621	3621	3659	3698	3659	3659	3659	2845	2822	2822	2822	2822	2799	2799	2822	2822	2822	2822	2799	2799	2777	2777	2754	2754	2754	2754	2754	2754	2733	2754	2754	2733	2733	2733	2733	2733	2733	2733	2733	2733	2733	2733	2733	2733	2733	2733	2733	2733	2733	2733	2733	2733	2754	2754	2754	2754	2754	2754	2754	2754	2777	2777	2777	2777	2777	2777	2799	2799	2822	2845	2869	2869	2869	2869	2869	2845	2845	2822	2799	2799	2799	2799	2777	2777	2777	0	3698	3698	3698	3659	3659	3659	3659	3659	3659	3659	3659	3659	3659	3659	3659	3659	3659	3659	3659	3659	3659	3659	3659	3659	3698	3698	3738	3738	3738	3698	3698	3698	3698	3698	3698	3698	3698	3698	3698	3698	3698	3698	3698	3698	3698	3698	3698	3698	3698	3698	3698	3698	3698	3698	3698	3738	3738	3738	3738	3738	3738	3698	3738	3698	3698	3698	3698	3698	3698	3698	3698	3698	3698	3659	3698	3659	3659	3659	3698	3659	3659	3698	3698	3698	3698	3698	3698	3698	3698	3698	3698	3698	3698	3698	3698	3698	3698	3698	3698	3738	3738	3738	3738	3738	3738	3738	3698	3698	3698	3698	3698	3698	3738	3738	3738	3738	3698	3698	3698	3698	3698	3698	3659	3698	3698	3698	3698	3698	3698	3698	3698	3698	3698	3698	3738	3738	3738	3738	3738	3738	3738	3738	3738	3738	3698	3698	3698	3698	3738	3738	3738	3738	3738	3738	3698	3698	3698	3698	3698	3698	3698	3698	3698	3659	3659	3659	3659	3659	3659	3659	3698	3698	3698	3698	3698	3738	3698	3698	3698	3698	3698	3698	3698	3698	3698	3698	3698	3698	3698	3659	3659	3698	3698	3659	3659	3698	3738	3738	0	0	1853	1843	1843	1824	1814	1814	1814	1804	1804	1795	1777	1768	1750	1750	1741	1741	1732	1732	1732	1723	1715	1706	1706	1690	1681	1681	1673	1673	1665	1665	1665	1657	1649	1641	1634	1626	1618	1611	1603	1596	1603	1596	1589	1581	1574	1567	1560	1553	1553	1553	1546	1546	1532	1525	1525	1525	1525	1525	1525	1525	1539	1539	1546	1546	1546	1553	1553	1553	1546	1553	1546	1546	1553	1553	1553	1553	1553	1553	1553	1553	1553	1560	1553	1560	1553	1560	1553	1560	1560	1553	1560	1553	1553	1546	0	0	0	0	0	0	0	0	0	0	0	0	0	0	0	0	0	0	0	0	0	0	0	0	0	0	0	0	0	0	0	0	0	0	0	0	0	0	0	0	0	0	0	0	0	0	0	0	0	0	0	0	0	0	0	0
0	0	0	0	0	0	0	0	0	0	0	0	0	0	0	2443	2443	2443	2460	2460	2460	2460	2460	2460	2460	2460	2478	2478	2478	2478	2478	2478	2460	2443	2443	2443	2443	2443	2443	2443	2460	2460	2460	2460	2460	2460	2460	2460	2460	2460	2460	2460	2460	2460	2460	2460	2443	2443	2443	2460	2443	2443	2443	2460	2460	2478	2478	2478	2478	2478	2478	2478	2478	2460	2460	2478	2478	2478	2460	2478	2478	2478	2478	2478	2478	2460	2478	2460	2460	2460	2460	2460	2460	2496	2496	2496	2496	2496	2496	2496	2496	2496	2496	2496	2496	2496	2514	2514	2669	2690	2669	2669	3373	3373	3373	3373	3373	3373	3373	3406	3406	3406	3406	3406	3406	3406	3406	3406	3406	3440	3475	3510	3546	3546	3546	3546	3546	3546	3546	3546	3546	3546	3546	3546	3583	3583	3546	3546	3546	3546	3546	3546	3546	3546	3546	3546	3546	3583	3583	3621	3621	3621	3621	3621	3621	3621	3621	3583	3621	3621	3621	3621	3659	3659	3659	3659	3659	3659	3659	3659	3659	3659	3621	3621	3583	3621	3621	3621	3621	3621	3621	3621	3621	3621	3621	3621	3621	3583	3583	3583	3583	3583	3583	3583	3621	3621	3659	3659	3659	3659	2822	2822	2799	2799	2799	2799	2799	2799	2799	2799	2799	2799	2777	2777	2777	2754	2754	2754	2754	2754	2733	2733	2733	2733	2733	2733	2733	2733	2733	2733	2733	2733	2733	2733	2733	2733	2733	2733	2733	2733	2733	2733	2733	2733	2733	2754	2754	2754	2754	2754	2754	2754	2754	2754	2754	2754	2777	2777	2777	2777	2777	2799	2799	2845	2869	2869	2869	2869	2869	2869	2845	2845	2822	2799	2799	2799	2799	2777	2777	0	3698	3698	3659	3659	3659	3659	3659	3659	3659	3659	3659	3659	3659	3659	3659	3659	3659	3659	3659	3659	3659	3659	3659	3659	3698	3698	3698	3698	3698	3698	3698	3698	3698	3698	3698	3698	3698	3698	3698	3698	3698	3698	3698	3698	3698	3698	3698	3698	3698	3698	3698	3698	3698	3698	3698	3738	3738	3738	3698	3698	3698	3698	3698	3698	3698	3698	3698	3698	3698	3698	3698	3698	3698	3659	3698	3659	3659	3659	3659	3659	3659	3698	3698	3698	3698	3698	3698	3698	3659	3698	3698	3698	3698	3698	3698	3698	3698	3698	3698	3738	3738	3738	3738	3738	3738	3738	3698	3698	3698	3698	3698	3698	3698	3738	3738	3738	3698	3698	3698	3698	3698	3698	3659	3698	3698	3698	3698	3698	3698	3698	3698	3698	3698	3659	3659	3698	3738	3738	3738	3738	3738	3698	3698	3698	3698	3698	3659	3698	3698	3738	3738	3738	3698	3698	3698	3698	3659	3659	3698	3698	3698	3698	3698	3659	3659	3659	3659	3659	3659	3659	3698	3698	3698	3698	3698	3698	3698	3698	3698	3659	3698	3698	3698	3698	3698	3698	3659	3659	3659	3659	3659	3659	3659	3659	3659	3698	3698	3738	0	0	1853	1843	1843	1833	1824	1814	1814	1804	1804	1795	1786	1777	1768	1759	1750	1741	1741	1732	1741	1732	1723	1715	1706	1698	1690	1681	1673	1673	1665	1665	1657	1649	1641	1634	1626	1618	1611	1611	1603	1596	1603	1596	1589	1581	1581	1567	1560	1560	1553	1553	1546	1546	1539	1532	1525	1525	1525	1525	1525	1532	1532	1532	1539	1539	1546	1546	1546	1546	1546	1546	1546	1546	1553	1553	1553	1553	1553	1553	1553	1553	1553	1553	1553	1553	1553	1553	1553	1553	1553	1560	1560	1560	1553	0	0	0	0	0	0	0	0	0	0	0	0	0	0	0	0	0	0	0	0	0	0	0	0	0	0	0	0	0	0	0	0	0	0	0	0	0	0	0	0	0	0	0	0	0	0	0	0	0	0	0	0	0	0	0	0	0
0	0	0	0	0	0	0	0	0	0	0	0	0	0	0	2426	2426	2443	2443	2443	2443	2460	2460	2460	2478	2478	2478	2478	2478	2478	2478	2478	2460	2443	2443	2443	2443	2443	2443	2443	2443	2460	2460	2460	2460	2460	2460	2478	2460	2460	2460	2460	2460	2460	2460	2460	2443	2443	2443	2460	2460	2443	2460	2460	2460	2478	2460	2478	2478	2460	2460	2478	2460	2460	2460	2460	2478	2478	2460	2478	2460	2478	2460	2460	2478	2460	2460	2460	2460	2460	2460	2460	2460	2478	2496	2496	2496	2496	2496	2496	2496	2496	2496	2496	2496	2514	2514	2514	2669	2690	2669	2690	2690	3373	3373	3373	3373	3373	3373	3406	3406	3406	3406	3406	3406	3406	3406	3406	3406	3406	3440	3475	3510	3510	3546	3546	3546	3546	3546	3546	3546	3546	3546	3546	3583	3546	3546	3546	3546	3546	3546	3546	3546	3546	3546	3546	3546	3583	3621	3621	3621	3621	3621	3621	3621	3583	3621	3621	3621	3621	3621	3659	3659	3659	3659	3659	3659	3659	3659	3659	3659	3621	3621	3621	3621	3621	3621	3621	3621	3621	3621	3621	3621	3621	3621	3621	3583	3583	3583	3583	3583	3583	3583	3583	3583	3621	3621	3659	3659	3621	2822	2822	2799	2799	2799	2799	2777	2799	2799	2799	2799	2799	2777	2777	2777	2754	2754	2754	2754	2754	2733	2733	2733	2733	2733	2733	2733	2733	2733	2733	2733	2733	2733	2733	2733	2733	2733	2733	2733	2733	2733	2733	2733	2733	2733	2754	2754	2754	2754	2754	2754	2754	2754	2754	2754	2754	2754	2777	2777	2777	2777	2799	2822	2845	2869	2869	2893	2869	2869	2869	2845	2845	2822	2799	2799	2799	2799	2777	2777	0	3698	3698	3659	3659	3659	3659	3659	3659	3659	3659	3659	3659	3659	3659	3659	3659	3659	3659	3659	3659	3659	3659	3659	3659	3698	3698	3698	3698	3698	3698	3698	3698	3698	3698	3698	3698	3698	3698	3698	3698	3698	3698	3698	3698	3698	3698	3698	3698	3698	3698	3698	3698	3698	3698	3698	3738	3738	3698	3698	3698	3698	3698	3698	3738	3738	3738	3698	3738	3738	3698	3698	3698	3698	3698	3698	3659	3659	3659	3698	3659	3698	3698	3698	3698	3698	3659	3659	3659	3659	3659	3698	3698	3698	3698	3738	3738	3738	3738	3738	3738	3738	3738	3738	3738	3738	3738	3698	3698	3698	3698	3698	3698	3698	3738	3738	3738	3738	3698	3698	3698	3698	3659	3659	3659	3659	3659	3698	3698	3698	3659	3659	3698	3698	3659	3698	3698	3738	3738	3738	3738	3698	3698	3698	3698	3698	3659	3659	3698	3698	3738	3738	3738	3698	3698	3698	3698	3659	3659	3659	3698	3698	3698	3698	3659	3659	3659	3659	3659	3659	3698	3698	3698	3698	3659	3659	3659	3698	3698	3698	3698	3698	3698	3698	3698	3698	3698	3659	3659	3659	3659	3659	3659	3659	3659	3659	3698	3698	0	0	1853	1853	1843	1843	1843	1824	1814	1804	1804	1804	1795	1786	1777	1777	1759	1759	1750	1750	1741	1741	1732	1723	1715	1715	1706	1690	1690	1681	1673	1665	1665	1657	1649	1641	1634	1634	1618	1611	1611	1603	1596	1603	1596	1589	1581	1581	1567	1567	1560	1553	1553	1546	1546	1539	1532	1525	1525	1525	1525	1525	1525	1532	1532	1539	1539	1546	1546	1546	1546	1546	1546	1546	1546	1553	1553	1553	1553	1553	1553	1553	1553	1553	1553	1553	1553	1553	1553	1553	1553	1553	1553	1553	1560	0	0	0	0	0	0	0	0	0	0	0	0	0	0	0	0	0	0	0	0	0	0	0	0	0	0	0	0	0	0	0	0	0	0	0	0	0	0	0	0	0	0	0	0	0	0	0	0	0	0	0	0	0	0	0	0	0	0
0	0	0	0	0	0	0	0	0	0	0	0	0	0	0	2426	2443	2443	2443	2443	2443	2443	2460	2460	2460	2478	2478	2478	2478	2478	2478	2478	2460	2443	2443	2443	2443	2443	2443	2443	2443	2443	2460	2460	2460	2460	2460	2460	2460	2460	2460	2460	2460	2460	2460	2460	2460	2443	2460	2460	2460	2460	2460	2460	2460	2478	2460	2478	2460	2460	2460	2460	2460	2460	2460	2460	2478	2478	2478	2478	2460	2460	2460	2460	2460	2460	2460	2460	2460	2460	2460	2460	2460	2478	2496	2496	2496	2496	2496	2496	2496	2496	2496	2496	2514	2514	2514	2514	2690	2690	2690	2711	2690	2690	2690	3373	3373	3373	3373	3406	3406	3406	3406	3406	3406	3406	3406	3373	3373	3406	3440	3440	3475	3510	3546	3546	3546	3546	3546	3546	3546	3546	3546	3546	3546	3546	3546	3546	3546	3546	3546	3546	3546	3546	3546	3583	3583	3583	3621	3621	3621	3621	3621	3621	3583	3583	3583	3621	3621	3621	3621	3659	3659	3659	3659	3659	3659	3659	3659	3659	3621	3621	3621	3621	3621	3621	3621	3621	3621	3621	3621	3621	3621	3621	3621	3621	3583	3583	3583	3583	3583	3583	3621	3583	3621	3621	3659	3659	3659	3621	3621	2799	2799	2799	2799	2799	2777	2777	2799	2799	2777	2777	2777	2777	2754	2754	2754	2733	2754	2754	2733	2733	2733	2733	2733	2733	2733	2733	2733	2733	2733	2733	2733	2733	2733	2733	2733	2733	2733	2733	2733	2733	2733	2733	2733	2733	2754	2754	2754	2754	2754	2754	2754	2754	2754	2754	2754	2754	2754	2777	2777	2777	2799	2845	2869	2869	2869	2869	2869	2869	2845	2845	2822	2799	2799	2799	2799	2777	2777	0	3698	3698	3659	3659	3659	3659	3659	3659	3621	3659	3659	3659	3659	3659	3659	3659	3659	3659	3659	3698	3659	3659	3659	3659	3698	3698	3698	3698	3698	3698	3698	3698	3698	3698	3698	3698	3698	3698	3698	3698	3698	3698	3738	3698	3698	3698	3698	3698	3698	3659	3698	3698	3698	3698	3698	3698	3738	3698	3698	3698	3698	3698	3698	3698	3698	3698	3698	3698	3698	3698	3698	3698	3698	3698	3698	3659	3659	3659	3698	3698	3698	3698	3698	3698	3659	3659	3659	3698	3659	3698	3698	3698	3698	3698	3738	3738	3738	3738	3738	3738	3738	3738	3738	3738	3738	3738	3698	3698	3698	3698	3698	3698	3698	3738	3738	3738	3698	3698	3698	3698	3698	3659	3659	3659	3659	3659	3659	3659	3659	3659	3659	3659	3698	3659	3698	3698	3698	3738	3698	3698	3698	3698	3698	3659	3659	3659	3659	3698	3698	3738	3738	3738	3698	3698	3659	3659	3659	3659	3659	3659	3698	3698	3698	3698	3659	3659	3698	3659	3659	3659	3659	3659	3659	3659	3659	3659	3659	3659	3659	3698	3698	3698	3698	3698	3698	3698	3659	3659	3659	3659	3659	3659	3659	3659	3698	3698	3698	0	1853	1853	1853	1843	1843	1843	1824	1814	1814	1804	1804	1795	1786	1777	1777	1777	1768	1759	1759	1750	1741	1741	1732	1723	1715	1706	1698	1690	1681	1673	1665	1665	1657	1649	1641	1634	1634	1626	1618	1611	1603	1596	1596	1596	1589	1581	1581	1574	1567	1560	1553	1553	1546	1539	1539	1532	1525	1525	1525	1525	1525	1525	1525	1525	1532	1539	1539	1546	1553	1546	1546	1546	1546	1546	1553	1553	1553	1553	1553	1553	1553	1553	1553	1553	1553	1553	1553	1553	1553	1553	1532	1532	1553	0	0	0	0	0	0	0	0	0	0	0	0	0	0	0	0	0	0	0	0	0	0	0	0	0	0	0	0	0	0	0	0	0	0	0	0	0	0	0	0	0	0	0	0	0	0	0	0	0	0	0	0	0	0	0	0	0	0	0
0	0	0	0	0	0	0	0	0	0	0	0	0	0	0	2443	2443	2443	2443	2443	2443	2443	2443	2443	2460	2460	2478	2478	2478	2478	2478	2478	2460	2443	2443	2443	2443	2443	2443	2443	2443	2460	2460	2460	2460	2460	2460	2460	2460	2460	2460	2460	2460	2460	2460	2460	2460	2460	2460	2460	2460	2460	2460	2460	2460	2478	2460	2460	2460	2460	2460	2460	2460	2460	2460	2460	2478	2478	2478	2478	2460	2478	2460	2460	2460	2460	2460	2460	2460	2460	2460	2460	2460	2478	2496	2496	2496	2496	2496	2496	2496	2496	2496	2496	2496	2514	2514	2514	2711	2711	2690	2711	2690	2690	2690	2690	2690	3373	3406	3406	3406	3406	3406	3406	3406	3406	3406	3406	3373	3406	3406	3440	3475	3510	3546	3546	3546	3546	3546	3546	3546	3546	3546	3546	3546	3546	3546	3546	3546	3546	3546	3546	3546	3546	3546	3583	3583	3583	3621	3621	3621	3621	3621	3621	3621	3583	3583	3583	3621	3621	3621	3659	3659	3659	3659	3659	3621	3659	3659	3659	3621	3659	3621	3621	3621	3621	3621	3621	3621	3621	3621	3621	3621	3621	3621	3621	3583	3583	3583	3583	3583	3583	3583	3583	3621	3621	3659	3659	3621	3621	3621	2799	2799	2799	2799	2799	2777	2777	2799	2799	2777	2777	2754	2754	2754	2754	2754	2733	2733	2733	2733	2733	2733	2733	2733	2733	2733	2733	2733	2733	2733	2733	2733	2733	2733	2733	2733	2733	2733	2733	2733	2733	2733	2733	2733	2733	2733	2733	2754	2754	2754	2754	2754	2754	2754	2754	2754	2754	2754	2777	2777	2777	2799	2822	2845	2869	2869	2869	2869	2845	2845	2845	2822	2799	2799	2799	2799	2777	2777	0	3698	3698	3659	3659	3659	3659	3659	3659	3659	3659	3659	3659	3659	3659	3659	3659	3659	3659	3659	3659	3659	3659	3659	3659	3698	3698	3698	3698	3698	3698	3698	3698	3698	3698	3659	3659	3698	3698	3698	3698	3698	3698	3698	3698	3698	3698	3698	3659	3659	3659	3698	3698	3698	3698	3698	3738	3738	3698	3698	3698	3698	3698	3698	3698	3698	3698	3698	3738	3738	3698	3698	3698	3698	3698	3698	3698	3698	3698	3698	3698	3698	3698	3698	3698	3698	3659	3659	3698	3698	3698	3698	3698	3698	3698	3738	3698	3698	3738	3738	3738	3738	3738	3738	3738	3738	3738	3698	3698	3698	3698	3698	3698	3698	3698	3698	3698	3698	3698	3698	3698	3698	3659	3659	3659	3659	3698	3659	3698	3659	3659	3659	3698	3698	3698	3698	3698	3698	3738	3698	3698	3698	3698	3659	3659	3659	3659	3698	3698	3698	3698	3738	3698	3698	3698	3659	3659	3659	3659	3659	3659	3698	3698	3698	3698	3698	3698	3698	3659	3659	3659	3659	3659	3659	3659	3659	3659	3659	3659	3659	3659	3698	3698	3698	3698	3659	3659	3659	3659	3659	3659	3659	3621	3659	3659	3659	3698	0	0	1863	1853	1853	1843	1843	1843	1833	1824	1814	1804	1804	1795	1786	1777	1777	1777	1768	1759	1759	1750	1741	1732	1732	1723	1715	1706	1698	1690	1681	1673	1665	1665	1657	1649	1641	1634	1634	1618	1611	1611	1603	1596	1596	1596	1589	1589	1581	1574	1567	1560	1560	1553	1553	1546	1539	1532	1525	1525	1525	1525	1525	1525	1525	1525	1532	1532	1539	1546	1546	1553	1546	1553	1546	1553	1553	1553	1553	1553	1553	1553	1553	1553	1553	1560	1553	1553	1553	1553	1546	1532	1532	1532	1553	0	0	0	0	0	0	0	0	0	0	0	0	0	0	0	0	0	0	0	0	0	0	0	0	0	0	0	0	0	0	0	0	0	0	0	0	0	0	0	0	0	0	0	0	0	0	0	0	0	0	0	0	0	0	0	0	0	0	0
0	0	0	0	0	0	0	0	0	0	0	0	0	0	0	2443	2443	2443	2443	2426	2426	2443	2443	2460	2460	2478	2478	2478	2478	2460	2460	2460	2443	2426	2426	2426	2443	2443	2443	2443	2460	2460	2460	2460	2460	2460	2460	2460	2460	2460	2460	2460	2460	2460	2460	2460	2460	2460	2460	2460	2460	2460	2460	2460	2460	2460	2460	2460	2443	2443	2443	2460	2460	2460	2460	2460	2478	2478	2478	2478	2478	2478	2478	2460	2460	2460	2460	2460	2460	2460	2460	2460	2460	2478	2478	2496	2496	2496	2496	2496	2496	2496	2496	2496	2496	2514	2514	2514	2733	2733	2711	2711	2711	2711	2711	2711	2711	2711	2711	3406	3406	3406	3406	3406	3406	3406	3406	3406	3406	3406	3406	3440	3475	3510	3546	3546	3546	3546	3546	3546	3546	3546	3546	3546	3546	3546	3546	3546	3546	3546	3546	3546	3546	3546	3546	3583	3583	3583	3621	3621	3621	3621	3621	3621	3621	3583	3583	3583	3621	3621	3621	3621	3659	3659	3621	3621	3621	3621	3621	3621	3621	3621	3621	3621	3621	3621	3583	3583	3621	3621	3621	3621	3621	3621	3621	3621	3583	3583	3583	3583	3583	3583	3583	3583	3621	3621	3659	3621	3621	3621	3583	2822	2799	2822	2799	2799	2777	2777	2777	2799	2777	2777	2754	2754	2754	2754	2754	2733	2733	2733	2733	2733	2733	2733	2733	2733	2733	2733	2733	2733	2733	2711	2733	2733	2711	2711	2711	2711	2711	2733	2733	2733	2733	2733	2733	2733	2733	2733	2754	2754	2754	2754	2754	2754	2754	2754	2754	2754	2754	2777	2777	2777	2799	2799	2845	2869	2869	2869	2869	2869	2845	2845	2822	2799	2799	2799	2799	2777	2777	0	3698	3698	3659	3659	3659	3621	3659	3621	3621	3659	3659	3659	3659	3659	3659	3659	3659	3659	3659	3659	3659	3659	3659	3659	3659	3698	3698	3738	3698	3698	3698	3698	3698	3698	3659	3659	3698	3698	3698	3698	3698	3738	3738	3738	3738	3738	3698	3659	3659	3659	3659	3659	3659	3659	3698	3698	3698	3698	3659	3659	3659	3659	3698	3698	3698	3698	3698	3738	3738	3698	3698	3698	3738	3738	3738	3698	3698	3698	3698	3698	3698	3698	3698	3698	3659	3659	3659	3698	3698	3698	3698	3698	3698	3698	3698	3698	3698	3698	3698	3738	3738	3738	3738	3738	3738	3738	3698	3698	3698	3698	3698	3698	3698	3698	3698	3698	3698	3698	3698	3698	3698	3698	3698	3698	3698	3698	3698	3698	3659	3659	3698	3698	3698	3659	3698	3698	3698	3738	3698	3698	3659	3698	3659	3659	3659	3659	3698	3698	3698	3698	3738	3698	3698	3698	3659	3659	3659	3659	3659	3659	3698	3698	3698	3698	3659	3659	3698	3659	3659	3698	3659	3659	3659	3659	3659	3659	3659	3659	3659	3659	3698	3698	3698	3659	3659	3659	3659	3659	3659	3659	3659	3621	3621	3659	3659	0	0	1873	1863	1853	1853	1843	1843	1843	1833	1824	1814	1804	1804	1795	1786	1777	1777	1777	1777	1768	1759	1750	1741	1741	1732	1723	1723	1706	1698	1690	1681	1673	1665	1665	1649	1649	1641	1634	1634	1626	1611	1611	1603	1596	1596	1596	1589	1589	1581	1574	1567	1560	1560	1553	1546	1539	1532	1525	1525	1525	1525	1525	1525	1525	1525	1519	1525	1532	1532	1539	1546	1553	1546	1553	1546	1553	1553	1553	1553	1553	1553	1553	1553	1553	1553	1553	1553	1553	1546	1546	1546	1532	1532	0	0	0	0	0	0	0	0	0	0	915	908	903	898	898	0	0	0	0	0	0	0	0	0	0	0	0	0	0	0	0	0	0	0	0	0	0	0	0	0	0	0	0	0	0	0	0	0	0	0	0	0	0	0	0	0	0	0	0	0	0
0	0	0	0	0	0	0	0	0	0	0	0	0	0	0	2460	2443	2443	2443	2426	2443	2443	2443	2460	2460	2478	2478	2478	2478	2460	2460	2460	2443	2426	2426	2443	2443	2460	2460	2460	2460	2460	2460	2460	2460	2460	2460	2460	2460	2460	2460	2460	2443	2460	2460	2460	2460	2460	2460	2478	2478	2460	2460	2460	2460	2460	2460	2460	2460	2460	2443	2460	2460	2460	2460	2460	2460	2460	2478	2460	2460	2460	2460	2460	2460	2460	2460	2460	2460	2460	2443	2460	2460	2478	2496	2496	2496	2496	2496	2496	2496	2496	2496	2478	2478	2496	2496	2754	2754	2733	2733	2754	2754	2754	2733	2733	2733	2711	2711	2711	3440	3440	3406	3406	3406	3406	3406	3406	3406	3406	3440	3475	3510	3546	3546	3546	3546	3546	3546	3546	3546	3546	3546	3546	3546	3546	3546	3546	3546	3546	3546	3546	3546	3546	3546	3583	3546	3583	3621	3621	3621	3621	3621	3621	3621	3583	3583	3583	3621	3621	3583	3583	3621	3621	3621	3621	3621	3621	3621	3621	3621	3621	3621	3621	3621	3621	3583	3621	3621	3621	3621	3621	3621	3621	3621	3583	3583	3583	3583	3583	3583	3583	3621	3621	3621	3621	3659	3621	3621	3583	3583	2822	2822	2822	2799	2799	2799	2777	2777	2777	2777	2777	2754	2754	2754	2754	2733	2733	2733	2733	2733	2733	2733	2733	2733	2733	2733	2733	2733	2733	2711	2711	2711	2711	2711	2711	2711	2711	2733	2733	2733	2733	2733	2733	2733	2733	2733	2733	2733	2733	2754	2754	2754	2754	2754	2754	2754	2754	2754	2777	2777	2777	2777	2799	2845	2845	2869	2869	2869	2869	2845	2845	2822	2822	2799	2799	2799	2799	2799	3698	3698	3659	3659	3659	3621	3621	3621	3621	3621	3621	3659	3659	3659	3659	3659	3698	3659	3659	3698	3698	3659	3659	3659	3659	3659	3698	3698	3698	3698	3698	3698	3698	3698	3659	3659	3659	3659	3659	3698	3698	3698	3738	3738	3738	3738	3738	3698	3659	3659	3659	3659	3659	3659	3659	3698	3698	3698	3698	3698	3659	3659	3698	3698	3698	3698	3698	3698	3698	3738	3698	3698	3738	3738	3698	3738	3698	3698	3698	3698	3698	3698	3698	3698	3698	3659	3659	3659	3659	3659	3698	3659	3698	3698	3698	3698	3698	3698	3698	3698	3738	3738	3738	3738	3738	3738	3738	3738	3738	3698	3698	3698	3698	3698	3698	3698	3698	3698	3698	3698	3698	3698	3698	3698	3698	3698	3698	3659	3698	3659	3659	3698	3698	3698	3698	3698	3698	3698	3738	3698	3698	3659	3659	3659	3659	3659	3659	3659	3698	3698	3698	3698	3698	3698	3659	3659	3659	3659	3659	3659	3659	3659	3659	3698	3698	3659	3698	3698	3659	3698	3698	3659	3659	3659	3659	3659	3659	3659	3659	3659	3698	3698	3698	3698	3659	3659	3659	3621	3621	3621	3621	3621	3621	3621	0	0	1883	1883	1873	1863	1853	1853	1853	1843	1843	1843	1833	1824	1814	1804	1795	1786	1786	1777	1777	1777	1768	1759	1750	1741	1741	1732	1723	1723	1715	1698	1690	1681	1673	1673	1665	1657	1649	1641	1634	1626	1618	1611	1611	1603	1596	1596	1596	1589	1589	1581	1574	1567	1560	1560	1553	1546	1539	1532	1525	1525	1525	1525	1525	1525	1525	1525	1525	1525	1532	1532	1539	1546	1546	1546	1546	1546	1546	1553	1553	1553	1553	1553	1553	1553	1546	1546	1546	1553	1553	1546	1546	1546	0	0	0	0	0	0	0	0	0	0	0	0	913	905	898	896	896	0	0	0	0	0	0	0	0	0	0	0	0	0	0	0	0	0	0	0	0	0	0	0	0	0	0	0	0	0	0	0	0	0	0	0	0	0	0	0	0	0	0	0	0	0	0
0	0	0	0	0	0	0	0	0	0	0	0	0	0	0	2460	2443	2443	2443	2443	2443	2443	2443	2443	2460	2478	2478	2478	2478	2478	2460	2460	2460	2426	2443	2443	2443	2443	2443	2443	2443	2460	2443	2443	2460	2460	2460	2460	2460	2460	2460	2460	2443	2443	2460	2460	2460	2460	2460	2460	2460	2460	2460	2460	2460	2460	2460	2460	2460	2460	2460	2460	2460	2460	2460	2460	2460	2460	2460	2460	2460	2460	2460	2460	2460	2460	2460	2460	2460	2460	2460	2460	2460	2478	2478	2496	2496	2496	2496	2496	2496	2496	2496	2496	2496	2496	2777	2777	2777	2754	2777	2777	2777	2777	2754	2754	2754	2733	2733	2733	3440	3440	3406	3406	3406	3406	3406	3406	3406	3406	3475	3475	3510	3546	3546	3546	3583	3546	3583	3546	3546	3546	3510	3510	3510	3546	3546	3546	3546	3546	3546	3546	3546	3546	3546	3546	3546	3583	3621	3621	3621	3659	3659	3659	3621	3621	3583	3583	3621	3621	3583	3583	3583	3583	3621	3621	3621	3621	3621	3621	3621	3621	3621	3621	3621	3621	3583	3621	3621	3621	3621	3621	3621	3621	3583	3583	3583	3583	3583	3583	3583	3583	3621	3621	3621	3621	3621	3621	3621	3583	3583	2822	2822	2822	2822	2822	2799	2799	2777	2777	2777	2754	2754	2754	2754	2754	2733	2733	2733	2733	2733	2733	2733	2733	2733	2733	2711	2711	2711	2711	2690	2690	2711	2711	2711	2711	2711	2711	2733	2733	2733	2733	2733	2733	2754	2754	2754	2754	2754	2754	2754	2754	2754	2754	2754	2754	2754	2754	2754	2777	2777	2777	2777	2799	2822	2845	2845	2869	2845	2845	2845	2845	2845	2822	2799	2799	2822	2799	2799	3698	3698	3659	3659	3659	3621	3621	3621	3621	3621	3621	3659	3659	3659	3659	3698	3698	3659	3659	3698	3698	3659	3659	3659	3659	3659	3698	3698	3698	3698	3698	3698	3698	3659	3659	3659	3659	3659	3659	3659	3698	3698	3738	3738	3738	3738	3738	3698	3659	3659	3659	3698	3698	3659	3659	3698	3698	3698	3659	3659	3659	3659	3659	3659	3698	3698	3698	3698	3698	3698	3698	3698	3698	3698	3698	3738	3698	3738	3738	3698	3698	3698	3698	3698	3698	3659	3659	3659	3659	3659	3698	3698	3698	3698	3698	3698	3698	3698	3698	3698	3738	3738	3738	3738	3738	3738	3738	3698	3698	3698	3698	3698	3698	3698	3698	3698	3698	3698	3698	3698	3698	3698	3698	3698	3698	3698	3698	3698	3698	3698	3698	3698	3698	3698	3698	3698	3698	3698	3698	3698	3698	3659	3698	3698	3659	3659	3659	3659	3659	3659	3659	3698	3698	3659	3659	3659	3659	3659	3659	3659	3659	3659	3698	3698	3698	3659	3659	3698	3698	3698	3698	3659	3659	3659	3659	3659	3659	3659	3659	3659	3659	3698	3659	3659	3659	3659	3659	3621	3621	3621	3621	3621	3621	0	1925	1904	1894	1883	1873	1873	1863	1853	1853	1843	1843	1843	1833	1824	1814	1804	1804	1795	1786	1786	1777	1777	1768	1759	1750	1741	1741	1732	1723	1723	1706	1698	1690	1681	1673	1673	1665	1657	1649	1641	1634	1626	1618	1611	1611	1603	1603	1603	1603	1589	1589	1581	1567	1567	1560	1553	1553	1546	1539	1532	1525	1525	1525	1525	1525	1525	1525	1525	1525	1525	1532	1532	1546	1546	1553	1546	1553	1546	1546	1553	1553	1553	1553	1546	1546	1546	1553	1546	1546	1546	1546	1546	1546	0	0	0	0	0	0	0	0	0	0	0	0	0	913	903	898	894	894	0	0	0	0	0	0	0	0	0	0	0	0	0	0	0	0	0	0	0	0	0	0	0	0	0	0	0	0	0	0	0	0	0	0	0	0	0	0	0	0	0	0	0	0	0	0
0	0	0	0	0	0	0	0	0	0	0	0	0	0	0	2460	2460	2443	2443	2443	2443	2443	2443	2443	2460	2478	2478	2478	2478	2460	2478	2460	2460	2443	2443	2460	2443	2460	2460	2460	2460	2460	2443	2443	2443	2460	2460	2460	2460	2443	2443	2443	2443	2443	2460	2460	2460	2460	2460	2460	2460	2460	2460	2443	2443	2443	2460	2460	2460	2460	2460	2460	2460	2460	2460	2460	2460	2443	2460	2460	2460	2460	2460	2478	2460	2478	2460	2460	2460	2460	2460	2460	2460	2478	2478	2496	2496	2496	2496	2496	2496	2496	2478	2478	2478	2478	2777	2777	2777	2777	2777	2777	2777	2799	2777	2754	2754	2754	2754	2754	2754	3406	3406	3406	3406	3406	3406	3440	3440	3440	3440	3475	3510	3546	3546	3583	3583	3583	3583	3546	3546	3510	3510	3510	3510	3546	3546	3546	3546	3546	3546	3546	3546	3546	3546	3546	3546	3583	3621	3621	3621	3659	3659	3659	3621	3621	3583	3583	3583	3583	3583	3583	3583	3583	3583	3583	3583	3583	3621	3621	3621	3621	3621	3621	3621	3621	3583	3621	3621	3621	3621	3621	3621	3621	3583	3583	3583	3583	3583	3583	3583	3583	3621	3621	3621	3621	3621	3621	3621	3583	3583	3583	2822	2845	2822	2822	2799	2799	2777	2777	2777	2754	2754	2754	2754	2754	2733	2733	2733	2733	2711	2711	2711	2711	2711	2711	2711	2733	2711	2711	2690	2690	2711	2711	2711	2711	2711	2711	2733	2733	2733	2733	2733	2733	2733	2733	2754	2754	2733	2754	2754	2754	2754	2754	2754	2754	2754	2754	2754	2777	2777	2777	2777	2799	2822	2822	2845	2845	2845	2845	2845	2845	2822	2822	2799	2799	2799	2799	2799	2799	3659	3659	3659	3621	3621	3621	3621	3621	3621	3659	3659	3659	3659	3659	3698	3698	3659	3659	3659	3659	3659	3659	3659	3659	3659	3698	3698	3698	3698	3698	3698	3698	3659	3659	3659	3659	3659	3659	3698	3698	3698	3738	3738	3738	3738	3738	3698	3659	3659	3698	3698	3698	3698	3698	3698	3698	3698	3659	3659	3659	3659	3659	3659	3698	3698	3698	3698	3698	3738	3698	3698	3698	3698	3738	3738	3738	3738	3738	3698	3698	3698	3698	3698	3698	3659	3659	3659	3659	3659	3698	3659	3698	3698	3698	3698	3698	3698	3698	3698	3738	3738	3698	3738	3738	3738	3738	3698	3698	3698	3698	3698	3698	3698	3698	3698	3698	3698	3659	3698	3698	3698	3698	3698	3698	3698	3698	3698	3698	3698	3659	3659	3659	3659	3659	3698	3698	3698	3698	3698	3698	3698	3698	3698	3659	3659	3659	3659	3659	3659	3659	3659	3659	3659	3659	3659	3659	3659	3659	3659	3659	3698	3698	3698	3698	3659	3698	3698	3698	3659	3659	3659	3659	3659	3659	3659	3659	3659	3659	3659	3698	3659	3659	3659	3659	3659	3621	1969	1969	3621	3621	3621	1947	1936	1925	1904	1894	1894	1883	1873	1863	1863	1853	1843	1843	1843	1833	1833	1824	1814	1804	1795	1786	1786	1777	1777	1768	1759	1750	1741	1741	1732	1732	1723	1706	1706	1690	1681	1673	1673	1665	1657	1649	1641	1634	1626	1618	1611	1611	1603	1603	1603	1596	1589	1589	1574	1567	1567	1560	1553	1553	1546	1532	1532	1525	1525	1525	1525	1525	1525	1525	1525	1525	1525	1532	1539	1546	1546	1553	1553	1553	1553	1546	1553	1553	1553	1553	1546	1546	1553	1546	1546	1546	1546	1546	1546	0	0	0	0	0	0	0	0	0	0	0	920	917	915	913	903	898	894	894	0	0	0	0	0	0	0	0	0	0	0	0	0	0	0	0	0	0	0	0	0	0	0	0	0	0	0	0	0	0	0	0	0	0	0	0	0	0	0	0	0	0	0	0	0	0
0	0	0	0	0	0	0	0	0	0	0	0	0	0	0	2460	2460	2460	2443	2443	2443	2443	2443	2443	2443	2460	2460	2478	2460	2460	2478	2478	2460	2443	2443	2460	2443	2443	2460	2460	2460	2460	2443	2460	2460	2460	2460	2460	2460	2443	2443	2443	2443	2443	2460	2460	2460	2460	2478	2478	2460	2460	2460	2460	2460	2460	2460	2460	2460	2460	2460	2460	2460	2460	2460	2460	2460	2443	2460	2460	2460	2460	2460	2460	2460	2460	2460	2460	2460	2460	2460	2460	2460	2478	2496	2496	2496	2496	2496	2496	2496	2478	2478	2460	2460	2460	2799	2799	2777	2777	2799	2799	2799	2799	2777	2777	2777	2777	2754	2754	2754	2754	3406	3406	3440	3440	3440	3440	3440	3440	3475	3475	3510	3546	3583	3583	3621	3583	3583	3546	3546	3546	3546	3546	3546	3546	3546	3546	3546	3546	3546	3546	3546	3546	3546	3546	3546	3621	3621	3621	3659	3659	3659	3659	3621	3621	3583	3583	3583	3583	3583	3546	3583	3583	3621	3621	3621	3621	3621	3621	3621	3621	3621	3621	3621	3583	3583	3621	3583	3583	3583	3621	3583	3621	3583	3583	3583	3583	3583	3583	3583	3583	3583	3583	3583	3583	3621	3621	3621	3583	3583	2845	2845	2845	2822	2799	2799	2799	2777	2777	2777	2754	2754	2754	2754	2754	2754	2733	2733	2733	2711	2711	2711	2711	2711	2711	2711	2711	2711	2711	2711	2711	2711	2711	2711	2711	2711	2711	2733	2733	2733	2754	2733	2733	2754	2754	2754	2754	2733	2754	2754	2754	2754	2754	2754	2754	2754	2754	2754	2754	2777	2777	2777	2777	2799	2799	2822	2822	2845	2845	2845	2845	2822	2822	2822	2799	2799	2799	2777	2777	3659	3659	3659	3659	3659	3621	3659	3621	3621	3659	3659	3659	3659	3659	3659	3659	3659	3659	3659	3659	3659	3659	3659	3659	3659	3698	3698	3698	3659	3698	3659	3659	3659	3621	3621	3659	3659	3659	3659	3698	3698	3738	3698	3738	3738	3698	3698	3698	3698	3698	3698	3698	3659	3659	3659	3698	3698	3659	3659	3659	3659	3659	3659	3659	3698	3698	3698	3698	3738	3698	3698	3698	3698	3698	3698	3698	3738	3698	3698	3698	3698	3698	3698	3698	3659	3659	3659	3659	3659	3698	3659	3698	3698	3698	3698	3698	3698	3738	3738	3738	3738	3698	3698	3698	3738	3738	3698	3698	3698	3698	3698	3698	3698	3659	3659	3659	3659	3659	3659	3698	3698	3698	3698	3698	3698	3698	3698	3698	3698	3659	3659	3659	3659	3659	3698	3698	3698	3698	3698	3698	3698	3698	3698	3698	3698	3659	3659	3659	3659	3659	3659	3659	3659	3659	3659	3659	3659	3659	3659	3659	3659	3698	3698	3698	3659	3659	3698	3659	3659	3659	3659	3659	3659	3659	3659	3659	3698	3659	3698	3698	3698	3659	3659	3659	3659	3621	3583	3583	1969	1969	1969	1936	1936	1925	1904	1894	1894	1883	1883	1873	1863	1853	1853	1853	1843	1833	1833	1824	1814	1804	1795	1786	1777	1777	1777	1768	1759	1750	1741	1741	1732	1723	1723	1706	1698	1690	1681	1681	1673	1665	1657	1649	1641	1641	1626	1618	1618	1611	1603	1603	1603	1596	1589	1589	1574	1567	1567	1560	1553	1553	1546	1539	1532	1525	1525	1525	1525	1525	1525	1525	1525	1525	1525	1532	1532	1546	1553	1553	1553	1553	1553	1546	1546	1553	1553	1553	1546	1546	1553	1553	1546	1546	0	0	0	0	0	0	0	0	0	0	0	0	0	0	925	920	920	908	901	896	894	894	0	0	0	0	0	0	0	0	0	0	0	0	0	0	0	0	0	0	0	0	0	0	0	0	0	0	0	0	0	0	0	0	0	0	0	0	0	0	0	0	0	0	0	0	0	0
0	0	0	0	0	0	0	0	0	0	0	0	0	0	0	2460	2460	2443	2443	2443	2443	2443	2443	2443	2443	2460	2460	2460	2460	2460	2460	2460	2460	2443	2443	2460	2460	2460	2460	2443	2460	2460	2443	2460	2460	2460	2460	2443	2460	2443	2443	2443	2443	2443	2443	2443	2443	2460	2460	2460	2460	2460	2460	2460	2460	2460	2460	2460	2460	2460	2460	2460	2460	2460	2460	2443	2443	2443	2443	2460	2460	2460	2460	2460	2460	2478	2460	2460	2460	2460	2460	2460	2460	2478	2496	2496	2496	2496	2496	2496	2496	2478	2478	2460	2460	2460	2799	2799	2799	2799	2799	2822	2822	2822	2799	2799	2799	2799	2777	2777	2822	2822	2822	3406	3475	3475	3475	3475	3475	3475	3475	3510	3510	3546	3583	3583	3621	3583	3583	3546	3546	3546	3546	3546	3546	3546	3546	3546	3546	3546	3546	3546	3546	3546	3546	3546	3583	3583	3621	3621	3659	3659	3659	3659	3621	3621	3583	3583	3583	3583	3583	3583	3583	3583	3583	3583	3583	3621	3621	3621	3583	3621	3621	3583	3583	3583	3583	3583	3583	3583	3583	3583	3583	3583	3583	3583	3583	3583	3583	3583	3583	3583	3583	3583	3583	3621	3621	3621	3621	3583	3583	2845	2845	2845	2822	2799	2799	2799	2777	2777	2777	2754	2754	2754	2754	2754	2754	2733	2733	2711	2711	2711	2711	2711	2711	2711	2711	2711	2711	2711	2711	2690	2711	2711	2711	2711	2711	2711	2733	2733	2733	2733	2733	2733	2733	2733	2754	2754	2754	2754	2754	2754	2754	2754	2754	2754	2754	2754	2754	2754	2777	2754	2777	2777	2777	2799	2799	2822	2822	2845	2845	2845	2822	2822	2822	2822	2822	2822	2822	2822	3659	3659	3659	3659	3659	3659	3659	3659	3659	3659	3659	3659	3659	3659	3659	3659	3659	3659	3659	3659	3659	3659	3659	3659	3659	3698	3698	3698	3659	3698	3659	3659	3659	3659	3621	3659	3659	3659	3698	3698	3698	3698	3698	3698	3698	3698	3698	3659	3659	3698	3698	3698	3659	3659	3698	3698	3659	3659	3659	3659	3659	3659	3659	3698	3698	3698	3698	3738	3738	3698	3738	3698	3698	3698	3698	3698	3698	3698	3698	3698	3698	3698	3698	3698	3698	3698	3698	3698	3659	3698	3659	3698	3698	3698	3698	3698	3698	3698	3698	3698	3698	3698	3698	3738	3738	3738	3738	3698	3698	3738	3738	3698	3698	3698	3659	3659	3659	3659	3659	3659	3698	3698	3698	3698	3698	3698	3698	3698	3659	3659	3659	3659	3659	3659	3659	3659	3698	3659	3698	3698	3659	3698	3698	3698	3698	3698	3659	3659	3659	3659	3659	3659	3659	3659	3659	3659	3659	3659	3659	3659	3659	3659	3659	3698	3659	3659	3659	3659	3698	3659	3659	3698	3698	3698	3659	3659	3659	3659	3659	3659	3659	3659	3659	3621	3621	1980	1980	1969	1969	1947	1947	1936	1936	1925	1915	1894	1894	1883	1883	1873	1863	1853	1853	1853	1843	1843	1843	1833	1814	1804	1795	1786	1786	1777	1777	1768	1759	1750	1741	1732	1732	1723	1715	1706	1706	1690	1681	1681	1673	1665	1657	1657	1641	1641	1626	1618	1618	1611	1611	1603	1603	1603	1596	1589	1574	1567	1567	1560	1553	1553	1546	1539	1532	1525	1525	1525	1525	1525	1525	1525	1525	1525	1525	1532	1532	1539	1546	1553	1546	1546	1553	1546	1553	1553	1553	1553	1546	1553	1553	1553	1553	1546	0	0	0	0	0	0	0	0	0	0	0	935	932	930	925	920	915	908	901	896	894	894	0	0	0	0	0	0	0	0	0	0	0	0	0	0	0	0	0	0	0	0	0	0	0	0	0	0	0	0	0	0	0	0	0	0	0	0	0	0	0	0	0	0	0	0	0	0
0	0	0	0	0	0	0	0	0	0	0	0	0	0	0	2460	2460	2443	2443	2443	2443	2443	2443	2426	2443	2443	2460	2460	2460	2460	2460	2460	2460	2460	2460	2460	2460	2460	2460	2460	2460	2460	2443	2443	2443	2443	2460	2443	2443	2426	2443	2443	2443	2443	2443	2443	2460	2460	2478	2460	2460	2460	2460	2460	2460	2460	2460	2460	2460	2460	2460	2460	2460	2460	2460	2443	2460	2443	2460	2460	2460	2460	2460	2460	2460	2460	2460	2460	2460	2460	2460	2460	2460	2478	2496	2496	2496	2496	2496	2496	2496	2478	2478	2460	2460	2460	2822	2822	2822	2822	2845	2845	2845	2845	2845	2822	2822	2822	2799	2799	2822	2822	2822	0	3510	3510	3475	3510	3510	3475	3510	3510	3510	3546	3546	3546	3583	3583	3583	3546	3546	3546	3546	3546	3546	3546	3546	3546	3546	3546	3546	3546	3546	3546	3546	3546	3546	3583	3621	3621	3659	3659	3659	3659	3621	3621	3621	3621	3621	3583	3583	3583	3583	3583	3583	3583	3583	3583	3621	3621	3583	3621	3621	3583	3583	3583	3583	3583	3583	3583	3583	3583	3583	3583	3583	3583	3583	3583	3583	3583	3583	3583	3583	3583	3583	3583	3621	3621	3621	3583	3583	2845	2845	2822	2822	2799	2799	2799	2777	2777	2777	2777	2754	2754	2754	2754	2754	2733	2733	2711	2711	2711	2711	2711	2711	2711	2711	2711	2711	2711	2711	2690	2690	2711	2711	2711	2711	2711	2711	2711	2733	2733	2733	2733	2733	2733	2754	2754	2754	2754	2754	2754	2754	2754	2754	2754	2754	2754	2754	2754	2754	2754	2777	2777	2777	2777	2777	2799	2822	2822	2845	2845	2845	2845	2822	2822	2822	2822	2822	3698	3698	3698	3659	3659	3659	3659	3659	3659	3659	3659	3659	3659	3659	3659	3659	3659	3659	3659	3659	3659	3659	3659	3659	3659	3659	3698	3698	3698	3659	3698	3698	3659	3659	3659	3659	3659	3659	3698	3698	3698	3698	3698	3698	3698	3698	3698	3698	3698	3659	3698	3698	3698	3659	3659	3698	3698	3659	3659	3659	3659	3659	3659	3659	3698	3698	3698	3698	3698	3698	3698	3698	3698	3698	3698	3698	3698	3698	3698	3698	3659	3698	3698	3659	3698	3698	3698	3698	3659	3659	3698	3659	3659	3659	3659	3698	3698	3698	3738	3738	3738	3698	3698	3698	3738	3738	3738	3738	3738	3698	3738	3738	3698	3698	3698	3698	3698	3659	3659	3659	3659	3698	3698	3698	3698	3698	3698	3698	3698	3659	3659	3659	3659	3659	3659	3659	3659	3698	3659	3659	3698	3698	3698	3698	3698	3738	3698	3698	3698	3659	3659	3698	3659	3659	3659	3659	3659	3659	3659	3659	3659	3659	3659	3659	3659	3659	3659	3659	3659	3698	3698	3698	3698	3698	3698	3698	3698	3698	3698	3698	3659	3659	3621	1992	1980	1980	1969	1969	1969	1958	1947	1947	1936	1936	1925	1915	1915	1894	1894	1883	1883	1873	1863	1853	1853	1853	1843	1843	1824	1814	1814	1795	1786	1786	1786	1777	1768	1759	1750	1741	1732	1732	1723	1715	1706	1698	1690	1681	1681	1673	1673	1665	1657	1649	1641	1626	1618	1618	1611	1611	1603	1611	1603	1596	1589	1574	1567	1567	1560	1553	1546	1546	1539	1532	1525	1525	1525	1525	1525	1525	1525	1525	1525	1525	1532	1532	1539	1539	1546	1546	1553	1553	1546	1553	1553	1553	1553	1553	1553	1553	1553	1553	0	0	0	0	0	0	0	0	0	0	0	937	935	930	930	925	922	917	908	898	896	894	894	0	0	0	0	0	0	0	0	0	0	0	0	0	0	0	0	0	0	0	0	0	0	0	0	0	0	0	0	0	0	0	0	0	0	0	0	0	0	0	0	0	0	0	0	0	0
0	0	0	0	0	0	0	0	0	0	0	0	0	0	0	2443	2443	2443	2443	2426	2426	2426	2426	2426	2426	2443	2443	2460	2460	2460	2460	2460	2460	2460	2460	2460	2460	2460	2460	2443	2460	2443	2460	2443	2460	2460	2460	2443	2443	2426	2443	2443	2443	2443	2443	2443	2460	2460	2460	2460	2443	2443	2460	2460	2460	2460	2460	2460	2478	2460	2460	2460	2460	2460	2460	2460	2460	2460	2460	2460	2460	2460	2460	2460	2460	2460	2460	2460	2460	2460	2460	2460	2460	2496	2496	2496	2496	2496	2496	2496	2496	2478	2478	2460	2460	2478	2893	2845	2845	2869	2869	2869	2869	2869	2845	2845	2845	2845	2845	2845	2845	2845	2845	2845	3546	3546	3510	3510	3510	3510	3510	3510	3546	3546	3546	3546	3546	3546	3546	3546	3546	3546	3546	3546	3546	3546	3546	3546	3546	3546	3546	3546	3546	3546	3546	3546	3583	3583	3621	3621	3621	3621	3659	3659	3621	3621	3621	3621	3621	3583	3583	3583	3583	3583	3583	3621	3583	3583	3621	3621	3583	3621	3583	3583	3583	3583	3583	3583	3583	3583	3583	3583	3583	3583	3583	3583	3583	3546	3583	3583	3583	3583	3583	3583	3583	3583	3621	3621	3621	3621	3621	2822	2822	2822	2799	2799	2799	2777	2777	2777	2777	2777	2754	2754	2754	2754	2754	2733	2733	2711	2711	2711	2711	2711	2711	2711	2711	2711	2711	2711	2711	2690	2690	2690	2690	2711	2711	2711	2711	2711	2711	2733	2733	2733	2733	2733	2754	2754	2733	2754	2754	2754	2754	2754	2754	2754	2754	2754	2754	2754	2754	2754	2754	2754	2777	2777	2777	2799	2799	2822	2822	2822	2822	2822	2822	2822	2822	2822	2822	3698	3659	3698	3659	3659	3659	3659	3659	3659	3659	3659	3659	3659	3659	3659	3659	3659	3659	3659	3659	3659	3659	3659	3659	3659	3659	3698	3659	3659	3659	3698	3698	3698	3659	3659	3659	3659	3659	3659	3659	3659	3698	3698	3659	3659	3698	3659	3698	3659	3659	3698	3698	3659	3659	3659	3698	3698	3659	3659	3659	3698	3698	3659	3659	3698	3698	3698	3698	3698	3698	3698	3698	3698	3698	3698	3698	3698	3698	3659	3659	3659	3698	3698	3659	3698	3698	3698	3698	3659	3659	3659	3659	3659	3659	3698	3698	3698	3698	3738	3738	3738	3698	3698	3698	3698	3698	3698	3698	3698	3698	3698	3698	3698	3698	3698	3698	3698	3659	3659	3659	3659	3659	3659	3659	3698	3698	3698	3698	3698	3659	3659	3659	3659	3659	3621	3659	3659	3659	3659	3659	3698	3698	3698	3698	3698	3738	3698	3698	3659	3659	3659	3698	3698	3659	3659	3698	3659	3659	3659	3659	3659	3659	3659	3659	3659	3659	3659	3659	3659	3698	3659	3698	3698	3698	3698	3698	3698	3698	2039	2039	2015	2015	2015	2003	2003	1992	1980	1980	1969	1958	1947	1947	1936	1936	1925	1915	1915	1894	1894	1883	1883	1873	1863	1853	1853	1853	1843	1833	1824	1814	1814	1804	1795	1795	1786	1777	1768	1759	1750	1741	1732	1732	1723	1715	1706	1698	1690	1690	1681	1673	1673	1665	1657	1649	1641	1626	1618	1618	1611	1611	1603	1603	1596	1589	1589	1574	1567	1567	1560	1553	1546	1546	1532	1532	1525	1525	1525	1525	1525	1525	1525	1525	1525	1525	1532	1532	1546	1546	1546	1546	1553	1553	1546	1546	1553	1553	1553	1553	1553	1553	1560	1560	0	0	0	0	0	0	0	0	0	0	0	935	932	930	927	922	920	917	905	896	896	891	891	0	0	0	0	0	0	0	0	0	0	0	0	0	0	0	0	0	0	0	0	0	0	0	0	0	0	0	0	0	0	0	0	0	0	0	0	0	0	0	0	0	0	0	0	0	0
0	0	0	0	0	0	0	0	0	0	0	0	0	0	0	2460	2443	2443	2443	2443	2443	2426	2443	2426	2443	2443	2443	2460	2460	2460	2460	2460	2460	2460	2460	2460	2443	2443	2460	2443	2460	2443	2460	2443	2443	2443	2460	2443	2443	2426	2443	2443	2443	2443	2443	2443	2443	2460	2460	2460	2443	2460	2460	2460	2460	2460	2460	2460	2460	2460	2460	2460	2460	2460	2460	2460	2460	2460	2460	2460	2478	2460	2460	2460	2460	2460	2460	2460	2460	2460	2460	2460	2460	2460	2478	2496	2496	2496	2496	2496	2496	2496	2478	2460	2478	2478	2893	2893	2893	2893	2869	2893	2893	2893	2869	2869	2869	2869	2869	2869	2845	2845	2845	2845	2845	3546	3546	3546	3546	3510	3510	3510	3546	3546	3546	3546	3546	3546	3546	3546	3546	3546	3546	3546	3546	3546	3546	3546	3546	3546	3546	3546	3546	3546	3546	3546	3583	3583	3621	3621	3621	3621	3621	3621	3621	3621	3621	3621	3621	3621	3621	3583	3621	3583	3583	3583	3583	3583	3583	3583	3583	3583	3583	3583	3583	3583	3583	3583	3583	3583	3583	3583	3583	3583	3583	3583	3583	3583	3583	3621	3583	3583	3583	3583	3583	3583	3583	3583	3583	3621	2777	2799	2799	2799	2799	2777	2777	2777	2777	2777	2777	2754	2754	2754	2754	2754	2754	2733	2733	2711	2711	2711	2711	2711	2711	2711	2711	2711	2711	2711	2711	2690	2690	2690	2711	2711	2711	2711	2711	2711	2711	2733	2733	2733	2733	2754	2754	2754	2733	2733	2754	2754	2754	2754	2754	2754	2754	2754	2754	2754	2754	2754	2754	2777	2777	2777	2777	2799	2799	2822	2822	2822	2822	2822	2822	2822	2822	2799	2799	3698	3659	3698	3659	3659	3659	3659	3659	3659	3659	3659	3659	3659	3659	3659	3659	3659	3659	3659	3659	3659	3659	3659	3659	3659	3621	3659	3659	3659	3659	3698	3698	3698	3698	3659	3659	3659	3659	3659	3698	3698	3698	3698	3698	3698	3698	3659	3698	3659	3659	3698	3698	3659	3659	3659	3698	3698	3659	3659	3659	3698	3698	3659	3659	3698	3698	3698	3659	3659	3659	3698	3698	3659	3659	3698	3698	3698	3659	3659	3659	3659	3659	3659	3659	3698	3698	3698	3698	3698	3698	3698	3659	3659	3659	3698	3698	3698	3698	3698	3698	3698	3698	3698	3698	3698	3698	3698	3698	3698	3698	3698	3698	3698	3698	3698	3698	3659	3659	3659	3659	3659	3659	3659	3659	3659	3698	3698	3698	3698	3659	3659	3659	3659	3659	3659	3659	3659	3659	3659	3659	3698	3698	3698	3698	3698	3738	3698	3698	3698	3698	3698	3698	3698	3698	3698	3698	3659	3659	3659	3659	3659	3659	3659	3659	3659	3659	3659	3659	3659	3659	3659	3659	3659	3659	3698	3698	3738	2039	2027	2027	2015	2015	2015	2015	2003	1992	1980	1969	1969	1958	1947	1947	1936	1936	1925	1925	1915	1894	1894	1883	1883	1873	1873	1863	1853	1853	1843	1833	1824	1814	1814	1804	1795	1795	1786	1777	1777	1759	1759	1741	1741	1732	1723	1715	1706	1706	1698	1690	1681	1673	1673	1665	1657	1649	1641	1634	1618	1618	1611	1611	1603	1603	1596	1589	1589	1581	1567	1567	1560	1560	1553	1546	1539	1532	1525	1525	1525	1525	1525	1525	1519	1519	1525	1525	1532	1532	1539	1546	1546	1553	1553	1553	1546	1546	1553	1553	1553	1546	1553	1553	1553	1560	0	0	0	0	0	0	0	0	0	0	0	935	930	927	925	922	920	917	905	896	896	891	891	0	0	0	0	0	0	0	0	0	0	0	0	0	0	0	0	0	0	0	0	0	0	0	0	0	0	0	0	0	0	0	0	0	0	0	0	0	0	0	0	0	0	0	0	0	0
0	0	0	0	0	0	0	0	0	0	0	0	0	0	0	2443	2443	2443	2443	2426	2443	2426	2426	2426	2426	2443	2443	2460	2460	2478	2460	2478	2460	2460	2460	2460	2443	2443	2443	2443	2443	2443	2443	2443	2443	2443	2443	2443	2443	2426	2426	2426	2443	2443	2443	2443	2443	2460	2460	2460	2460	2443	2460	2460	2443	2460	2460	2460	2460	2460	2460	2460	2460	2460	2460	2460	2460	2478	2478	2478	2478	2460	2460	2460	2460	2460	2460	2460	2460	2460	2460	2460	2460	2460	2478	2496	2496	2496	2496	2496	2496	2478	2478	2460	2478	2478	2478	2917	2893	2893	2893	2893	2893	2893	2893	2893	2893	2893	2917	2893	2869	2869	2869	2893	2893	3583	3583	3546	3546	3510	3510	3546	3546	3546	3546	3546	3546	3546	3546	3546	3546	3546	3546	3546	3546	3546	3546	3546	3546	3546	3546	3546	3546	3546	3546	3546	3583	3583	3621	3621	3621	3621	3621	3621	3621	3621	3621	3621	3621	3621	3621	3583	3621	3583	3583	3583	3583	3583	3583	3583	3583	3583	3583	3583	3583	3583	3583	3583	3583	3583	3583	3583	3583	3583	3583	3583	3583	3583	3583	3621	3583	3583	3583	3583	3583	3583	3621	3583	3621	3621	2777	2777	2799	2799	2799	2777	2777	2777	2777	2777	2777	2754	2754	2754	2754	2754	2754	2733	2733	2711	2711	2711	2690	2690	2690	2690	2690	2711	2711	2711	2711	2711	2711	2711	2711	2711	2711	2711	2711	2711	2711	2711	2733	2733	2733	2733	2733	2754	2733	2754	2754	2754	2754	2754	2754	2754	2754	2754	2754	2754	2754	2754	2754	2777	2777	2777	2777	2777	2799	2799	2822	2822	2822	2822	2799	2822	2799	2799	2777	2777	3698	3698	3659	3659	3659	3659	3659	3621	3621	3621	3659	3659	3659	3659	3659	3659	3659	3659	3659	3659	3659	3659	3659	3659	3621	3659	3621	3621	3659	3659	3698	3698	3698	3698	3698	3698	3698	3659	3698	3698	3698	3698	3698	3698	3698	3659	3659	3659	3659	3659	3659	3659	3659	3659	3698	3698	3659	3659	3659	3698	3698	3698	3698	3698	3698	3698	3659	3698	3659	3698	3698	3659	3659	3698	3698	3659	3659	3659	3659	3659	3659	3659	3659	3659	3698	3698	3698	3659	3659	3659	3659	3659	3659	3659	3698	3698	3698	3698	3698	3698	3698	3698	3698	3738	3698	3698	3698	3698	3698	3698	3698	3698	3698	3698	3698	3659	3659	3659	3659	3659	3659	3659	3659	3659	3698	3698	3698	3698	3698	3698	3659	3659	3659	3659	3698	3659	3698	3698	3698	3698	3698	3738	3698	3698	3738	3698	3698	3698	3698	3698	3698	3698	3698	3698	3698	3659	3659	3659	3659	3659	3659	3659	3659	3659	3659	3659	3659	3659	3659	3621	3659	3659	3659	3659	3659	3659	3698	2027	2027	2027	2015	2015	2015	2003	2003	1992	1980	1969	1958	1947	1947	1936	1936	1925	1925	1915	1904	1894	1894	1883	1883	1873	1863	1853	1853	1843	1833	1824	1814	1814	1804	1795	1795	1786	1777	1768	1759	1759	1741	1741	1732	1723	1723	1706	1706	1698	1690	1681	1673	1673	1665	1657	1649	1641	1641	1626	1618	1611	1611	1603	1603	1596	1589	1581	1581	1567	1567	1560	1560	1553	1546	1539	1532	1532	1525	1525	1525	1525	1519	1519	1519	1519	1525	1525	1532	1539	1546	1546	1546	1553	1553	1546	1546	1546	1553	1553	1553	1553	1553	1553	0	0	0	0	0	0	0	0	0	953	953	942	935	932	930	927	925	920	917	903	894	894	891	891	0	0	0	0	0	0	0	0	0	0	0	0	0	0	0	0	0	0	0	0	0	0	0	0	0	0	0	0	0	0	0	0	0	0	0	0	0	0	0	0	0	0	0	0	0	0
0	0	0	0	0	0	0	0	0	0	0	0	0	0	0	2443	2443	2426	2426	2426	2426	2426	2426	2426	2426	2426	2443	2443	2460	2460	2460	2460	2460	2460	2460	2460	2443	2443	2443	2426	2426	2426	2426	2426	2443	2443	2443	2443	2443	2426	2426	2443	2443	2443	2443	2460	2460	2460	2460	2478	2460	2460	2460	2460	2460	2460	2460	2460	2478	2460	2460	2460	2460	2460	2460	2460	2460	2478	2478	2478	2478	2478	2460	2460	2460	2460	2443	2460	2460	2460	2460	2443	2460	2460	2478	2478	2478	2478	2496	2478	2478	2478	2478	2460	2478	2478	2478	2917	2917	2917	2917	2917	2917	2917	2917	2917	2917	2942	2917	2917	2893	2893	2893	2893	2893	2893	2893	3510	3510	3510	3510	3546	3546	3546	3546	3546	3546	3546	3546	3546	3546	3546	3546	3546	3546	3546	3546	3546	3546	3546	3546	3546	3546	3510	3546	3546	3546	3583	3621	3621	3621	3621	3621	3621	3621	3621	3621	3621	3621	3621	3621	3583	3621	3583	3583	3583	3583	3583	3583	3583	3583	3583	3583	3583	3583	3583	3583	3583	3583	3583	3583	3583	3583	3583	3583	3583	3583	3583	3583	3583	3583	3583	3583	3583	3583	3583	3621	3583	3621	3621	2777	2777	2799	2799	2777	2777	2777	2777	2777	2777	2777	2754	2754	2754	2754	2754	2754	2733	2733	2733	2711	2711	2711	2690	2690	2711	2711	2711	2711	2711	2711	2711	2711	2711	2711	2711	2690	2711	2711	2711	2711	2711	2733	2733	2733	2733	2733	2733	2733	2733	2754	2754	2754	2754	2754	2754	2754	2754	2754	2754	2754	2754	2754	2754	2754	2777	2777	2777	2799	2822	2822	2822	2822	2822	2799	2822	2799	2799	2777	2777	3698	3698	3659	3659	3659	3659	3621	3621	3621	3621	3621	3659	3659	3659	3659	3659	3659	3659	3659	3659	3621	3659	3621	3621	3621	3621	3659	3659	3659	3698	3659	3698	3659	3698	3698	3698	3698	3659	3698	3698	3698	3659	3659	3659	3659	3659	3659	3659	3659	3659	3659	3659	3659	3659	3659	3659	3659	3659	3659	3698	3698	3698	3698	3698	3698	3738	3698	3698	3698	3698	3698	3659	3659	3659	3659	3659	3659	3659	3659	3659	3659	3659	3659	3659	3698	3698	3659	3659	3659	3659	3659	3659	3659	3659	3659	3659	3659	3698	3698	3698	3698	3698	3698	3698	3698	3698	3698	3698	3698	3698	3698	3698	3698	3698	3698	3698	3659	3659	3659	3659	3659	3659	3659	3659	3659	3659	3698	3698	3659	3659	3659	3659	3659	3659	3698	3698	3698	3698	3698	3698	3698	3738	3698	3698	3698	3698	3698	3659	3659	3698	3698	3698	3659	3659	3659	3659	3659	3659	3659	3659	3659	3659	3659	3659	3659	3659	3659	3659	3621	3621	3621	3621	3621	3621	3659	3659	3698	2039	2027	2027	2027	2015	2015	2003	2003	1992	1980	1969	1958	1958	1947	1947	1936	1936	1925	1925	1915	1894	1894	1894	1883	1873	1873	1863	1853	1853	1843	1824	1814	1814	1804	1795	1795	1786	1777	1777	1759	1750	1741	1741	1732	1732	1723	1715	1706	1698	1690	1690	1681	1673	1665	1657	1649	1641	1641	1626	1618	1611	1611	1603	1603	1596	1589	1581	1581	1567	1567	1560	1560	1553	1546	1539	1532	1532	1525	1525	1525	1519	1519	1519	1519	1519	1525	1525	1532	1539	1539	1546	1546	1546	1546	1546	1546	1546	1553	1553	1553	1553	1553	0	0	0	0	0	0	0	0	958	955	953	950	945	942	932	927	925	922	920	915	903	891	894	889	889	0	0	0	0	0	0	0	0	0	0	0	0	0	0	0	0	0	0	0	0	0	0	0	0	0	0	0	0	0	0	0	0	0	0	0	0	0	0	0	0	0	0	0	0	0	0
0	0	0	0	0	0	0	0	0	0	0	0	0	0	0	2443	2426	2426	2426	2426	2426	2426	2426	2426	2426	2426	2426	2443	2443	2460	2443	2460	2443	2443	2460	2443	2443	2443	2443	2426	2426	2426	2426	2426	2426	2443	2443	2443	2426	2426	2426	2443	2443	2443	2443	2460	2460	2478	2460	2460	2460	2460	2460	2460	2460	2460	2460	2460	2460	2460	2460	2460	2460	2460	2460	2460	2460	2478	2478	2478	2478	2460	2460	2460	2460	2443	2443	2460	2460	2460	2460	2460	2460	2460	2478	2478	2478	2478	2478	2478	2478	2478	2478	2478	2478	2478	2478	2917	2917	2917	2917	2942	2942	2942	2942	2942	2942	2942	2942	2917	2917	2893	2942	2942	2942	2967	2993	2993	2993	3546	3546	3546	3546	3546	3546	3546	3546	3546	3546	3546	3510	3510	3546	3546	3546	3546	3546	3510	3546	3546	3546	3546	3546	3546	3546	3546	3546	3546	3583	3583	3621	3621	3621	3621	3621	3621	3621	3621	3621	3621	3621	3621	3621	3621	3583	3583	3583	3583	3583	3583	3583	3583	3583	3583	3583	3583	3583	3583	3583	3583	3546	3546	3583	3583	3583	3583	3583	3583	3583	3583	3583	3583	3583	3583	3621	3621	3621	3621	3621	3659	2799	2777	2799	2777	2777	2777	2777	2777	2777	2754	2754	2754	2754	2754	2754	2733	2733	2733	2733	2733	2711	2711	2711	2690	2690	2690	2711	2711	2711	2711	2711	2711	2711	2711	2711	2711	2711	2711	2711	2711	2711	2711	2711	2711	2733	2733	2733	2733	2733	2733	2733	2754	2733	2754	2754	2754	2754	2754	2754	2754	2754	2754	2754	2754	2777	2777	2777	2777	2799	2822	2822	2822	2799	2799	2799	2799	2777	2777	2777	2777	3698	3698	3698	3659	3659	3659	3659	3621	3621	3621	3621	3659	3659	3659	3659	3659	3659	3659	3659	3659	3621	3659	3659	3659	3621	3659	3659	3659	3659	3698	3698	3698	3698	3698	3698	3698	3698	3698	3698	3698	3698	3659	3659	3659	3659	3659	3659	3659	3659	3659	3659	3659	3659	3659	3659	3659	3659	3659	3659	3698	3698	3698	3698	3698	3698	3738	3698	3698	3698	3698	3698	3659	3659	3659	3659	3659	3659	3659	3659	3659	3659	3659	3659	3659	3698	3698	3659	3659	3659	3659	3659	3659	3659	3659	3659	3659	3659	3698	3698	3698	3698	3698	3698	3698	3698	3698	3659	3659	3659	3698	3698	3659	3698	3698	3698	3698	3698	3698	3659	3659	3659	3659	3659	3659	3659	3659	3659	3698	3698	3659	3659	3659	3659	3659	3698	3698	3698	3698	3698	3698	3698	3698	3698	3698	3698	3698	3698	3659	3659	3659	3698	3659	3659	3659	3659	3659	3659	3659	3659	3659	3659	3659	3659	3659	3659	3659	3659	3621	3621	3621	3621	3621	3621	3621	0	0	0	2039	2039	2027	2027	2027	2015	2015	2003	1992	1992	1969	1969	1958	1947	1947	1936	1936	1925	1925	1915	1894	1894	1894	1883	1883	1873	1863	1853	1843	1833	1824	1814	1804	1804	1795	1795	1786	1777	1777	1759	1759	1741	1741	1732	1723	1723	1715	1706	1698	1690	1681	1681	1673	1665	1657	1649	1641	1634	1626	1618	1611	1611	1603	1603	1596	1589	1589	1581	1567	1567	1560	1560	1553	1546	1539	1532	1525	1525	1525	1525	1519	1519	1519	1519	1519	1525	1525	1532	1539	1539	1546	1546	1546	1546	1546	1539	1539	1546	1553	1553	1553	0	0	0	0	0	0	0	963	958	955	955	953	950	945	932	930	925	922	920	917	915	905	896	894	891	891	0	0	0	0	0	0	0	0	0	0	0	0	0	0	0	0	0	0	0	0	0	0	0	0	0	0	0	0	0	0	0	0	0	0	0	0	0	0	0	0	0	0	0	0	0	0
0	0	0	0	0	0	0	0	0	0	0	0	0	0	0	2443	2426	2426	2426	2426	2426	2426	2426	2443	2443	2443	2443	2443	2443	2443	2443	2443	2443	2443	2443	2443	2443	2443	2443	2426	2426	2426	2426	2426	2426	2426	2443	2426	2426	2426	2426	2443	2443	2443	2443	2460	2460	2478	2460	2478	2460	2460	2460	2460	2460	2460	2460	2460	2460	2460	2460	2460	2460	2460	2460	2460	2460	2478	2478	2478	2478	2460	2460	2460	2460	2443	2443	2443	2443	2460	2443	2443	2460	2460	2478	2478	2460	2478	2478	2478	2478	2478	2478	2460	2478	2478	2478	2967	2942	2942	2942	2942	2942	2942	2942	2942	2967	2967	2942	2942	2942	2942	2967	2942	2967	2993	3019	3019	3019	3019	3019	3546	3546	3546	3546	3546	3546	3546	3546	3546	3510	3510	3546	3510	3510	3510	3546	3510	3546	3546	3546	3546	3546	3546	3546	3546	3546	3546	3583	3583	3621	3621	3621	3621	3621	3583	3583	3621	3583	3621	3621	3621	3621	3621	3583	3583	3583	3583	3583	3546	3546	3583	3583	3583	3583	3583	3583	3583	3583	3546	3546	3583	3583	3583	3583	3583	3583	3583	3583	3583	3583	3583	3583	3583	3621	3621	3621	3621	3621	3698	2799	2777	2799	2799	2777	2777	2777	2777	2777	2754	2754	2754	2754	2754	2733	2733	2733	2733	2733	2733	2711	2711	2711	2690	2690	2711	2711	2711	2711	2711	2711	2711	2711	2711	2711	2711	2711	2711	2711	2711	2711	2733	2733	2733	2733	2733	2733	2733	2733	2754	2754	2754	2754	2754	2754	2754	2754	2754	2754	2754	2754	2754	2754	2754	2777	2777	2777	2777	2799	2799	2799	2799	2799	2799	2799	2799	2777	2777	2777	2777	3698	3659	3659	3659	3659	3621	3621	3621	3621	3621	3621	3621	3621	3659	3659	3621	3621	3659	3659	3698	3659	3659	3621	3659	3621	3659	3659	3659	3659	3698	3659	3698	3659	3698	3698	3698	3698	3659	3698	3698	3698	3659	3659	3659	3698	3659	3659	3659	3659	3659	3659	3659	3659	3659	3659	3659	3659	3659	3698	3698	3698	3698	3698	3698	3698	3698	3698	3698	3698	3659	3659	3659	3659	3659	3659	3659	3659	3659	3659	3659	3659	3659	3659	3659	3698	3659	3659	3659	3659	3659	3659	3659	3621	3659	3659	3659	3659	3659	3659	3659	3659	3659	3659	3698	3659	3659	3659	3659	3659	3659	3659	3659	3698	3698	3698	3698	3698	3659	3698	3659	3659	3698	3698	3659	3659	3659	3659	3659	3698	3659	3659	3659	3659	3659	3698	3698	3698	3698	3698	3698	3698	3698	3698	3698	3698	3698	3659	3659	3659	3659	3698	3698	3659	3659	3659	3659	3659	3659	3659	3659	3659	3659	3659	3659	3659	3659	3659	3659	3621	3621	3621	3621	3621	3621	0	0	0	2051	2039	2027	2027	2027	2015	2015	2015	2003	1992	1980	1969	1958	1947	1947	1936	1936	1936	1925	1915	1894	1894	1894	1883	1883	1883	1873	1853	1853	1843	1814	1814	1804	1804	1795	1795	1786	1777	1777	1768	1759	1750	1741	1732	1723	1723	1715	1706	1698	1690	1690	1681	1673	1665	1657	1649	1641	1634	1626	1618	1611	1611	1603	1603	1596	1589	1581	1581	1567	1560	1560	1553	1553	1546	1539	1532	1525	1525	1525	1519	1519	1512	1512	1512	1519	1525	1525	1532	1539	1539	1546	1546	1546	1546	1539	1539	1532	1546	1546	1546	0	0	0	0	0	0	972	969	963	958	958	955	953	950	945	930	930	925	922	920	917	915	910	896	896	894	894	0	0	0	0	0	0	0	0	0	0	0	0	0	0	0	0	0	0	0	0	0	0	0	0	0	0	0	0	0	0	0	0	0	0	0	0	0	0	0	0	0	0	0	0	0	0
0	0	0	0	0	0	0	0	0	0	0	0	0	0	0	2426	2426	2426	2426	2426	2426	2426	2426	2443	2443	2443	2443	2443	2443	2443	2443	2443	2443	2443	2443	2426	2426	2426	2443	2426	2426	2426	2426	2426	2426	2426	2443	2426	2426	2426	2426	2426	2443	2443	2443	2443	2460	2460	2460	2460	2460	2460	2460	2443	2443	2460	2443	2460	2460	2460	2460	2460	2460	2460	2460	2460	2460	2478	2478	2478	2478	2478	2460	2460	2460	2443	2443	2443	2443	2460	2443	2443	2443	2443	2478	2460	2460	2460	2478	2460	2478	2478	2478	2478	2478	2496	2967	2967	2942	2942	2967	2967	2967	2967	2967	2967	2993	2967	2967	2967	2967	2967	2967	2967	2967	2993	3019	3046	3046	3046	3046	3046	3546	3546	3546	3546	3546	3546	3546	3546	3546	3510	3546	3546	3546	3510	3546	3510	3510	3546	3546	3510	3546	3510	3546	3546	3546	3546	3583	3583	3583	3621	3621	3621	3583	3583	3621	3621	3621	3621	3621	3621	3621	3621	3583	3583	3583	3583	3583	3583	3583	3583	3583	3583	3583	3583	3546	3583	3583	3583	3583	3583	3583	3583	3583	3583	3583	3583	3546	3583	3583	3583	3583	3583	3621	3621	3621	3621	3621	2799	2799	2799	2799	2799	2777	2777	2777	2777	2777	2777	2754	2754	2733	2733	2733	2733	2733	2733	2733	2733	2711	2711	2711	2690	2690	2690	2690	2711	2711	2711	2711	2711	2711	2711	2711	2711	2711	2711	2711	2711	2711	2733	2733	2733	2733	2733	2733	2733	2733	2733	2733	2754	2733	2754	2754	2754	2754	2754	2754	2754	2754	2754	2754	2754	2754	2777	2777	2777	2777	2799	2799	2799	2799	2799	2799	2799	2777	2777	2777	2777	3659	3659	3659	3621	3621	3621	3621	3621	3621	3621	3621	3621	3621	3659	3659	3621	3659	3659	3659	3659	3621	3659	3659	3659	3621	3659	3621	3659	3621	3659	3659	3659	3659	3659	3698	3698	3698	3659	3659	3659	3698	3659	3659	3659	3659	3659	3659	3698	3659	3659	3659	3659	3659	3659	3659	3659	3659	3659	3698	3698	3659	3659	3659	3659	3659	3698	3659	3698	3698	3659	3698	3659	3659	3659	3659	3659	3659	3659	3659	3659	3659	3659	3659	3659	3698	3698	3659	3659	3659	3659	3659	3659	3659	3659	3659	3659	3659	3659	3659	3659	3659	3659	3659	3659	3659	3659	3659	3659	3659	3659	3659	3659	3659	3659	3659	3659	3698	3659	3698	3659	3659	3698	3659	3659	3659	3659	3659	3659	3698	3659	3659	3659	3659	3659	3698	3698	3698	3698	3698	3698	3698	3698	3698	3659	3659	3659	3659	3659	3659	3659	3659	3659	3659	3659	3659	3659	3659	3659	3659	3659	3659	3659	3659	3659	3659	3659	3659	3621	3621	3621	3621	3621	3621	0	0	0	0	2063	2039	2039	2027	2027	2027	2015	2015	2003	2003	1992	1969	1969	1958	1958	1947	1936	1936	1925	1915	1894	1894	1894	1883	1883	1883	1873	1863	1853	1833	1814	1814	1804	1804	1795	1795	1786	1777	1777	1759	1759	1750	1741	1732	1732	1723	1715	1706	1698	1690	1681	1681	1665	1665	1657	1649	1641	1634	1634	1618	1611	1603	1603	1603	1596	1589	1581	1581	1574	1560	1560	1553	1553	1546	1539	1532	1525	1525	1525	1519	1519	1512	1512	1512	1519	1525	1532	1532	1539	1539	1546	1546	1546	1546	1546	1539	1539	1546	1546	1546	0	0	0	0	0	0	972	963	963	958	958	955	953	950	945	932	930	927	922	920	917	915	910	898	896	894	894	0	0	0	0	0	0	0	0	0	0	0	0	0	0	0	0	0	0	0	0	0	0	0	0	0	0	0	0	0	0	0	0	0	0	0	0	0	0	0	0	0	0	0	0	0	0
0	0	0	0	0	0	0	0	0	0	0	0	0	0	0	2426	2426	2426	2426	2426	2426	2426	2426	2443	2443	2443	2443	2443	2443	2443	2426	2443	2443	2443	2443	2426	2426	2426	2426	2426	2426	2426	2426	2426	2426	2426	2426	2426	2426	2426	2443	2443	2443	2443	2443	2443	2460	2460	2443	2443	2443	2460	2443	2443	2443	2443	2443	2460	2460	2443	2443	2460	2460	2443	2460	2443	2460	2460	2478	2478	2478	2478	2478	2460	2460	2443	2443	2443	2443	2460	2443	2443	2443	2460	2478	2460	2460	2460	2460	2460	2460	2460	2460	2478	2478	2993	2967	2993	2967	2942	2993	3019	2993	2993	2993	2993	3019	2993	2967	2967	2967	2967	2967	2967	2993	3019	3019	3046	3046	3046	3046	3046	3046	3546	3546	3546	3546	3546	3546	3546	3546	3510	3546	3546	3510	3510	3510	3510	3510	3546	3510	3510	3510	3510	3546	3546	3546	3546	3621	3621	3621	3621	3621	3583	3583	3583	3583	3621	3621	3621	3621	3621	3621	3621	3583	3583	3583	3583	3583	3583	3546	3546	3583	3583	3583	3546	3546	3583	3583	3583	3583	3583	3583	3583	3583	3583	3583	3583	3546	3583	3583	3583	3583	3583	3621	3583	3621	3621	3621	3621	2799	2799	2799	2799	2777	2777	2777	2777	2777	2777	2754	2733	2733	2733	2733	2733	2733	2733	2711	2733	2711	2711	2711	2690	2690	2690	2690	2711	2711	2711	2711	2711	2711	2711	2711	2711	2711	2711	2711	2711	2711	2733	2733	2733	2733	2733	2733	2754	2733	2754	2733	2754	2733	2754	2754	2754	2754	2754	2754	2754	2754	2754	2754	2777	2777	2777	2777	2777	2777	2799	2799	2799	2777	2799	2777	2799	2777	2777	2777	2777	3659	3659	3659	3659	3621	3621	3621	3621	3621	3659	3659	3659	3659	3659	3659	3621	3659	3659	3659	3659	3659	3621	3659	3659	3621	3659	3659	3659	3659	3659	3659	3659	3659	3659	3698	3659	3698	3659	3659	3659	3659	3659	3659	3659	3659	3659	3659	3698	3659	3659	3659	3621	3621	3621	3621	3621	3621	3659	3659	3659	3659	3659	3659	3659	3659	3698	3698	3698	3698	3698	3698	3659	3659	3659	3659	3659	3659	3659	3659	3659	3659	3659	3659	3659	3659	3698	3659	3659	3659	3659	3659	3659	3659	3659	3659	3659	3659	3659	3621	3659	3659	3659	3659	3659	3621	3659	3659	3659	3659	3659	3659	3698	3698	3659	3659	3659	3698	3659	3659	3659	3698	3698	3698	3659	3698	3659	3659	3659	3698	3659	3659	3659	3621	3621	3659	3659	3659	3698	3698	3698	3698	3698	3698	3659	3659	3659	3659	3659	3659	3659	3659	3659	3659	3659	3659	3659	3659	3659	3659	3659	3659	3659	3659	3659	3659	3659	3659	3621	3621	3621	3621	3659	3659	0	0	0	2076	2076	2063	2039	2039	2027	2027	2027	2015	2015	2003	2003	1980	1969	1958	1958	1947	1947	1936	1925	1915	1894	1904	1894	1894	1883	1883	1873	1863	1853	1833	1814	1814	1804	1804	1795	1795	1786	1777	1777	1759	1750	1750	1741	1732	1732	1723	1715	1706	1698	1690	1681	1681	1665	1665	1657	1649	1641	1641	1634	1618	1611	1611	1603	1611	1603	1596	1589	1581	1574	1560	1560	1560	1553	1546	1539	1532	1532	1525	1525	1519	1512	1512	1512	1512	1519	1525	1532	1532	1539	1539	1546	1546	1546	1539	1539	1539	1532	1532	1546	1546	0	0	0	0	0	988	985	977	966	958	958	955	953	950	945	935	930	927	922	920	915	913	908	901	898	896	896	0	0	0	0	0	0	0	0	0	0	0	0	0	0	0	0	0	0	0	0	0	0	0	0	0	0	0	0	0	0	0	0	0	0	0	0	0	0	0	0	0	0	0	0	0	0
0	0	0	0	0	0	0	0	0	0	0	0	0	0	0	2426	2426	2426	2426	2409	2426	2426	2426	2426	2426	2426	2426	2443	2426	2426	2426	2426	2426	2443	2426	2426	2426	2426	2426	2426	2426	2426	2426	2426	2426	2426	2426	2443	2443	2426	2443	2443	2443	2443	2443	2443	2460	2478	2460	2460	2460	2478	2460	2443	2443	2443	2443	2443	2443	2443	2443	2460	2460	2443	2443	2443	2460	2460	2478	2460	2478	2478	2478	2460	2460	2460	2443	2460	2443	2460	2443	2443	2443	2460	2460	2460	2460	2460	2460	2460	2478	2478	2478	2478	2478	2478	2967	2993	2967	2967	3019	3019	3019	3019	3019	3019	3019	3019	2993	2993	2993	2967	2993	2993	2993	3019	3019	3046	3046	3046	3046	3046	3046	3046	3546	3546	3546	3546	3546	3546	3546	3510	3546	3546	3510	3510	3510	3510	3510	3510	3510	3510	3510	3546	3546	3546	3546	3583	3621	3621	3621	3621	3621	3621	3583	3583	3583	3583	3583	3583	3621	3621	3621	3621	3621	3583	3583	3583	3583	3583	3583	3583	3583	3583	3583	3583	3583	3583	3583	3583	3583	3583	3583	3583	3583	3583	3583	3583	3546	3546	3546	3546	3583	3583	3583	3583	3621	3621	3621	3621	2799	2799	2799	2799	2777	2777	2777	2777	2777	2754	2754	2733	2733	2733	2733	2733	2733	2733	2711	2711	2711	2711	2711	2690	2711	2711	2711	2711	2711	2711	2711	2733	2711	2711	2711	2711	2711	2711	2711	2711	2711	2733	2733	2733	2733	2733	2733	2754	2733	2754	2733	2733	2733	2754	2754	2754	2754	2754	2754	2754	2754	2754	2754	2754	2754	2777	2777	2777	2799	2799	2799	2799	2799	2799	2799	2799	2777	2777	2777	3621	3659	3659	3659	3659	3621	3621	3621	3621	3659	3659	3659	3659	3659	3659	3659	3621	3621	3659	3621	3659	3659	3659	3659	3659	3621	3659	3659	3698	3659	3659	3659	3659	3659	3659	3659	3659	3659	3659	3659	3659	3659	3659	3659	3659	3659	3659	3698	3698	3659	3659	3659	3621	3621	3621	3621	3621	3621	3659	3659	3659	3659	3659	3659	3659	3659	3698	3659	3698	3698	3698	3659	3698	3659	3659	3659	3659	3659	3659	3621	3621	3659	3621	3659	3659	3659	3659	3659	3659	3659	3659	3659	3659	3659	3659	3659	3659	3659	3659	3621	3659	3659	3659	3659	3659	3621	3621	3659	3659	3659	3659	3659	3698	3698	3659	3659	3698	3698	3698	3698	3659	3659	3698	3659	3659	3659	3659	3659	3659	3659	3659	3659	3621	3621	3621	3659	3659	3659	3659	3698	3698	3698	3698	3698	3659	3659	3659	3659	3659	3659	3659	3659	3659	3659	3659	3659	3659	3659	3659	3659	3659	3659	3659	3659	3659	3659	3659	3659	3659	3659	3659	3659	3659	3659	0	0	2076	2076	2076	2063	2051	2039	2027	2027	2027	2015	2015	2003	2003	1980	1969	1969	1958	1947	1947	1936	1936	1925	1915	1904	1894	1894	1883	1883	1873	1863	1853	1843	1814	1814	1804	1804	1795	1795	1786	1777	1768	1768	1750	1741	1741	1732	1732	1723	1715	1706	1698	1681	1681	1673	1665	1665	1657	1649	1641	1641	1634	1618	1618	1611	1603	1611	1596	1596	1589	1581	1574	1567	1560	1560	1553	1553	1539	1532	1532	1525	1519	1519	1512	1512	1512	1512	1512	1525	1532	1532	1532	1539	1539	1539	1539	1539	1532	1532	1532	1532	0	0	0	0	0	0	994	991	988	980	966	958	955	955	953	950	945	942	932	927	922	920	915	913	908	901	898	898	898	0	0	0	0	0	0	0	0	0	0	0	0	0	0	0	0	0	0	0	0	0	0	0	0	0	0	0	0	0	0	0	0	0	0	0	0	0	0	0	0	0	0	0	0	0	0
0	0	0	0	0	0	0	0	0	0	0	0	0	0	0	2409	2426	2409	2409	2409	2426	2426	2426	2426	2426	2426	2426	2443	2426	2426	2426	2426	2426	2426	2426	2426	2426	2426	2426	2426	2426	2426	2426	2426	2426	2426	2426	2443	2443	2443	2443	2443	2443	2443	2443	2443	2443	2460	2443	2443	2443	2460	2460	2443	2426	2443	2443	2443	2443	2443	2443	2443	2443	2443	2443	2443	2460	2460	2478	2478	2478	2478	2478	2478	2460	2460	2443	2443	2443	2460	2443	2443	2443	2460	2478	2478	2460	2460	2460	2460	2478	2478	2478	2478	2478	2967	2993	3019	2993	3019	3046	3046	3019	3019	3046	3046	3046	3019	3019	2993	2993	2993	2993	2993	2993	3019	3019	3046	3046	3046	3046	3046	3046	3046	3046	3546	3546	3546	3546	3546	3546	3510	3546	3546	3510	3510	3510	3510	3510	3510	3510	3510	3510	3546	3546	3546	3546	3546	3621	3621	3583	3621	3621	3583	3583	3583	3583	3621	3583	3621	3659	3659	3621	3621	3621	3583	3583	3583	3546	3583	3546	3583	3583	3583	3583	3546	3583	3546	3583	3546	3583	3583	3583	3583	3583	3583	3583	3583	3546	3546	3546	3546	3546	3546	3583	3583	3621	3583	3583	3583	2799	2799	2799	2799	2777	2777	2777	2777	2777	2754	2754	2733	2733	2733	2733	2733	2733	2733	2711	2733	2711	2711	2711	2711	2711	2711	2711	2711	2711	2711	2711	2733	2711	2711	2711	2733	2711	2711	2711	2711	2711	2733	2733	2733	2733	2733	2733	2733	2733	2733	2733	2733	2733	2733	2754	2754	2754	2754	2754	2754	2754	2754	2754	2754	2754	2777	2754	2777	2799	2799	2799	2799	2799	2799	2799	2799	2799	2799	2799	3659	3659	3659	3659	3659	3621	3621	3659	3659	3659	3659	3659	3659	3659	3659	3659	3621	3621	3621	3621	3659	3621	3621	3659	3659	3621	3659	3659	3659	3659	3659	3659	3659	3659	3659	3659	3659	3698	3659	3659	3659	3659	3659	3659	3659	3659	3659	3659	3698	3659	3659	3659	3621	3621	3621	3621	3621	3621	3659	3659	3659	3659	3659	3659	3659	3659	3698	3698	3698	3698	3659	3659	3698	3659	3659	3659	3659	3659	3659	3621	3659	3659	3659	3659	3659	3659	3659	3659	3659	3659	3659	3659	3659	3659	3659	3659	3659	3659	3659	3621	3621	3659	3621	3621	3621	3621	3659	3659	3659	3659	3659	3659	3698	3698	3698	3659	3698	3698	3698	3698	3698	3659	3698	3659	3659	3659	3659	3659	3659	3659	3659	3621	3621	3621	3621	3659	3659	3698	3698	3698	3698	3698	3698	3698	3659	3659	3659	3659	3659	3659	3659	3659	3659	3659	3659	3659	3659	3659	3659	3659	3659	3659	3659	3659	3659	3659	3659	3659	3659	3659	3659	3659	3659	3659	0	0	2076	2076	2076	2063	2051	2039	2039	2027	2027	2015	2015	2015	2003	2003	1980	1969	1969	1958	1947	1936	1936	1925	1915	1904	1894	1894	1883	1883	1873	1863	1853	1843	1814	1814	1804	1804	1804	1795	1786	1777	1777	1768	1750	1741	1732	1723	1723	1723	1715	1706	1698	1681	1673	1673	1665	1665	1657	1649	1641	1634	1634	1618	1611	1611	1603	1611	1603	1596	1589	1581	1574	1567	1560	1553	1553	1546	1539	1532	1525	1525	1519	1519	1512	1512	1512	1512	1512	1525	1532	1532	1532	1532	1539	1532	1539	1532	1532	1532	1532	1532	0	0	0	0	0	0	994	994	985	983	966	961	958	955	953	950	945	942	935	930	922	920	915	910	905	901	901	898	898	0	0	0	0	0	0	0	0	0	0	0	0	0	0	0	0	0	0	0	0	0	0	0	0	0	0	0	0	0	0	0	0	0	0	0	0	0	0	0	0	0	0	0	0	0	0
