0	0	0	0	0	0	0	0	0	0	1268	1268	1272	1272	1277	1277	1282	1282	1287	1287	1291	1291	1301	1301	1306	1306	1311	1316	1326	1331	1336	1336	1342	1347	1347	1352	1352	1363	1363	1368	1374	1379	1385	1385	1390	1390	1396	1402	1407	1413	1419	1449	1461	1461	1467	1480	1486	1486	1486	1492	1492	1492	1492	1499	1499	1512	1519	1532	1539	1539	1546	1546	1546	1560	1560	1560	1567	1574	1581	1581	1596	1611	1611	1618	1618	1618	2392	2443	2478	2478	2460	2478	2478	2514	2514	2532	2532	2551	2551	2551	2551	2551	2551	2551	2551	2551	2551	2551	2570	2570	2570	2570	2589	2570	2570	2570	2570	2570	2570	2589	2609	2609	2589	2609	2589	2589	2589	2589	2570	2570	2551	2551	2551	2570	2570	2570	2570	2570	2570	2570	2570	2570	2551	2551	2551	2570	2570	2551	2551	2551	2551	2551	2551	2532	2532	2551	2551	2551	2551	2570	2570	2570	2551	2551	2532	2551	2532	2532	2514	2514	2532	2514	2514	2514	2532	2532	2514	2532	2532	2551	2551	2532	2532	2532	2551	2551	3046	3046	3046	3046	3019	3019	3019	3019	2993	2993	2993	3019	3019	3019	3019	3019	3019	3019	3019	3019	3046	3046	3019	3019	3583	3583	3583	3621	3621	3621	3583	3583	3583	3583	3546	3546	3546	3546	3546	3546	3546	3583	3583	3583	3583	3583	3621	3621	3621	3659	3621	3621	3659	3659	3659	3659	3659	3659	3659	3659	3659	3621	3621	3621	3621	3659	3659	3659	3698	3698	3698	3659	3659	3659	3659	3698	3698	3659	3659	3659	3659	3659	3659	3659	3659	3698	3698	3698	3659	3659	3659	3659	3621	3621	3621	3621	3621	3621	3621	3621	3621	3186	3186	3186	3157	3157	3157	3157	3157	3129	3129	3157	3157	3157	3157	3129	3129	3101	3101	3073	3073	3073	3046	3046	3046	3046	3046	3019	3019	3046	3046	3019	2993	2993	2993	2993	2993	2993	2993	2993	2993	2993	2993	2993	2993	2993	2993	2993	2993	2993	3019	3019	3019	3019	3019	3019	3019	3019	3046	3046	3046	3019	3019	0	0	0	0	0	3101	3101	3101	3101	3101	3101	3101	3101	3101	3101	3101	3583	3583	3583	3546	3583	3546	3546	3546	3546	3546	3546	3546	3583	3583	3583	3583	3583	3583	3583	3583	3583	3583	3621	3583	3546	3546	3583	3583	3546	3546	3546	3583	3583	3583	3546	3583	3546	3583	3583	3546	3546	3546	3546	3546	3546	3546	3546	3546	3546	3546	3546	3546	3546	3546	3546	3510	3546	3546	3546	3546	3546	3510	3546	3510	3510	3510	3510	3546	3510	3510	3510	3510	3510	3510	3510	3510	3510	3510	3510	3510	3546	3546	3546	3546	3510	3510	3546	3510	3510	3546	3510	3510	3510	3510	3510	3510	3510	3510	3510	3510	3510	3510	3510	3510	3510	3510	3510	3510	3510	3510	3510	3510	3510	3510	3510	3510	3510	3510	3510	3475	3510	3475	3475	3440	3475	3475	3510	3510	3510	3510	3510	3510	3510	3475	3440	3475	3475	3475	3440	3475	3475	3510	3475	3475	3475	3510	3510	3475	3475	3475	3475	3510	3510	3510	3510	3475	3510	3475	3475	3475	3510	3546	3546	3510	3510	3546	3546	3510	3510	3546	2140	2114	2101	2101	2088	2088	2076	2063	2051	2051	2051	2039	2039	2027	2027	2015	2003	1992	1992	1980	1969	1958	1958	1947	1947	1936	1925	1925	1904	1904	1894	1873	1873	1863	1863	1853	1833	1833	1833	1814	1814	1804	1804	1804	1786	1786	1777	1768	1768	1750	1732	1723	1723	1715	1698	1698	1698	1698	1690	1690	1681	1657	1649	1641	1641	1641	0	0	0	0	0	0	0	0	0	0	0	0	0	0	0	0	0	0	0	0	0	0	0	0	0	0	0	0	0	0	0	0	0	0	0	0	0	0	0
0	0	0	0	0	0	0	0	0	0	1268	1268	1268	1272	1277	1277	1282	1282	1287	1287	1296	1296	1301	1306	1306	1306	1311	1316	1321	1326	1331	1336	1342	1347	1352	1358	1358	1363	1368	1374	1379	1385	1385	1390	1390	1390	1396	1402	1407	1413	1419	1455	1455	1461	1461	1473	1480	1480	1486	1486	1486	1492	1492	1499	1506	1512	1519	1519	1532	1532	1532	1539	1539	1553	1560	1567	1567	1581	1581	1596	1596	1603	1603	1611	1611	1626	1626	0	2478	2478	2478	2460	2478	2496	2496	2514	2532	2532	2551	2551	2551	2551	2551	2551	2551	2551	2551	2570	2570	2570	2570	2589	2589	2570	2570	2570	2570	2570	2570	2589	2609	2609	2589	2609	2589	2589	2589	2589	2570	2570	2551	2551	2551	2570	2551	2570	2570	2570	2570	2570	2570	2570	2551	2551	2551	2551	2551	2551	2551	2551	2551	2551	2551	2532	2551	2551	2551	2551	2551	2570	2570	2570	2551	2551	2551	2551	2532	2532	2514	2514	2514	2514	2514	2514	2532	2532	2514	2532	2532	2551	2551	2532	2532	2551	2551	2551	3046	3046	3046	3046	3046	3046	3046	3046	3019	3019	3019	3046	3046	3019	3019	3019	3046	3046	3046	3046	3046	3046	3046	3046	3583	3583	3583	3621	3583	3583	3583	3583	3583	3546	3546	3546	3546	3546	3583	3546	3583	3583	3583	3583	3583	3583	3621	3621	3621	3659	3621	3621	3659	3659	3659	3659	3659	3659	3659	3659	3659	3621	3621	3621	3621	3659	3659	3659	3698	3698	3698	3698	3659	3659	3659	3698	3698	3659	3659	3659	3698	3659	3698	3698	3698	3698	3698	3698	3698	3659	3659	3621	3621	3621	3621	3621	3621	3621	3621	3583	3621	3186	3186	3157	3157	3157	3157	3129	3129	3129	3129	3157	3157	3157	3157	3129	3129	3101	3101	3073	3073	3046	3046	3046	3046	3046	3019	3019	3019	3046	3019	3019	2993	2993	2993	2993	2993	2993	2993	2993	2993	2993	2993	2993	2993	2993	2993	2993	2993	2993	2993	2993	2993	3019	3019	3019	3019	3019	3019	3019	3019	3019	3019	0	0	0	0	0	3101	3101	3101	3101	3101	3101	3101	3101	3101	3101	3101	3073	3546	3546	3546	3546	3546	3546	3546	3546	3546	3583	3583	3583	3583	3583	3583	3583	3583	3583	3583	3583	3583	3621	3621	3583	3583	3583	3583	3583	3583	3583	3546	3583	3583	3546	3583	3546	3583	3583	3546	3546	3546	3546	3546	3546	3546	3546	3546	3546	3546	3546	3546	3546	3510	3510	3510	3510	3510	3546	3510	3510	3510	3510	3510	3510	3510	3510	3510	3510	3510	3510	3510	3510	3510	3510	3510	3510	3510	3510	3510	3546	3546	3546	3546	3546	3510	3510	3510	3510	3546	3510	3510	3510	3510	3510	3510	3510	3510	3510	3510	3510	3510	3510	3510	3510	3510	3510	3510	3510	3510	3475	3510	3510	3510	3510	3510	3510	3510	3510	3475	3510	3510	3475	3475	3475	3475	3510	3510	3510	3510	3510	3510	3510	3475	3475	3475	3475	3475	3440	3475	3475	3475	3475	3475	3475	3510	3510	3475	3510	3510	3510	3510	3510	3510	3510	3510	3510	3510	3440	3510	3546	3546	3546	3546	3510	3546	3546	3510	2140	2140	2140	2114	2101	2101	2088	2088	2076	2063	2051	2051	2051	2039	2039	2039	2027	2015	2015	1992	1992	1980	1969	1958	1958	1947	1947	1936	1925	1925	1904	1904	1894	1883	1873	1863	1863	1853	1833	1833	1833	1833	1824	1814	1814	1804	1786	1777	1777	1768	1759	1750	1732	1732	1723	1715	1706	1698	1698	1698	1690	1690	1681	1657	1649	1641	1641	1641	0	0	0	0	0	0	0	0	0	0	0	0	0	0	0	0	0	0	0	0	0	0	0	0	0	0	0	0	0	0	0	0	0	0	0	0	0	0	0
0	0	0	0	0	0	0	0	0	0	1268	1268	1272	1277	1277	1282	1282	1282	1287	1287	1296	1296	1301	1306	1306	1306	1311	1316	1321	1326	1331	1336	1342	1347	1358	1358	1363	1368	1368	1374	1379	1385	1385	1390	1390	1390	1396	1402	1407	1413	1419	1455	1455	1461	1461	1467	1480	1480	1480	1486	1486	1486	1486	1492	1499	1506	1506	1519	1532	1532	1539	1539	1546	1546	1553	1567	1567	1581	1581	1589	1596	1603	1603	1611	1618	1626	1626	1626	0	2478	2460	2460	2460	2478	2478	2496	2514	2532	2551	2551	2551	2570	2570	2570	2551	2551	2551	2570	2570	2570	2570	2589	2570	2570	2570	2551	2570	2570	2570	2589	2589	2589	2589	2589	2589	2589	2589	2570	2570	2570	2570	2551	2551	2570	2551	2570	2570	2570	2570	2570	2570	2551	2551	2551	2551	2551	2551	2551	2551	2551	2551	2551	2551	2532	2551	2551	2551	2551	2551	2551	2570	2551	2551	2551	2551	2551	2532	2532	2514	2514	2514	2514	2514	2514	2532	2514	2514	2514	2532	2551	2532	2532	2532	2551	2551	2551	3129	3129	3073	3073	3046	3046	3046	3046	3046	3046	3046	3046	3046	3046	3046	3046	3046	3046	3046	3046	3101	3073	3046	3046	3046	3129	3129	3621	3546	3546	3546	3583	3583	3546	3546	3546	3546	3546	3546	3546	3583	3583	3583	3583	3583	3583	3621	3621	3621	3659	3621	3621	3659	3659	3659	3659	3659	3659	3659	3659	3659	3621	3621	3621	3621	3621	3659	3659	3698	3698	3698	3659	3659	3659	3659	3698	3698	3659	3659	3698	3698	3698	3659	3659	3698	3698	3698	3659	3659	3659	3659	3621	3621	3621	3621	3621	3621	3621	3621	3583	3621	3659	3186	3157	3157	3129	3129	3129	3129	3129	3129	3129	3157	3129	3129	3129	3101	3101	3073	3073	3073	3046	3046	3046	3046	3046	3019	3019	3019	3046	3019	3019	2993	2993	2993	2993	2993	2993	2993	2993	2993	2993	2993	2993	2993	2993	2993	2993	2993	2993	2993	2993	2993	3019	3019	3019	3019	3019	3019	3046	3046	3019	3019	3019	0	0	0	0	3101	3101	3101	3101	3101	3101	3101	3101	3073	3101	3073	3073	3546	3546	3546	3546	3546	3546	3510	3546	3546	3546	3583	3583	3583	3583	3583	3583	3583	3583	3583	3583	3621	3621	3621	3621	3621	3621	3621	3583	3583	3583	3546	3583	3583	3583	3583	3546	3583	3583	3546	3546	3546	3546	3546	3546	3546	3546	3546	3546	3546	3546	3546	3546	3546	3546	3510	3510	3510	3510	3510	3475	3475	3510	3510	3510	3510	3510	3510	3510	3510	3510	3510	3510	3510	3510	3510	3510	3546	3510	3510	3546	3546	3546	3546	3546	3546	3546	3546	3546	3546	3546	3546	3510	3510	3510	3510	3510	3510	3510	3510	3510	3510	3510	3510	3510	3510	3510	3510	3510	3510	3510	3510	3510	3510	3510	3510	3510	3510	3510	3475	3510	3475	3475	3475	3475	3475	3475	3510	3510	3510	3510	3510	3510	3440	3440	3440	3475	3475	3440	3475	3475	3475	3510	3475	3475	3510	3510	3510	3510	3510	3510	3510	3510	3510	3510	3510	3510	3510	3440	3440	3546	3546	3546	3510	3510	2153	2153	3510	2140	2140	2127	2114	2101	2101	2101	2088	2076	2063	2051	2051	2051	2051	2039	2039	2027	2015	2015	2003	1992	1980	1969	1958	1958	1958	1947	1947	1925	1915	1915	1904	1894	1883	1873	1863	1863	1853	1833	1833	1833	1833	1824	1814	1814	1804	1795	1786	1777	1768	1759	1732	1732	1732	1723	1706	1706	1698	1698	1698	1690	1690	1673	1657	1657	1649	1649	1649	0	0	0	0	0	0	0	0	0	0	0	0	0	0	0	0	0	0	0	0	0	0	0	0	0	0	0	0	0	0	0	0	0	0	0	0	0	0	0
0	0	0	0	0	0	0	0	0	0	1268	1272	1277	1282	1282	1282	1282	1287	1287	1287	1291	1296	1301	1306	1306	1306	1311	1316	1321	1326	1331	1336	1342	1352	1358	1363	1363	1368	1368	1374	1379	1385	1385	1390	1390	1396	1396	1402	1407	1413	1419	1419	1455	1461	1461	1467	1467	1467	1473	1480	1486	1486	1492	1492	1492	1506	1506	1519	1532	1532	1539	1539	1546	1553	1560	1567	1574	1581	1581	1596	1596	1603	1603	1611	1618	1626	1626	1634	1634	0	2460	2460	2460	2478	2478	2496	2514	2532	2532	2551	2551	2570	2570	2551	2551	2551	2551	2570	2570	2570	2570	2589	2589	2570	2570	2551	2570	2570	2551	2589	2589	2589	2589	2589	2589	2589	2570	2570	2570	2570	2570	2570	2551	2570	2551	2551	2570	2570	2570	2570	2551	2551	2551	2551	2551	2551	2551	2551	2551	2551	2551	2551	2551	2551	2551	2551	2551	2551	2551	2551	2551	2551	2551	2532	2551	2532	2532	2532	2532	2532	2532	2514	2514	2514	2532	2514	2514	2514	2532	2532	2532	2532	2532	2551	2551	2551	3129	3129	3101	3073	3073	3073	3073	3073	3073	3073	3073	3073	3073	3046	3046	3046	3046	3073	3073	3073	3101	3129	3129	3129	3129	3129	3129	3546	3546	3546	3546	3546	3583	3546	3546	3546	3546	3583	3583	3546	3583	3583	3583	3621	3583	3621	3621	3621	3659	3659	3621	3621	3659	3659	3659	3659	3659	3659	3659	3659	3659	3621	3621	3621	3621	3659	3659	3659	3698	3698	3659	3659	3659	3659	3659	3659	3698	3659	3659	3659	3659	3659	3659	3659	3698	3698	3659	3659	3698	3659	3659	3621	3621	3621	3621	3621	3621	3621	3621	3621	3659	3659	3157	3157	3157	3129	3129	3129	3129	3129	3129	3129	3129	3129	3129	3101	3101	3101	3073	3073	3073	3046	3046	3046	3019	3019	3019	3019	3019	3019	3019	3019	2993	2993	2993	2993	2993	2993	2993	2993	2993	2993	2993	2993	2993	2993	2993	2993	2993	2993	2993	2993	2993	2993	3019	3019	3019	3019	3019	3046	3046	3019	3019	3046	3046	0	0	0	3101	3101	3101	3101	3101	3101	3073	3101	3073	3073	3073	3583	3583	3546	3546	3546	3546	3546	3546	3546	3546	3583	3546	3583	3583	3583	3583	3583	3583	3583	3621	3583	3621	3621	3621	3621	3621	3621	3621	3583	3583	3583	3546	3583	3546	3583	3546	3546	3546	3546	3546	3546	3546	3546	3546	3546	3546	3546	3546	3583	3546	3546	3546	3546	3546	3546	3510	3510	3510	3510	3510	3475	3475	3475	3475	3475	3510	3510	3510	3510	3510	3510	3510	3510	3510	3510	3510	3510	3510	3510	3510	3546	3546	3546	3546	3546	3546	3546	3546	3546	3546	3510	3510	3510	3510	3510	3510	3510	3510	3510	3510	3510	3510	3510	3510	3510	3510	3475	3475	3475	3475	3475	3510	3510	3510	3475	3510	3475	3475	3510	3510	3510	3475	3475	3475	3475	3475	3510	3510	3510	3510	3510	3510	3510	3475	3440	3440	3475	3475	3440	3475	3475	3475	3510	3475	3475	3510	3510	3510	3510	3510	3510	3510	3510	3510	3510	3510	3510	3475	3440	3440	3546	3546	3546	3546	3546	2153	2153	2140	2140	2140	2127	2127	2101	2101	2101	2101	2088	2076	2063	2051	2051	2051	2039	2039	2027	2027	2015	2003	1992	1980	1969	1969	1958	1947	1947	1936	1936	1915	1904	1904	1894	1883	1873	1863	1863	1853	1843	1843	1833	1833	1824	1814	1804	1795	1786	1777	1777	1768	1759	1741	1732	1732	1723	1706	1706	1698	1698	1698	1690	1681	1673	1657	1657	1649	1641	1641	0	0	0	0	0	0	0	0	0	0	0	0	0	0	0	0	0	0	0	0	0	0	0	0	0	0	0	0	0	0	0	0	0	0	0	0	0	0	0
0	0	0	0	0	0	0	0	0	0	1272	1277	1282	1282	1282	1282	1287	1287	1287	1287	1296	1301	1306	1306	1306	1306	1311	1316	1321	1321	1326	1331	1342	1352	1358	1358	1363	1368	1374	1379	1379	1385	1390	1390	1390	1390	1396	1396	1413	1413	1437	1437	1455	1461	1461	1467	1467	1473	1473	1480	1486	1486	1492	1492	1499	1506	1512	1519	1525	1532	1532	1539	1546	1553	1560	1567	1567	1581	1589	1596	1596	1603	1611	1618	1626	1626	1634	1634	1649	1649	1657	1657	1665	1673	1673	1673	2514	2532	2532	2551	2551	2570	2570	2570	2551	2570	2570	2570	2570	2570	2570	2589	2589	2570	2570	2551	2551	2570	2551	2589	2589	2589	2570	2589	2589	2570	2570	2570	2551	2551	2551	2551	2551	2570	2551	2570	2570	2570	2570	2570	2551	2551	2551	2551	2551	2551	2551	2551	2551	2551	2551	2551	2551	2551	2551	2551	2551	2551	2551	2551	2551	2551	2551	2532	2532	2532	2532	2532	2532	2532	2532	2514	2514	2514	2532	2514	2514	2514	2514	2532	2532	2514	2532	2551	2551	3157	3157	3157	3129	3101	3101	3073	3101	3101	3101	3101	3101	3101	3101	3101	3073	3073	3101	3129	3129	3157	3129	3157	3129	3157	3129	3129	3186	3546	3546	3583	3583	3583	3583	3583	3546	3546	3546	3546	3546	3546	3583	3546	3621	3621	3621	3621	3621	3659	3659	3659	3621	3621	3659	3659	3659	3659	3659	3659	3659	3659	3659	3621	3621	3583	3621	3621	3659	3659	3659	3659	3659	3659	3659	3621	3621	3659	3659	3659	3659	3698	3698	3659	3659	3659	3698	3698	3659	3659	3659	3659	3659	3621	3621	3621	3621	3659	3659	3621	3621	3621	3659	3659	3157	3157	3157	3129	3129	3129	3129	3129	3129	3129	3129	3129	3129	3101	3101	3073	3073	3073	3046	3046	3046	3046	3019	3019	3019	3019	2993	2993	2993	2993	2993	2993	2993	2993	2993	2993	2993	2993	2993	2993	2993	2993	2993	2993	2993	2993	2993	2993	2993	2993	2993	2993	2993	3019	3019	3019	3019	3046	3046	3046	3046	3046	3046	0	0	0	3101	3073	3101	3101	3101	3073	3073	3073	3073	3073	3073	3583	3583	3546	3546	3546	3546	3546	3546	3546	3546	3546	3546	3583	3546	3546	3583	3583	3583	3583	3583	3583	3583	3621	3621	3621	3621	3621	3621	3621	3583	3583	3546	3546	3510	3546	3546	3546	3546	3546	3546	3546	3546	3546	3546	3546	3546	3546	3546	3583	3546	3546	3546	3510	3510	3510	3510	3510	3510	3510	3510	3510	3475	3475	3510	3510	3510	3510	3510	3510	3510	3510	3510	3510	3510	3510	3510	3510	3510	3510	3510	3546	3546	3546	3546	3546	3546	3546	3546	3546	3546	3510	3510	3510	3510	3510	3510	3510	3510	3510	3510	3510	3510	3510	3510	3510	3510	3475	3475	3510	3510	3475	3475	3475	3510	3510	3510	3475	3475	3510	3510	3510	3510	3475	3475	3475	3475	3510	3510	3510	3510	3510	3510	3475	3440	3440	3440	3440	3475	3440	3475	3475	3475	3475	3475	3475	3475	3510	3510	3510	3510	3546	3510	3510	3510	3510	3510	3510	3475	3440	3440	2266	2266	2252	2252	2252	2167	2153	2153	2140	2140	2140	2127	2114	2101	2101	2101	2101	2076	2076	2063	2051	2051	2051	2039	2027	2015	2015	2003	1992	1980	1969	1969	1958	1958	1947	1936	1925	1915	1915	1894	1894	1883	1873	1863	1863	1843	1833	1833	1833	1833	1824	1824	1804	1795	1786	1777	1768	1768	1750	1741	1732	1732	1723	1715	1715	1706	1698	1698	1690	1690	1665	1657	1649	1649	1641	1641	0	0	0	0	0	0	0	0	0	0	0	0	0	0	0	0	0	0	0	0	0	0	0	0	0	0	0	0	0	0	0	0	0	0	0	0	0	0	0
0	0	0	0	0	0	0	0	0	0	1277	1277	1282	1282	1282	1282	1282	1287	1287	1287	1296	1301	1306	1306	1311	1306	1311	1316	1321	1326	1331	1336	1342	1347	1358	1363	1368	1374	1374	1379	1379	1385	1385	1390	1390	1396	1402	1407	1413	1431	1443	1455	1461	1461	1461	1461	1467	1467	1473	1480	1486	1492	1492	1499	1499	1506	1512	1512	1519	1519	1525	1539	1553	1560	1567	1574	1581	1581	1589	1603	1603	1611	1611	1618	1626	1626	1634	1634	1641	1641	1657	1657	1665	1673	1673	1690	1690	1690	1690	2551	2551	2570	2570	2570	2551	2551	2570	2570	2570	2570	2570	2589	2570	2570	2551	2551	2551	2570	2551	2589	2589	2589	2570	2570	2570	2570	2570	2570	2551	2570	2570	2551	2570	2570	2570	2570	2570	2570	2570	2570	2570	2551	2551	2551	2551	2551	2551	2551	2551	2551	2551	2551	2551	2551	2551	2551	2551	2551	2551	2551	2551	2532	2532	2532	2532	2532	2532	2532	2532	2532	2532	2514	2514	2514	2532	2514	2514	2514	2514	2532	2532	2514	2532	2532	2532	3186	3186	3157	3157	3129	3129	3129	3129	3129	3129	3129	3157	3157	3157	3157	3157	3157	3157	3157	3157	3186	3186	3157	3186	3186	3157	3186	3186	3157	3583	3583	3546	3546	3583	3546	3546	3546	3546	3546	3546	3546	3583	3583	3621	3621	3621	3621	3659	3659	3659	3659	3621	3621	3659	3659	3659	3659	3659	3659	3659	3659	3659	3621	3621	3583	3621	3659	3659	3659	3659	3659	3659	3659	3659	3621	3659	3659	3659	3659	3659	3698	3698	3659	3659	3659	3659	3698	3659	3659	3659	3659	3659	3659	3659	3659	3659	3659	3659	3659	3659	3621	3659	3659	3157	3157	3157	3129	3129	3129	3129	3129	3129	3129	3129	3101	3101	3101	3073	3073	3073	3073	3046	3046	3046	3019	3019	2993	2993	2993	2993	2993	2993	2993	2993	2993	2993	2993	2993	2993	2993	2993	2993	2993	2993	2993	2993	2993	2993	2993	2993	2993	2993	2993	2993	2993	2993	3019	3019	3019	3019	3046	3046	3046	3046	3046	3046	0	0	0	0	3073	3073	3101	3101	3073	3073	3073	3046	3046	3073	3583	3583	3546	3546	3546	3546	3546	3546	3546	3546	3546	3546	3546	3546	3546	3583	3583	3546	3546	3546	3546	3583	3621	3621	3621	3621	3621	3621	3621	3583	3583	3546	3546	3510	3510	3546	3546	3546	3546	3546	3546	3546	3546	3546	3546	3583	3583	3546	3546	3546	3546	3546	3546	3546	3546	3546	3546	3510	3510	3510	3510	3475	3475	3510	3510	3510	3510	3510	3510	3510	3510	3510	3510	3510	3510	3510	3510	3510	3510	3510	3546	3546	3546	3546	3546	3546	3546	3510	3510	3510	3510	3510	3510	3510	3510	3510	3510	3510	3510	3510	3510	3510	3510	3510	3510	3510	3475	3475	3510	3510	3475	3475	3510	3510	3510	3510	3475	3475	3475	3475	3510	3475	3475	3475	3475	3475	3510	3510	3475	3510	3510	3510	3475	3475	3440	3440	3475	3440	3440	3440	3475	3475	3475	3475	3475	3510	3510	3510	3510	3510	3510	3510	3510	3510	3475	3475	3475	3475	3440	3440	2266	2266	2252	2252	2194	2167	2153	2153	2153	2140	2140	2127	2114	2101	2101	2101	2101	2088	2076	2076	2063	2051	2039	2039	2027	2015	2015	2003	1992	1992	1980	1969	1958	1958	1947	1947	1925	1915	1915	1904	1894	1883	1873	1863	1863	1853	1833	1833	1833	1833	1824	1814	1804	1795	1786	1777	1768	1768	1750	1741	1732	1732	1723	1715	1715	1706	1698	1698	1690	1681	1673	1665	1657	1641	1634	1634	0	0	0	0	0	0	0	0	0	0	0	0	0	0	0	0	0	0	0	0	0	0	0	0	0	0	0	0	0	0	0	0	0	0	0	0	0	0	0
0	0	0	0	0	0	0	0	0	0	1277	1277	1282	1282	1282	1282	1282	1287	1287	1287	1296	1301	1306	1311	1311	1311	1311	1321	1326	1326	1331	1336	1342	1352	1363	1363	1368	1368	1374	1379	1379	1385	1390	1396	1396	1402	1407	1407	1419	1431	1437	1443	1455	1455	1461	1461	1467	1467	1473	1480	1480	1486	1492	1499	1499	1506	1512	1512	1519	1519	1525	1532	1553	1553	1574	1589	1589	1589	1596	1603	1611	1618	1618	1626	1626	1626	1634	1641	1641	1641	1649	1657	1665	1673	1673	1690	1690	1698	1698	1698	1698	2570	2570	2570	2551	2551	2551	2570	2570	2570	2570	2570	2570	2551	2551	2551	2551	2551	2551	2551	2570	2570	2570	2570	2570	2570	2570	2570	2570	2570	2570	2570	2570	2570	2570	2570	2570	2570	2570	2570	2570	2551	2551	2551	2551	2551	2551	2551	2551	2551	2551	2551	2551	2551	2551	2551	2551	2551	2551	2551	2532	2532	2532	2532	2532	2514	2532	2532	2532	2532	2532	2514	2514	2514	2532	2532	2514	2514	2532	2532	2532	2514	2532	2532	2532	3186	3186	3186	3186	3157	3186	3186	3157	3157	3157	3157	3186	3157	3157	3157	3157	3186	3216	3186	3186	3216	3216	3216	3216	3216	3186	3186	3157	3157	3157	3546	3546	3546	3583	3546	3546	3546	3546	3546	3546	3546	3546	3583	3583	3583	3621	3621	3621	3621	3659	3659	3659	3621	3659	3659	3659	3659	3659	3659	3659	3659	3659	3621	3621	3583	3583	3659	3659	3659	3698	3698	3698	3659	3659	3659	3659	3659	3659	3659	3659	3659	3698	3659	3659	3659	3659	3659	3659	3659	3659	3659	3659	3659	3659	3659	3659	3659	3659	3621	3621	3621	3621	3157	3157	3157	3129	3129	3129	3129	3129	3129	3129	3129	3101	3101	3101	3073	3073	3073	3073	3046	3046	3046	3046	3019	2993	2993	2993	2993	2993	2993	2993	2993	2993	2993	2993	2993	2993	2993	2993	2993	2993	2993	2993	2993	2993	2993	2993	2993	2993	2993	2993	2993	2993	2993	2993	3019	3019	3019	3019	3046	3046	3046	3046	3046	3046	0	0	0	0	3046	3073	3073	3073	3073	3073	3073	3073	3046	3583	3583	3546	3583	3546	3546	3546	3546	3546	3546	3546	3546	3546	3546	3546	3546	3546	3546	3546	3546	3546	3546	3583	3621	3621	3621	3621	3621	3621	3583	3583	3546	3546	3510	3510	3510	3546	3546	3546	3546	3546	3546	3546	3546	3546	3510	3546	3546	3546	3583	3546	3546	3546	3546	3546	3546	3546	3546	3510	3510	3510	3510	3475	3475	3510	3510	3510	3510	3510	3510	3510	3510	3510	3510	3510	3510	3510	3510	3510	3510	3510	3546	3546	3546	3546	3546	3546	3510	3510	3510	3510	3510	3510	3510	3510	3510	3510	3510	3510	3510	3510	3510	3510	3510	3510	3510	3510	3510	3475	3510	3510	3510	3510	3510	3510	3510	3510	3475	3475	3475	3475	3510	3510	3475	3475	3475	3475	3475	3510	3475	3475	3475	3510	3475	3475	3475	3475	3475	3475	3475	3475	3475	3475	3475	3475	3475	3546	3510	3546	3510	3510	3510	3510	3510	3510	3475	3475	3475	3475	3440	3440	3510	2252	2252	2223	2194	2181	2167	2153	2153	2153	2140	2127	2114	2114	2114	2114	2101	2101	2088	2088	2076	2051	2039	2027	2027	2015	2015	2003	2003	1992	1980	1969	1958	1958	1947	1936	1925	1925	1915	1894	1894	1883	1873	1863	1863	1853	1833	1833	1833	1833	1824	1814	1804	1795	1786	1777	1768	1768	1759	1750	1732	1732	1723	1715	1715	1706	1698	1698	1690	1681	1673	1665	1657	1649	1641	1641	0	0	0	0	0	0	0	0	0	0	0	0	0	0	0	0	0	0	0	0	0	0	0	0	0	0	0	0	0	0	0	0	0	0	0	0	0	0	0
0	0	0	0	0	0	0	0	0	0	1272	1272	1282	1282	1287	1287	1287	1287	1287	1291	1296	1301	1306	1311	1311	1311	1311	1321	1321	1326	1331	1336	1342	1342	1363	1368	1368	1374	1374	1379	1379	1385	1385	1390	1396	1407	1407	1413	1419	1437	1437	1437	1449	1449	1455	1461	1467	1467	1473	1480	1486	1492	1492	1499	1499	1506	1512	1512	1519	1519	1525	1532	1546	1553	1574	1589	1596	1596	1603	1603	1611	1618	1618	1626	1626	1634	1634	1641	1641	1641	1657	1657	1665	1673	1681	1690	1698	1698	1706	1706	1706	1706	2570	2570	2551	2570	2570	2570	2570	2570	2570	2570	2551	2551	2551	2551	2551	2551	2551	2570	2570	2570	2570	2570	2570	2570	2570	2570	2589	2570	2570	2570	2570	2570	2570	2570	2570	2570	2570	2570	2570	2551	2551	2551	2551	2551	2551	2551	2551	2551	2551	2551	2551	2551	2551	2551	2551	2551	2551	2551	2532	2532	2532	2532	2532	2532	2532	2532	2532	2532	2532	2532	2532	2532	2532	2532	2532	2532	2514	2514	2514	2514	2514	2514	3186	3216	3216	3216	3216	3186	3216	3216	3186	3186	3186	3186	3216	3216	3186	3216	3216	3216	3246	3216	3216	3216	3216	3246	3216	3216	3216	3186	3186	3157	3157	3510	3510	3546	3583	3546	3546	3546	3546	3546	3583	3546	3546	3546	3583	3621	3621	3621	3659	3659	3659	3659	3659	3621	3621	3659	3659	3659	3659	3621	3621	3621	3621	3621	3621	3583	3621	3698	3698	3698	3698	3698	3698	3698	3659	3659	3659	3659	3659	3659	3659	3659	3659	3659	3659	3659	3659	3621	3621	3621	3659	3659	3659	3659	3659	3659	3659	3659	3621	3621	3621	3621	3583	3157	3157	3157	3129	3129	3129	3129	3129	3129	3129	3129	3101	3101	3073	3073	3046	3046	3046	3046	3046	3046	3046	3019	2993	2993	2993	2993	2967	2993	2993	2993	2993	2993	2993	2993	2993	2993	2993	2993	2993	2993	2993	2993	2993	2993	2993	2993	2993	2993	2993	2993	2993	2993	2993	2993	3019	3019	3019	3019	3046	3046	3046	3046	3046	0	0	0	0	3073	3073	3073	3073	3073	3073	3073	3073	3073	3583	3583	3583	3583	3546	3546	3546	3546	3546	3546	3546	3546	3546	3546	3546	3546	3583	3583	3583	3546	3546	3546	3583	3583	3583	3583	3621	3621	3621	3583	3583	3546	3546	3546	3546	3546	3546	3546	3546	3546	3546	3546	3546	3510	3546	3510	3546	3546	3546	3546	3546	3546	3546	3546	3546	3546	3546	3546	3546	3510	3510	3510	3475	3475	3510	3510	3510	3510	3510	3510	3510	3510	3510	3510	3475	3475	3510	3510	3510	3510	3510	3546	3546	3546	3546	3510	3510	3510	3510	3510	3510	3510	3510	3510	3510	3510	3510	3510	3510	3510	3510	3510	3510	3510	3510	3510	3510	3510	3510	3510	3510	3510	3510	3510	3510	3510	3510	3510	3510	3510	3510	3510	3510	3475	3475	3475	3475	3475	3475	3475	3475	3475	3475	3475	3475	3475	3475	3475	3475	3475	3475	3475	3475	3475	3475	3475	3510	3546	3510	3510	3510	3510	3510	3475	3475	3475	3510	3475	3475	3475	3475	3510	2252	2252	2237	2208	2194	2181	2167	2153	2153	2153	2140	2127	2114	2114	2114	2114	2101	2088	2088	2076	2051	2039	2039	2027	2015	2015	2003	2003	1992	1980	1969	1958	1947	1947	1936	1925	1915	1904	1894	1894	1883	1873	1873	1863	1853	1833	1843	1843	1833	1814	1814	1804	1795	1786	1777	1768	1768	1759	1759	1732	1732	1723	1715	1715	1706	1698	1698	1690	1681	1673	1665	1657	1649	1649	1649	0	0	0	0	0	0	0	0	0	0	0	0	0	0	0	0	0	0	0	0	0	0	0	0	0	0	0	0	0	0	0	0	0	0	0	0	0	0	0
0	0	0	0	0	0	0	0	0	0	1268	1268	1277	1282	1282	1287	1287	1287	1287	1291	1296	1296	1306	1306	1311	1311	1311	1321	1321	1326	1331	1342	1342	1352	1358	1363	1368	1374	1374	1379	1379	1385	1385	1396	1396	1407	1407	1413	1419	1431	1437	1437	1443	1449	1455	1461	1467	1473	1480	1486	1486	1492	1492	1492	1499	1499	1512	1512	1519	1519	1519	1525	1546	1553	1574	1589	1596	1596	1603	1611	1618	1618	1626	1626	1626	1634	1641	1649	1649	1649	1649	1657	1665	1673	1681	1690	1698	1698	1698	1706	1706	1706	1706	2570	2570	2570	2570	2570	2570	2570	2570	2570	2551	2551	2551	2551	2551	2551	2532	2570	2570	2551	2570	2551	2570	2570	2570	2570	2589	2570	2570	2570	2570	2570	2570	2570	2570	2570	2570	2570	2570	2570	2551	2551	2551	2551	2551	2551	2551	2551	2551	2551	2551	2551	2551	2551	2551	2551	2532	2532	2532	2532	2532	2532	2532	2532	2532	2532	2532	2532	2532	2514	2514	2514	2514	2514	2514	2514	2514	2514	2514	2514	2532	2532	2532	3216	3216	3216	3216	3216	3216	3216	3216	3216	3216	3246	3246	3246	3216	3216	3216	3246	3246	3246	3246	3246	3246	3246	3246	3246	3216	3216	3186	3186	3186	3186	3546	3546	3583	3546	3546	3546	3546	3546	3546	3546	3546	3546	3583	3621	3621	3621	3659	3659	3659	3659	3621	3621	3621	3621	3621	3621	3659	3621	3621	3621	3621	3621	3621	3621	3621	3698	3698	3698	3698	3698	3698	3698	3659	3659	3659	3659	3659	3659	3659	3659	3659	3659	3659	3659	3659	3621	3621	3621	3621	3659	3659	3659	3659	3659	3659	3659	3621	3621	3621	3583	3583	3129	3129	3157	3129	3129	3129	3129	3129	3129	3129	3101	3101	3073	3073	3046	3046	3046	3046	3046	3046	3046	3046	3019	3019	2993	2993	2993	2967	2993	2993	2993	2993	2993	2993	2993	2993	2993	2993	2993	2993	2993	2967	2993	2993	2993	2993	2993	2993	2993	2993	2993	2993	2993	2993	2993	2993	3019	3019	3019	3046	3046	3046	3046	3046	0	0	0	0	3073	3073	3073	3073	3073	3046	3073	3073	3073	3583	3583	3583	3583	3583	3583	3546	3546	3546	3546	3546	3546	3546	3546	3546	3546	3546	3546	3546	3546	3546	3546	3546	3546	3583	3583	3583	3583	3583	3583	3583	3546	3546	3546	3546	3510	3510	3546	3546	3546	3546	3546	3546	3510	3546	3510	3546	3546	3546	3546	3546	3546	3546	3546	3546	3546	3546	3546	3546	3546	3510	3510	3510	3475	3510	3510	3510	3510	3510	3510	3510	3510	3510	3510	3510	3510	3510	3510	3510	3510	3510	3546	3546	3510	3510	3510	3510	3510	3510	3510	3510	3510	3510	3510	3510	3510	3510	3510	3510	3510	3510	3510	3510	3510	3510	3510	3510	3510	3510	3510	3510	3510	3510	3510	3510	3510	3510	3510	3510	3475	3510	3510	3510	3475	3475	3475	3475	3475	3475	3440	3440	3440	3475	3475	3475	3475	3475	3475	3475	3475	3510	3475	3475	3475	3475	3475	3510	3510	3510	3510	3510	3510	3475	3475	3510	3475	3510	3475	3475	3475	3475	3475	3546	2252	2237	2208	2194	2181	2167	2167	2153	2153	2140	2140	2127	2127	2127	2127	2101	2088	2088	2076	2051	2051	2039	2039	2015	2015	2003	2003	1992	1980	1969	1958	1958	1947	1936	1925	1925	1915	1894	1894	1883	1873	1873	1863	1853	1843	1843	1833	1833	1814	1814	1804	1795	1786	1786	1777	1768	1759	1759	1750	1732	1723	1715	1715	1706	1698	1698	1690	1681	1673	1665	1657	1649	1649	1649	0	0	0	0	0	0	0	0	0	0	0	0	0	0	0	0	0	0	0	0	0	0	0	0	0	0	0	0	0	0	0	0	0	0	0	0	0	0	0
0	0	0	0	0	0	0	0	0	0	1268	1268	1277	1277	1277	1282	1282	1287	1287	1287	1296	1301	1306	1311	1311	1311	1316	1321	1321	1326	1331	1336	1342	1347	1352	1363	1368	1374	1374	1379	1379	1385	1390	1396	1402	1407	1413	1413	1419	1437	1437	1437	1443	1449	1455	1461	1467	1473	1480	1486	1486	1486	1492	1492	1499	1506	1512	1519	1519	1519	1519	1525	1539	1567	1589	1589	1589	1596	1603	1611	1618	1626	1626	1634	1634	1634	1641	1641	1649	1641	1649	1657	1665	1673	1681	1690	1690	1690	1698	1698	1698	1715	1723	1723	2570	2649	2589	2589	2589	2570	2570	2570	2551	2551	2551	2551	2551	2551	2532	2570	2570	2570	2570	2570	2570	2570	2570	2570	2589	2570	2570	2570	2570	2570	2570	2570	2570	2570	2570	2570	2570	2570	2551	2551	2551	2551	2551	2551	2551	2551	2551	2551	2551	2551	2551	2551	2551	2532	2532	2514	2514	2532	2532	2514	2532	2532	2532	2532	2532	2532	2532	2514	2514	2514	2514	2514	2514	2496	2514	2514	2514	2532	2532	2532	3186	3216	3246	3216	3216	3216	3216	3246	3246	3246	3246	3246	3277	3246	3246	3246	3246	3246	3246	3246	3246	3246	3246	3277	3277	3246	3246	3216	3246	3186	3186	3186	3186	3546	3546	3546	3583	3546	3546	3546	3546	3546	3546	3546	3583	3583	3583	3621	3621	3621	3621	3621	3621	3621	3621	3621	3621	3621	3621	3621	3621	3621	3621	3621	3621	3659	3621	3698	3698	3659	3698	3659	3698	3698	3659	3659	3659	3659	3659	3659	3659	3659	3659	3621	3621	3621	3621	3621	3621	3621	3621	3659	3659	3659	3659	3659	3659	3659	3621	3621	3583	3621	3621	3157	3157	3157	3129	3129	3129	3129	3129	3129	3129	3129	3101	3073	3073	3073	3046	3046	3046	3046	3046	3046	3046	3019	3019	2993	2993	2993	2967	2993	2993	2993	2993	2993	2993	2993	2993	2993	2993	2993	2967	2993	2967	2993	2993	2993	2993	2993	2993	2993	2993	2993	2993	2993	2993	2993	2993	2993	2993	2993	3046	3046	3046	3019	3019	0	0	0	0	0	3073	3073	3073	3073	3046	3046	3073	3073	3583	3583	3583	3583	3583	3583	3546	3546	3546	3546	3546	3546	3546	3546	3546	3510	3546	3546	3546	3546	3546	3546	3546	3583	3583	3583	3583	3583	3583	3583	3583	3546	3546	3546	3546	3510	3546	3546	3546	3546	3546	3546	3510	3510	3510	3510	3546	3546	3546	3546	3583	3546	3546	3546	3546	3546	3546	3546	3510	3510	3510	3510	3510	3475	3510	3510	3510	3510	3510	3510	3510	3510	3510	3510	3510	3510	3510	3510	3510	3510	3510	3510	3510	3510	3510	3510	3510	3510	3510	3510	3510	3510	3510	3510	3510	3510	3510	3510	3510	3510	3510	3510	3510	3510	3510	3510	3510	3510	3510	3510	3510	3510	3510	3510	3510	3510	3510	3510	3475	3475	3475	3475	3475	3475	3475	3475	3475	3475	3475	3440	3440	3440	3475	3475	3475	3475	3475	3475	3510	3510	3510	3510	3510	3510	3475	3475	3510	3510	3510	3510	3475	3475	3475	3475	3475	3510	3510	3475	3440	3475	3510	3510	3510	3510	2237	2208	2181	2181	2167	2153	2153	2153	2140	2140	2140	2127	2127	2114	2101	2101	2088	2076	2063	2051	2039	2039	2015	2015	2003	2003	1992	1980	1969	1958	1947	1947	1936	1915	1915	1904	1894	1894	1883	1873	1873	1863	1853	1843	1843	1833	1833	1824	1804	1795	1795	1786	1777	1768	1768	1759	1759	1750	1750	1723	1723	1715	1706	1698	1698	1690	1681	1673	1665	1665	1657	1649	1649	0	0	0	0	0	0	0	0	0	0	0	0	0	0	0	0	0	0	0	0	0	0	0	0	0	0	0	0	0	0	0	0	0	0	0	0	0	0	0
0	0	0	0	0	0	0	0	0	0	1263	1268	1272	1277	1277	1282	1287	1287	1287	1287	1296	1301	1306	1311	1311	1316	1321	1321	1321	1326	1331	1331	1336	1342	1347	1358	1363	1368	1374	1379	1379	1385	1390	1390	1407	1407	1413	1413	1419	1437	1437	1437	1443	1449	1455	1461	1467	1473	1480	1480	1486	1486	1492	1492	1499	1506	1519	1519	1519	1519	1525	1532	1539	1546	1574	1581	1581	1589	1603	1618	1618	1626	1634	1634	1641	1641	1649	1649	1649	1649	1657	1657	1665	1673	1673	1690	1698	1698	1698	1706	1715	1715	1723	1723	1732	1732	2589	2589	2589	2570	2570	2551	2551	2551	2551	2551	2551	2551	2551	2570	2551	2551	2570	2551	2570	2551	2570	2570	2589	2570	2570	2570	2570	2570	2551	2551	2570	2570	2570	2570	2570	2570	2570	2551	2551	2551	2551	2551	2551	2551	2551	2551	2551	2551	2551	2532	2532	2532	2532	2514	2514	2514	2514	2514	2514	2532	2532	2532	2514	2514	2532	2514	2514	2514	2514	2514	2514	2514	2514	2514	2514	2532	2551	2551	2551	3216	3246	3246	3246	3246	3246	3246	3246	3246	3277	3277	3277	3277	3277	3277	3277	3277	3277	3277	3246	3246	3277	3277	3277	3277	3246	3246	3246	3246	3246	3246	3277	3186	3510	3546	3546	3546	3546	3546	3546	3546	3546	3546	3546	3546	3583	3621	3621	3621	3621	3621	3621	3621	3583	3621	3583	3583	3621	3621	3583	3621	3621	3621	3621	3621	3621	3698	3659	3659	3659	3659	3659	3698	3698	3659	3659	3659	3659	3659	3659	3659	3659	3659	3659	3621	3621	3621	3621	3621	3621	3621	3659	3659	3659	3659	3659	3659	3621	3621	3583	3621	3129	3129	3129	3129	3129	3129	3129	3157	3157	3129	3129	3129	3101	3073	3073	3073	3046	3046	3046	3046	3046	3046	3019	3019	2993	2993	2993	2993	2967	2993	2993	2993	2993	2993	2993	2993	2993	2993	2993	2967	2967	2967	2967	2993	2967	2993	2993	2993	2967	2967	2967	2993	2967	2967	2967	2993	2993	2993	2993	3019	3046	3046	3046	3046	3046	3046	0	0	0	0	3073	3073	3073	3046	3046	3046	3046	3046	3583	3583	3583	3583	3583	3583	3546	3546	3546	3546	3546	3546	3546	3546	3510	3510	3546	3546	3546	3546	3510	3510	3510	3546	3546	3546	3546	3583	3583	3583	3583	3546	3546	3546	3546	3510	3546	3546	3546	3546	3546	3546	3510	3510	3510	3510	3510	3546	3546	3546	3546	3546	3546	3546	3546	3546	3546	3546	3510	3510	3510	3510	3510	3510	3510	3510	3510	3510	3510	3510	3510	3510	3510	3510	3510	3475	3475	3475	3510	3510	3510	3510	3510	3510	3510	3510	3510	3510	3510	3510	3510	3510	3510	3510	3510	3510	3510	3510	3510	3510	3510	3510	3510	3510	3510	3510	3510	3510	3510	3510	3510	3510	3510	3510	3510	3510	3510	3510	3475	3475	3475	3475	3475	3475	3475	3440	3440	3440	3440	3440	3440	3475	3475	3475	3475	3475	3475	3510	3510	3510	3510	3510	3510	3475	3475	3475	3510	3510	3510	3475	3475	3440	3440	3475	3475	3440	3510	3440	3440	3475	3510	3475	3475	3475	0	2194	2181	2181	2153	2153	2153	2153	2140	2140	2140	2127	2127	2114	2101	2101	2088	2076	2063	2051	2051	2039	2027	2015	2003	2003	1992	1980	1969	1958	1947	1936	1925	1915	1915	1904	1894	1894	1873	1873	1873	1863	1853	1843	1843	1833	1833	1824	1804	1795	1795	1786	1777	1768	1759	1759	1759	1750	1750	1723	1723	1715	1706	1698	1698	1690	1681	1673	1665	1665	1649	1649	1649	0	0	0	0	0	0	0	0	0	0	0	0	0	0	0	0	0	0	0	0	0	0	0	0	0	0	0	0	0	0	0	0	0	0	0	0	0	0	0
0	0	0	0	0	0	0	0	0	0	1263	1263	1272	1272	1277	1282	1287	1287	1287	1291	1301	1301	1306	1311	1316	1316	1321	1321	1326	1326	1331	1336	1336	1347	1352	1358	1363	1368	1374	1374	1379	1385	1390	1402	1407	1413	1413	1419	1419	1431	1437	1437	1443	1449	1455	1461	1467	1467	1473	1480	1480	1486	1486	1492	1492	1492	1512	1519	1519	1519	1525	1532	1539	1546	1567	1574	1574	1581	1589	1618	1626	1626	1634	1634	1641	1649	1649	1657	1657	1657	1673	1673	1681	1681	1681	1690	1698	1698	1698	1706	1715	1715	1723	1723	1732	1732	1732	2589	2609	2589	2570	2570	2551	2551	2570	2551	2551	2551	2551	2570	2570	2551	2570	2570	2570	2570	2570	2589	2589	2589	2570	2570	2570	2570	2551	2551	2570	2551	2570	2570	2570	2570	2570	2551	2551	2551	2551	2551	2551	2551	2551	2551	2551	2551	2551	2532	2532	2532	2514	2514	2514	2514	2514	2514	2532	2532	2532	2532	2532	2514	2514	2514	2496	2514	2496	2496	2496	2496	2514	2514	2514	2532	2532	2532	2532	3246	3246	3246	3246	3246	3246	3246	3277	3277	3277	3277	3277	3277	3277	3277	3277	3277	3277	3277	3277	3277	3277	3277	3309	3277	3277	3277	3277	3246	3246	3246	3277	3341	3475	3510	3510	3510	3546	3546	3546	3546	3546	3583	3583	3583	3583	3621	3621	3621	3621	3621	3621	3621	3583	3583	3583	3583	3583	3621	3583	3621	3621	3621	3621	3621	3621	3621	3698	3698	3698	3698	3698	3698	3698	3659	3659	3659	3659	3659	3659	3659	3659	3659	3659	3659	3659	3621	3621	3621	3621	3659	3659	3659	3659	3621	3621	3659	3621	3621	3583	3101	3129	3129	3101	3129	3129	3129	3129	3129	3129	3129	3129	3129	3101	3073	3073	3046	3046	3046	3046	3046	3046	3019	3019	2993	2993	2993	2993	2993	2967	2993	2993	2993	2993	2993	2993	2993	2993	2993	2993	2967	2967	2967	2967	2967	2967	2967	2967	2967	2967	2967	2967	2967	2967	2967	2967	2993	2993	2993	2993	2993	2993	3046	3046	3046	3046	3046	0	0	0	0	3073	3073	3073	3046	3046	3019	3019	3583	3583	3546	3583	3546	3583	3583	3583	3546	3546	3546	3546	3510	3510	3510	3510	3510	3546	3546	3546	3546	3546	3510	3510	3510	3546	3546	3546	3546	3583	3583	3546	3546	3546	3546	3546	3510	3510	3510	3546	3546	3546	3546	3510	3510	3510	3510	3510	3510	3546	3546	3546	3546	3546	3510	3510	3510	3510	3510	3510	3510	3510	3510	3510	3510	3510	3510	3510	3510	3510	3510	3510	3510	3510	3510	3510	3475	3510	3475	3510	3510	3510	3546	3510	3510	3510	3510	3510	3510	3510	3510	3510	3510	3510	3510	3510	3510	3510	3510	3510	3510	3510	3510	3510	3510	3510	3510	3510	3510	3510	3510	3510	3510	3510	3510	3510	3510	3510	3510	3475	3510	3475	3510	3510	3475	3440	3440	3440	3440	3440	3440	3440	3475	3475	3475	3475	3475	3475	3510	3510	3510	3510	3510	3510	3475	3475	3475	3475	3475	3475	3475	3475	3440	3440	3440	3475	3440	3510	3475	3475	3475	3510	3475	3475	3475	0	2194	2181	2181	2153	2153	2153	2153	2153	2140	2140	2140	2127	2114	2101	2101	2088	2076	2063	2051	2051	2039	2027	2027	2015	2003	2003	1980	1969	1958	1947	1936	1925	1925	1915	1915	1904	1883	1873	1873	1873	1863	1863	1853	1843	1843	1833	1824	1804	1795	1786	1786	1777	1768	1759	1759	1750	1732	1732	1723	1715	1706	1698	1698	1690	1690	1681	1673	1665	1665	1649	1649	1649	0	0	0	0	0	0	0	0	0	0	0	0	0	0	0	0	0	0	0	0	0	0	0	0	0	0	0	0	0	0	0	0	0	0	0	0	0	0	0
0	0	0	0	0	0	0	0	0	0	1263	1263	1268	1268	1272	1282	1287	1287	1287	1291	1296	1301	1306	1311	1316	1316	1321	1321	1326	1326	1331	1336	1342	1347	1352	1352	1358	1368	1368	1374	1379	1385	1390	1402	1407	1413	1413	1419	1425	1431	1437	1437	1443	1449	1455	1461	1467	1467	1473	1473	1480	1486	1486	1492	1492	1492	1506	1519	1519	1525	1525	1532	1546	1553	1567	1574	1567	1574	1574	1581	1589	1618	1626	1634	1641	1649	1665	1665	1665	1665	1681	1681	1681	1690	1690	1698	1698	1698	1706	1715	1715	1723	1723	1723	1732	1732	1732	1732	2609	2589	2589	2570	2570	2570	2570	2570	2570	2551	2551	2570	2570	2551	2570	2570	2570	2570	2570	2570	2589	2570	2570	2570	2570	2551	2551	2551	2551	2551	2551	2551	2570	2570	2570	2551	2551	2551	2551	2551	2551	2551	2551	2551	2551	2551	2532	2532	2532	2532	2514	2514	2514	2514	2514	2514	2532	2532	2532	2532	2514	2514	2514	2496	2496	2496	2496	2496	2496	2496	2514	2532	2514	2532	2532	2532	2532	3216	3246	3246	3246	3277	3246	3277	3277	3277	3309	3277	3277	3277	3277	3277	3277	3277	3277	3309	3309	3277	3277	3277	3309	3309	3309	3309	3277	3277	3277	3277	3277	3341	3406	3440	3510	3546	3546	3583	3583	3583	3583	3583	3546	3583	3583	3621	3621	3621	3621	3621	3621	3583	3583	3583	3583	3583	3583	3583	3583	3621	3621	3621	3621	3621	3621	3621	3659	3698	3698	3659	3698	3698	3698	3659	3659	3659	3659	3659	3659	3659	3698	3659	3659	3659	3659	3659	3621	3621	3621	3621	3621	3621	3621	3621	3659	3621	3621	3621	3621	3101	3101	3129	3129	3129	3101	3101	3129	3129	3129	3129	3101	3101	3101	3073	3073	3046	3046	3046	3046	3046	3046	3046	3019	3019	2993	2993	2993	2967	2967	2993	2993	2993	2993	2993	2993	2993	2993	2993	2967	2967	2967	2967	2967	2967	2993	2967	2967	2967	2967	2967	2967	2967	2967	2967	2967	2967	2993	2993	2993	2993	2993	3019	3019	3019	3019	3019	0	0	0	3046	3046	3073	3046	3046	3046	3046	3046	3621	3621	3583	3546	3583	3583	3583	3546	3546	3546	3546	3546	3546	3546	3546	3510	3546	3583	3546	3546	3546	3546	3546	3546	3546	3546	3546	3546	3546	3546	3546	3546	3546	3546	3546	3546	3510	3510	3546	3546	3546	3546	3546	3546	3546	3546	3510	3510	3510	3510	3546	3546	3546	3546	3510	3510	3510	3510	3510	3510	3510	3510	3510	3510	3510	3510	3475	3475	3475	3510	3510	3510	3510	3510	3510	3510	3510	3510	3510	3510	3510	3510	3546	3510	3510	3510	3510	3510	3510	3510	3510	3510	3510	3510	3510	3510	3510	3510	3510	3510	3510	3510	3510	3510	3510	3510	3510	3510	3510	3510	3510	3510	3510	3510	3510	3510	3510	3510	3510	3510	3510	3475	3475	3475	3475	3440	3440	3440	3440	3440	3440	3440	3440	3440	3475	3475	3475	3475	3510	3510	3510	3510	3510	3510	3510	3475	3475	3510	3475	3475	3475	3475	3440	3440	3440	3475	3440	3510	3475	3440	3440	3475	3475	3475	3475	0	0	0	0	0	2167	2153	2167	2153	2140	2140	2140	2127	2114	2114	2101	2088	2076	2063	2051	2051	2039	2027	2027	2015	2003	2003	1980	1969	1958	1947	1947	1925	1925	1915	1915	1904	1883	1873	1873	1873	1863	1863	1853	1843	1843	1833	1824	1804	1795	1786	1786	1777	1768	1768	1759	1750	1741	1732	1723	1715	1706	1698	1698	1690	1690	1681	1673	1665	1665	1657	1649	1649	0	0	0	0	0	0	0	0	0	0	0	0	0	0	0	0	0	0	0	0	0	0	0	0	0	0	0	0	0	0	0	0	0	0	0	0	0	0	0
0	0	0	0	0	0	0	0	0	0	1263	1263	1268	1268	1272	1277	1287	1287	1287	1291	1296	1301	1306	1306	1311	1316	1321	1321	1321	1326	1331	1336	1342	1347	1352	1352	1358	1363	1374	1374	1374	1374	1390	1390	1407	1413	1419	1419	1425	1431	1431	1437	1443	1449	1455	1461	1467	1473	1473	1480	1480	1486	1486	1492	1499	1499	1506	1519	1512	1532	1532	1532	1539	1546	1560	1560	1567	1574	1574	1581	1581	1611	1626	1626	1626	1649	1665	1665	1673	1681	1681	1690	1690	1690	1698	1698	1706	1698	1706	1706	1715	1723	1732	1732	1732	1732	1732	1741	1759	1768	1814	1814	1814	1814	2570	2570	2551	2551	2551	2570	2570	2551	2570	2570	2570	2570	2570	2570	2570	2570	2570	2570	2570	2551	2551	2551	2570	2551	2570	2570	2570	2570	2570	2570	2551	2551	2551	2551	2551	2551	2551	2551	2551	2551	2532	2514	2514	2514	2514	2514	2514	2514	2514	2514	2532	2532	2532	2532	2514	2514	2514	2496	2496	2496	2496	2496	2496	2496	2496	2532	2514	2532	2551	2551	2551	3216	3246	3246	3277	3277	3277	3277	3309	3309	3309	3309	3309	3309	3309	3309	3309	3341	3341	3341	3341	3309	3309	3309	3309	3309	3309	3309	3309	3309	3309	3309	3341	3341	3373	3406	3475	3510	3546	3546	3583	3583	3583	3583	3546	3583	3546	3583	3621	3583	3583	3583	3583	3583	3583	3583	3583	3583	3583	3583	3583	3621	3621	3621	3621	3621	3583	3659	3659	3698	3698	3659	3659	3659	3698	3659	3659	3659	3659	3659	3659	3659	3659	3659	3659	3659	3659	3659	3621	3621	3621	3621	3621	3621	3621	3621	3659	3621	3621	3621	3621	3621	3129	3129	3129	3129	3129	3129	3129	3129	3129	3101	3101	3101	3101	3073	3046	3046	3046	3046	3046	3046	3019	3019	3019	2993	2993	2993	2993	2967	2967	2993	2993	2993	2993	2993	2993	2993	2993	2967	2967	2967	2967	2967	2967	2967	2993	2967	2967	2967	2967	2967	2967	2967	2967	2967	2967	2993	2993	2993	3019	2993	3019	3019	3019	3019	3019	3019	3019	0	0	3046	3046	3046	3046	3046	3046	3019	3019	3019	3621	3621	3583	3621	3583	3583	3583	3546	3546	3546	3546	3510	3510	3510	3546	3546	3583	3546	3546	3546	3546	3546	3546	3546	3546	3546	3583	3583	3583	3546	3546	3546	3546	3546	3546	3510	3510	3546	3546	3546	3546	3546	3510	3546	3546	3510	3546	3546	3546	3546	3546	3546	3546	3510	3510	3510	3510	3510	3510	3510	3510	3510	3510	3510	3510	3510	3510	3510	3510	3475	3475	3510	3510	3510	3510	3510	3510	3510	3510	3510	3510	3510	3510	3510	3510	3510	3510	3510	3510	3510	3510	3510	3510	3510	3510	3510	3510	3475	3510	3510	3510	3510	3510	3510	3546	3510	3510	3510	3510	3510	3510	3510	3510	3510	3510	3510	3510	3510	3510	3510	3475	3475	3475	3475	3475	3475	3475	3475	3475	3475	3406	3440	3440	3475	3475	3475	3475	3510	3510	3510	3510	3510	3510	3510	3475	3475	3475	3475	3475	3475	3475	3475	3475	3475	3475	3475	3475	3475	3475	3510	3475	3475	3475	3475	3475	0	0	0	0	2167	2153	2167	2153	2153	2140	2140	2127	2127	2114	2101	2101	2076	2063	2051	2051	2039	2027	2015	2003	2003	1992	1980	1958	1958	1936	1936	1925	1925	1915	1915	1904	1883	1873	1873	1873	1863	1863	1853	1853	1843	1833	1833	1804	1795	1795	1786	1777	1768	1759	1759	1750	1741	1741	1723	1715	1715	1706	1698	1690	1690	1681	1681	1665	1665	1657	1649	1649	0	0	0	0	0	0	0	0	0	0	0	0	0	0	0	0	0	0	0	0	0	0	0	0	0	0	0	0	0	0	0	0	0	0	0	0	0	0	0
0	0	0	0	0	0	0	0	0	0	1263	1263	1268	1268	1268	1277	1282	1287	1287	1291	1296	1296	1301	1306	1311	1316	1321	1321	1321	1326	1326	1331	1342	1347	1352	1352	1358	1363	1374	1374	1374	1374	1390	1396	1402	1407	1419	1419	1425	1437	1431	1437	1443	1449	1455	1461	1467	1473	1473	1480	1486	1486	1486	1492	1492	1499	1512	1519	1525	1525	1525	1532	1539	1546	1560	1567	1567	1574	1574	1574	1574	1596	1626	1626	1626	1626	1657	1665	1673	1681	1690	1698	1698	1698	1698	1706	1715	1706	1706	1715	1723	1723	1732	1732	1732	1741	1750	1759	1795	1768	1804	1804	1814	1824	1824	2570	2570	2551	2551	2570	2570	2551	2570	2570	2570	2570	2570	2570	2551	2570	2570	2570	2570	2551	2551	2551	2570	2551	2570	2551	2551	2570	2570	2570	2551	2551	2551	2551	2551	2551	2532	2532	2532	2532	2532	2514	2514	2514	2532	2514	2514	2514	2514	2514	2514	2532	2514	2514	2514	2514	2514	2496	2496	2496	2496	2496	2496	2496	2496	2532	2532	2532	2551	2551	2551	3216	3246	3246	3277	3309	3309	3341	3341	3341	3373	3309	3309	3373	3341	3341	3341	3341	3373	3373	3341	3341	3373	3309	3341	3373	3341	3341	3341	3341	3341	3341	3373	3373	3373	3373	3406	3475	3510	3546	3583	3583	3583	3583	3583	3583	3546	3583	3583	3583	3583	3583	3583	3583	3583	3583	3583	3583	3583	3583	3583	3621	3621	3621	3621	3621	3583	3659	3659	3659	3659	3659	3659	3659	3659	3659	3659	3659	3659	3659	3659	3659	3659	3659	3659	3659	3659	3659	3659	3659	3621	3621	3621	3621	3621	3621	3621	3621	3621	3621	3621	3621	3073	3101	3101	3129	3129	3129	3129	3129	3129	3101	3101	3101	3073	3073	3046	3046	3046	3046	3046	3019	3019	3019	3019	2993	2993	2993	2993	2993	2967	2993	2993	2993	2993	2993	2967	2967	2967	2967	2967	2967	2967	2967	2967	2967	2967	2967	2967	2967	2967	2967	2967	2967	2967	2967	2967	2993	2967	2993	2993	3019	3019	3019	3019	3019	3019	2993	2993	2993	0	0	3019	3019	3019	3019	3019	3019	2993	2993	3659	3621	3583	3621	3583	3583	3583	3546	3546	3546	3546	3510	3510	3546	3546	3546	3546	3546	3546	3546	3546	3546	3546	3546	3546	3546	3546	3583	3583	3583	3546	3546	3546	3546	3546	3510	3510	3510	3546	3510	3510	3510	3510	3546	3546	3510	3546	3546	3546	3546	3546	3546	3546	3510	3510	3510	3510	3510	3510	3510	3510	3510	3510	3510	3510	3510	3510	3510	3510	3510	3475	3510	3510	3510	3510	3510	3510	3510	3510	3475	3475	3510	3510	3510	3510	3510	3510	3510	3510	3510	3510	3510	3510	3510	3510	3475	3510	3475	3510	3510	3510	3510	3510	3510	3510	3510	3510	3510	3510	3510	3510	3510	3510	3510	3510	3510	3510	3510	3510	3510	3475	3475	3475	3475	3475	3475	3440	3440	3440	3440	3406	3440	3440	3440	3475	3440	3475	3510	3510	3510	3510	3510	3510	3475	3475	3440	3475	3475	3475	3475	3475	3475	3475	3475	3475	3475	3475	3475	3440	3475	3475	3475	3475	3475	3475	3440	3440	0	0	2167	2167	2167	2153	2153	2140	2140	2140	2114	2101	2101	2101	2076	2063	2051	2051	2027	2027	2027	2003	2003	2003	1980	1980	1969	1958	1947	1936	1925	1915	1915	1904	1883	1873	1873	1873	1863	1863	1853	1853	1843	1833	1833	1804	1795	1795	1786	1777	1768	1768	1759	1750	1741	1741	1723	1723	1715	1706	1698	1698	1690	1681	1681	1665	1665	1657	1634	1634	0	0	0	0	0	0	0	0	0	0	0	0	0	0	0	0	0	0	0	0	0	0	0	0	0	0	0	0	0	0	0	0	0	0	0	0	0	0	0
0	0	0	0	0	0	0	0	0	0	1268	1268	1268	1268	1272	1277	1282	1287	1287	1291	1296	1296	1301	1306	1311	1311	1316	1321	1321	1326	1326	1331	1342	1342	1347	1352	1352	1363	1374	1374	1379	1385	1390	1396	1402	1407	1413	1419	1419	1431	1431	1437	1443	1449	1455	1461	1467	1473	1473	1480	1480	1486	1486	1492	1499	1506	1512	1519	1519	1525	1525	1532	1539	1546	1567	1567	1567	1574	1574	1574	1574	1589	1611	1611	1626	1634	1657	1665	1681	1690	1690	1698	1698	1698	1698	1706	1715	1715	1715	1715	1723	1732	1732	1732	1732	1741	1750	1759	1795	1795	1804	1804	1814	1814	1824	0	2570	2551	2570	2570	2570	2551	2551	2551	2570	2570	2570	2570	2570	2570	2570	2570	2570	2551	2551	2551	2551	2551	2551	2551	2551	2551	2570	2570	2551	2551	2551	2551	2551	2551	2532	2532	2532	2532	2514	2514	2514	2514	2514	2496	2496	2496	2496	2514	2514	2514	2514	2514	2514	2514	2514	2496	2496	2496	2496	2496	2496	2496	2514	2532	2532	2532	2551	2551	2570	2570	3246	3277	3309	3373	3341	3341	3373	3373	3373	3341	3373	3373	3373	3373	3373	3373	3373	3406	3406	3406	3406	3406	3406	3373	3373	3373	3373	3373	3373	3373	3373	3373	3373	3373	3406	3475	3510	3510	3546	3546	3546	3546	3546	3546	3546	3546	3583	3546	3583	3583	3583	3583	3583	3583	3583	3583	3583	3583	3621	3621	3621	3621	3621	3621	3621	3583	3621	3621	3621	3659	3659	3659	3659	3659	3659	3659	3659	3659	3659	3659	3659	3698	3698	3698	3659	3659	3659	3659	3659	3659	3659	3659	3621	3621	3621	3621	3621	3621	3583	3621	3073	3101	3101	3129	3101	3101	3129	3129	3129	3101	3073	3101	3073	3073	3046	3046	3046	3046	3019	3019	3019	3019	2993	2993	2993	2993	2993	2967	2967	2967	2993	2993	2993	2967	2967	2967	2967	2967	2967	2967	2967	2967	2967	2967	2967	2967	2967	2967	2967	2967	2967	2967	2967	2993	2967	2967	2967	2967	2993	3019	3019	3019	3019	3019	3019	2993	2993	2993	2993	2993	3019	3019	3019	3019	3019	3019	2993	2993	3621	3621	3583	3583	3583	3546	3546	3546	3546	3546	3510	3510	3510	3510	3546	3546	3583	3583	3546	3546	3546	3546	3546	3546	3546	3546	3583	3546	3546	3546	3546	3546	3510	3546	3510	3510	3510	3510	3510	3510	3510	3510	3510	3546	3546	3510	3546	3546	3546	3546	3546	3546	3546	3510	3510	3510	3510	3510	3510	3510	3510	3510	3475	3510	3510	3510	3510	3510	3510	3510	3510	3510	3510	3510	3510	3510	3510	3510	3510	3510	3510	3510	3510	3510	3510	3510	3510	3510	3510	3510	3510	3510	3510	3510	3510	3475	3510	3510	3510	3510	3510	3510	3510	3510	3510	3510	3510	3510	3510	3510	3510	3510	3510	3510	3510	3510	3510	3510	3510	3510	3475	3475	3475	3475	3475	3475	3440	3440	3440	3440	3440	3440	3440	3440	3475	3440	3475	3475	3475	3475	3510	3475	3475	3475	3475	3475	3510	3475	3475	3475	3510	3510	3510	3510	3475	3475	3475	3440	3440	3475	3440	3475	3440	3475	3475	3475	3440	3440	0	0	2167	2167	2153	2153	2140	2140	2127	2114	2114	2114	2101	2088	2063	2051	2039	2027	2039	2027	2003	2003	2003	1980	1969	1958	1958	1947	1936	1925	1915	1915	1904	1883	1883	1873	1873	1863	1863	1853	1843	1833	1824	1814	1804	1804	1795	1795	1786	1777	1768	1759	1750	1741	1741	1723	1723	1715	1706	1698	1698	1690	1681	1681	1673	1665	1641	1634	1634	0	0	0	0	0	0	0	0	0	0	0	0	0	0	0	0	0	0	0	0	0	0	0	0	0	0	0	0	0	0	0	0	0	0	0	0	0	0	0
0	0	0	0	0	0	0	0	0	0	1268	1268	1268	1268	1272	1282	1282	1287	1287	1291	1296	1296	1301	1306	1311	1311	1316	1321	1321	1321	1326	1326	1326	1342	1352	1358	1358	1368	1374	1374	1374	1379	1390	1396	1402	1407	1413	1419	1425	1431	1431	1431	1443	1443	1455	1461	1461	1480	1480	1480	1486	1486	1486	1486	1492	1499	1506	1512	1519	1525	1525	1532	1546	1553	1560	1567	1567	1574	1574	1574	1574	1596	1603	1611	1618	1634	1657	1665	1665	1690	1690	1698	1698	1706	1706	1715	1723	1723	1723	1723	1732	1732	1732	1741	1750	1759	1795	1795	1795	1795	1795	1804	1814	1804	1804	1804	2570	2551	2551	2570	2570	2570	2570	2570	2570	2570	2570	2570	2570	2570	2570	2570	2570	2570	2551	2551	2551	2551	2551	2551	2551	2551	2570	2570	2551	2551	2551	2551	2551	2532	2532	2532	2532	2532	2514	2514	2514	2496	2514	2496	2496	2496	2496	2496	2514	2514	2514	2514	2514	2514	2514	2496	2496	2496	2496	2496	2496	2496	2514	2514	2532	2532	2532	2551	2570	2570	2570	3277	3373	3373	3373	3373	3373	3373	3406	3406	3406	3373	3373	3406	3406	3406	3440	3440	3406	3406	3440	3406	3406	3406	3406	3373	3373	3373	3406	3406	3406	3406	3406	3406	3406	3475	3475	3510	3546	3546	3546	3546	3546	3546	3546	3546	3583	3546	3583	3583	3583	3583	3583	3583	3621	3583	3583	3621	3621	3621	3621	3621	3621	3621	3621	3583	3621	3659	3659	3659	3659	3659	3659	3659	3659	3659	3659	3659	3659	3659	3659	3698	3698	3698	3659	3698	3659	3659	3659	3659	3659	3659	3621	3621	3659	3621	3621	3621	3621	3659	3073	3101	3101	3101	3101	3101	3129	3129	3129	3101	3101	3101	3073	3073	3046	3046	3046	3046	3019	3019	2993	2993	2993	2967	2967	2967	2967	2967	2967	2993	2993	2993	2993	2967	2967	2993	2993	2967	2967	2967	2993	2967	2967	2967	2967	2967	2967	2967	2967	2967	2967	2967	2967	2967	2967	2967	2967	2993	2993	2993	2993	3019	3019	3019	3019	2993	2993	2993	2993	2993	3019	3019	3019	3019	3019	2993	2993	2967	2967	2967	3621	3583	3583	3546	3546	3546	3546	3510	3546	3510	3510	3510	3546	3546	3583	3583	3583	3546	3546	3546	3546	3546	3546	3546	3546	3546	3546	3546	3546	3546	3546	3546	3510	3510	3510	3510	3510	3510	3510	3510	3510	3546	3546	3510	3546	3510	3510	3510	3510	3510	3510	3510	3510	3510	3510	3510	3510	3510	3510	3510	3510	3510	3510	3510	3510	3510	3510	3510	3475	3510	3510	3475	3510	3510	3510	3510	3510	3510	3510	3546	3510	3510	3510	3510	3475	3510	3510	3510	3510	3510	3510	3510	3510	3510	3510	3510	3510	3510	3510	3510	3510	3510	3510	3510	3510	3510	3510	3510	3510	3510	3510	3510	3510	3510	3510	3510	3510	3475	3475	3475	3510	3475	3475	3475	3440	3440	3475	3475	3440	3440	3440	3440	3475	3440	3440	3475	3406	3475	3475	3475	3440	3440	3440	3440	3440	3510	3475	3510	3510	3510	3510	3475	3475	3440	3440	3440	3440	3475	3440	3475	3440	3475	3475	3475	3440	3440	3406	3406	0	2167	2167	2153	2140	2140	2127	2127	2114	2114	2101	2088	2051	2051	2039	2039	2039	2027	2015	2015	2003	1980	1969	1958	1958	1947	1936	1936	1915	1915	1904	1883	1873	1873	1873	1863	1853	1853	1853	1833	1833	1824	1804	1804	1795	1795	1786	1777	1768	1759	1750	1741	1741	1723	1723	1715	1706	1698	1698	1690	1681	1673	1673	1665	1634	1634	1634	0	0	0	0	0	0	0	0	0	0	0	0	0	0	0	0	0	0	0	0	0	0	0	0	0	0	0	0	0	0	0	0	0	0	0	0	0	0	0
0	0	0	0	0	0	0	0	0	0	1268	1268	1268	1272	1277	1282	1282	1287	1287	1287	1291	1296	1301	1306	1311	1311	1316	1321	1321	1326	1326	1331	1336	1342	1347	1352	1358	1363	1368	1374	1374	1379	1385	1390	1396	1402	1413	1413	1419	1419	1431	1431	1443	1449	1449	1461	1467	1480	1480	1480	1486	1486	1492	1486	1492	1499	1499	1512	1519	1519	1525	1532	1546	1553	1567	1567	1567	1574	1574	1574	1581	1589	1603	1611	1611	1618	1634	1641	1641	1673	1681	1690	1698	1706	1715	1715	1723	1732	1732	1732	1732	1732	1732	1768	1777	1777	1786	1786	1786	1786	1795	1804	1804	1804	1814	1814	1814	1814	2551	2570	2570	2570	2570	2570	2570	2570	2570	2570	2570	2570	2570	2570	2570	2570	2551	2551	2551	2551	2551	2551	2551	2551	2570	2570	2551	2551	2551	2551	2551	2532	2532	2532	2532	2532	2514	2514	2514	2514	2514	2496	2496	2496	2496	2496	2514	2514	2514	2514	2514	2514	2514	2496	2496	2496	2496	2496	2496	2496	2496	2514	2514	2532	2532	2551	2589	2589	2589	0	3440	3440	3475	3440	3440	3440	3440	3440	3440	3440	3406	3406	3440	3440	3440	3440	3440	3440	3440	3440	3406	3406	3406	3406	3406	3406	3406	3440	3406	3406	3406	3406	3440	3475	3475	3475	3546	3510	3510	3546	3546	3546	3546	3546	3583	3546	3583	3583	3583	3583	3583	3583	3621	3583	3583	3621	3621	3621	3621	3621	3621	3621	3621	3621	3621	3698	3659	3659	3698	3659	3659	3659	3659	3659	3659	3659	3659	3659	3659	3698	3698	3698	3659	3698	3659	3659	3659	3621	3659	3659	3659	3659	3659	3659	3659	3621	3621	3659	3073	3101	3101	3101	3101	3101	3129	3129	3101	3073	3073	3073	3073	3073	3046	3046	3046	3019	3019	2993	2993	2993	2967	2967	2967	2967	2967	2967	2967	2993	2993	2993	2993	2967	2967	2993	2993	2967	2967	2967	2993	2967	2967	2967	2967	2967	2967	2967	2967	2967	2967	2967	2967	2967	2967	2967	2967	2967	2993	2993	2993	3019	3019	3019	3019	2993	3019	2993	2993	2993	2993	3019	3019	3019	3019	2993	2993	2967	2967	2967	2967	3583	3583	3583	3583	3583	3546	3546	3546	3510	3510	3510	3510	3510	3546	3583	3546	3546	3546	3546	3546	3546	3546	3546	3546	3546	3546	3546	3546	3546	3510	3510	3510	3510	3510	3510	3510	3510	3510	3510	3510	3546	3546	3510	3510	3510	3510	3510	3510	3510	3510	3510	3510	3510	3510	3510	3510	3510	3510	3510	3510	3510	3510	3510	3510	3510	3510	3475	3475	3475	3475	3475	3510	3510	3510	3510	3510	3510	3510	3546	3510	3510	3510	3510	3475	3510	3510	3510	3510	3510	3510	3510	3510	3510	3510	3510	3510	3510	3510	3510	3510	3510	3510	3510	3510	3510	3510	3510	3510	3510	3510	3510	3510	3510	3510	3510	3510	3475	3475	3475	3475	3475	3475	3475	3475	3475	3475	3475	3440	3440	3440	3440	3475	3475	3475	3475	3440	3440	3475	3440	3440	3440	3440	3440	3510	3510	3510	3510	3510	3510	3510	3510	3475	3475	3440	3440	3440	3440	3440	3440	3440	3475	3475	3475	3440	3440	3440	3440	0	0	2153	2153	2127	2140	2140	2127	2114	2101	2076	2063	2063	2051	2039	2039	2039	2027	2027	2015	2015	1980	1969	1958	1958	1947	1936	1936	1925	1915	1904	1883	1873	1873	1873	1863	1853	1843	1843	1843	1824	1824	1804	1804	1795	1795	1786	1777	1768	1759	1750	1741	1741	1732	1723	1706	1698	1698	1690	1690	1681	1673	1673	1665	1649	1634	1634	0	0	0	0	0	0	0	0	0	0	0	0	0	0	0	0	0	0	0	0	0	0	0	0	0	0	0	0	0	0	0	0	0	0	0	0	0	0	0
0	0	0	0	0	0	0	0	0	0	1268	1268	1268	1272	1277	1282	1282	1282	1287	1287	1291	1296	1301	1306	1311	1311	1316	1316	1321	1326	1331	1336	1336	1342	1352	1352	1363	1368	1368	1368	1368	1379	1379	1385	1385	1402	1402	1413	1419	1425	1425	1431	1443	1449	1449	1461	1467	1480	1480	1486	1486	1486	1492	1492	1492	1499	1506	1512	1512	1519	1525	1532	1546	1553	1567	1567	1567	1574	1574	1581	1581	1589	1603	1611	1611	1626	1634	1634	1649	1657	1665	1673	1690	1698	1706	1715	1723	1732	1732	1732	1741	1741	1768	1777	1786	1786	1795	1786	1786	1786	1795	1795	1804	1804	1804	1814	1824	1824	1843	1843	2570	2570	2551	2551	2570	2570	2570	2570	2570	2570	2570	2570	2570	2570	2551	2551	2551	2551	2551	2551	2551	2551	2551	2551	2551	2551	2551	2551	2551	2532	2532	2532	2532	2532	2532	2514	2514	2514	2514	2514	2514	2514	2496	2514	2514	2514	2514	2514	2514	2514	2514	2496	2496	2496	2496	2496	2496	2496	2514	2514	2514	2514	2532	2532	2551	2551	2589	3510	3510	3510	3510	3510	3475	3475	3475	3475	3475	3475	3475	3475	3475	3510	3475	3510	3510	3546	3546	3510	3440	3440	3406	3406	3406	3406	3406	3440	3440	3440	3475	3440	3475	3475	3510	3510	3510	3510	3510	3510	3546	3546	3546	3583	3583	3583	3583	3583	3583	3583	3583	3546	3583	3583	3583	3583	3621	3621	3621	3621	3621	3621	3621	3621	3621	3698	3659	3659	3698	3659	3659	3659	3698	3659	3659	3659	3659	3659	3659	3698	3698	3698	3698	3698	3659	3659	3659	3621	3659	3659	3659	3659	3659	3659	3659	3621	3621	3659	3698	3101	3101	3101	3101	3101	3101	3129	3101	3073	3073	3073	3073	3073	3046	3046	3019	3019	2993	2993	2993	2993	2967	2967	2967	2967	2967	2967	2967	2993	2993	2993	2993	2967	2993	2993	2967	2993	2993	2967	2993	2967	2967	2967	2967	2967	2967	2993	2993	2993	2967	2967	2967	2993	2967	2967	2967	2967	2993	2993	2993	2993	3019	2993	2993	2993	2993	2993	2993	2993	2993	2993	3019	3019	3019	2993	2993	2967	2967	2967	2967	2967	2967	3583	3583	3583	3546	3510	3510	3510	3510	3510	3510	3510	3546	3583	3546	3546	3546	3546	3546	3546	3546	3583	3583	3546	3546	3546	3546	3546	3510	3510	3510	3510	3510	3510	3510	3510	3510	3510	3510	3546	3546	3510	3546	3510	3510	3510	3510	3510	3510	3510	3510	3510	3510	3510	3510	3510	3510	3510	3510	3510	3510	3510	3510	3510	3475	3475	3475	3475	3475	3475	3475	3510	3510	3510	3510	3510	3510	3546	3510	3510	3510	3510	3510	3475	3475	3475	3475	3475	3510	3510	3510	3510	3510	3510	3510	3510	3510	3510	3510	3510	3510	3510	3510	3510	3510	3510	3510	3510	3510	3510	3510	3510	3510	3510	3510	3475	3475	3475	3510	3475	3475	3475	3475	3475	3475	3475	3440	3440	3440	3440	3440	3475	3475	3475	3440	3475	3475	3440	3440	3440	3440	3440	3510	3475	3510	3510	3510	3510	3510	3475	3475	3475	3440	3440	3440	3440	3440	3440	3440	3475	3475	3475	3475	3475	3440	3440	3440	0	2140	2140	2127	2140	2127	2127	2114	2101	2101	2063	2051	2051	2039	2039	2039	2027	2027	2015	2015	1980	1958	1958	1947	1947	1936	1925	1915	1915	1904	1883	1873	1873	1863	1863	1853	1843	1843	1833	1824	1824	1824	1795	1804	1795	1795	1786	1768	1768	1759	1732	1732	1723	1723	1715	1706	1698	1698	1690	1673	1665	1657	1657	1649	1634	1634	0	0	0	0	0	0	0	0	0	0	0	0	0	0	0	0	0	0	0	0	0	0	0	0	0	0	0	0	0	0	0	0	0	0	0	0	0	0	0
0	0	0	0	0	0	0	0	0	0	1268	1268	1268	1272	1277	1282	1282	1282	1287	1287	1291	1296	1301	1306	1311	1311	1316	1321	1321	1326	1331	1336	1336	1342	1347	1352	1358	1358	1368	1368	1368	1374	1379	1385	1390	1396	1402	1413	1419	1425	1425	1431	1437	1443	1443	1455	1467	1473	1480	1480	1486	1486	1486	1492	1492	1499	1499	1512	1512	1519	1519	1519	1539	1553	1567	1567	1567	1574	1574	1581	1589	1596	1603	1611	1618	1626	1634	1634	1634	1649	1657	1665	1673	1698	1706	1715	1723	1732	1732	1732	1741	1759	1768	1777	1777	1786	1795	1786	1786	1786	1786	1795	1795	1804	1814	1824	1833	1843	1853	1863	1863	1863	2551	2551	2551	2551	2551	2570	2570	2570	2570	2570	2570	2570	2570	2570	2551	2551	2551	2551	2551	2551	2551	2551	2551	2551	2551	2551	2551	2532	2532	2532	2532	2532	2514	2514	2514	2514	2514	2514	2514	2514	2514	2514	2514	2514	2514	2514	2514	2514	2514	2496	2496	2496	2496	2496	2496	2496	2496	2514	2514	2532	2532	2551	2551	2551	2589	3510	3510	3510	3510	3510	3510	3510	3510	3510	3510	3510	3510	3510	3510	3510	3510	3510	3510	3583	3546	3510	3510	3475	3475	3510	3475	3475	3475	3475	3475	3475	3475	3475	3475	3475	3510	3510	3510	3510	3510	3510	3546	3546	3546	3583	3583	3583	3583	3583	3583	3583	3583	3546	3583	3583	3583	3621	3621	3621	3621	3621	3621	3621	3621	3621	3659	3698	3659	3659	3698	3659	3659	3659	3659	3659	3659	3659	3659	3659	3659	3698	3698	3698	3659	3659	3659	3659	3659	3621	3659	3659	3659	3659	3659	3659	3659	3621	3621	3659	3659	3698	3101	3129	3101	3101	3129	3129	3101	3073	3073	3073	3073	3046	3046	3019	3019	2993	2993	2967	2967	2967	2967	2967	2967	2967	2967	2967	2967	2993	2993	2993	2967	2993	2993	2993	2993	2993	2993	2967	2993	2967	2967	2967	2967	2967	2967	2967	2967	2967	2967	2967	2967	2967	2967	2967	2967	2967	2993	2993	2993	2993	2993	2993	2993	2993	2993	2993	2993	2993	2993	3046	3046	2993	3019	3019	2993	2993	2993	2967	2967	2942	3583	3583	3510	3510	3510	3475	3475	3475	3510	3510	3510	3510	3546	3583	3583	3546	3546	3546	3546	3583	3583	3583	3583	3583	3546	3546	3546	3546	3510	3510	3510	3510	3510	3510	3510	3510	3510	3510	3510	3546	3546	3510	3510	3510	3510	3510	3510	3510	3510	3510	3510	3510	3510	3510	3510	3510	3510	3510	3510	3510	3510	3510	3510	3510	3475	3475	3475	3475	3475	3475	3510	3510	3510	3510	3510	3510	3510	3546	3510	3510	3510	3510	3475	3510	3475	3475	3475	3475	3475	3475	3510	3510	3510	3510	3510	3510	3510	3510	3510	3510	3510	3510	3510	3510	3510	3510	3510	3510	3510	3510	3510	3510	3475	3475	3510	3475	3475	3475	3475	3475	3475	3475	3475	3475	3475	3475	3440	3440	3440	3440	3440	3475	3475	3475	3406	3475	3440	3440	3440	3440	3440	3440	3510	3475	3510	3510	3510	3510	3510	3510	3475	3440	3440	3440	3440	3475	3440	3440	3440	3510	3475	3475	3475	3440	3440	3440	3406	3406	2140	2140	2127	2127	2127	2127	2127	2101	2088	2063	2051	2051	2039	2039	2039	2027	2027	2003	2015	2003	1958	1958	1947	1947	1936	1925	1915	1915	1904	1883	1873	1873	1863	1863	1853	1843	1833	1833	1824	1824	1824	1804	1795	1795	1795	1786	1768	1768	1750	1732	1732	1732	1723	1715	1706	1698	1698	1690	1665	1665	1657	1657	1649	1634	1634	0	0	0	0	0	0	0	0	0	0	0	0	0	0	0	0	0	0	0	0	0	0	0	0	0	0	0	0	0	0	0	0	0	0	0	0	0	0	0
0	0	0	0	0	0	0	0	0	0	1268	1268	1268	1272	1277	1282	1282	1282	1287	1287	1291	1296	1301	1306	1311	1311	1316	1321	1321	1326	1331	1331	1336	1342	1347	1352	1352	1358	1363	1363	1368	1368	1374	1385	1390	1390	1402	1407	1413	1425	1425	1431	1437	1443	1449	1461	1467	1473	1480	1480	1486	1486	1486	1486	1492	1492	1499	1512	1512	1512	1512	1519	1546	1553	1567	1567	1574	1574	1574	1581	1581	1596	1603	1611	1618	1626	1634	1634	1634	1649	1657	1665	1673	1698	1698	1706	1723	1732	1732	1732	1741	1741	1759	1768	1777	1777	1786	1786	1786	1786	1795	1795	1804	1804	1814	1824	1843	1853	1853	1863	1863	1863	1883	1883	2551	2551	2551	2551	2551	2570	2570	2570	2570	2570	2570	2570	2551	2551	2551	2551	2551	2551	2551	2551	2551	2551	2551	2551	2532	2532	2532	2532	2532	2532	2514	2514	2514	2496	2514	2496	2496	2496	2514	2514	2514	2514	2514	2514	2514	2514	2496	2496	2496	2496	2496	2496	2496	2496	2496	2514	2514	2514	2514	2532	2532	2551	3621	3583	3583	3510	3510	3510	3510	3510	3510	3546	3510	3510	3510	3510	3546	3546	3546	3546	3546	3583	3546	3510	3510	3510	3475	3510	3510	3475	3510	3510	3510	3510	3510	3510	3510	3510	3510	3510	3510	3510	3510	3510	3546	3546	3546	3546	3583	3583	3583	3583	3583	3583	3583	3583	3621	3583	3583	3621	3621	3621	3621	3621	3621	3621	3621	3621	3659	3698	3659	3698	3698	3698	3698	3698	3698	3659	3698	3698	3659	3659	3659	3698	3698	3698	3659	3659	3659	3659	3659	3621	3659	3659	3659	3659	3659	3659	3659	3621	3621	3659	3659	3659	3101	3129	3101	3101	3101	3101	3073	3073	3073	3073	3046	3046	3019	3019	2993	2993	2993	2967	2967	2967	2967	2967	2967	2967	2967	2967	2967	2993	2967	2967	2967	2967	2993	2993	2967	2993	2993	2993	2993	2967	2967	2967	2967	2967	2967	2967	2967	2967	2967	2967	2967	2967	2967	2967	2967	2967	2967	2967	2993	2993	2993	2993	2993	2993	2993	2993	2993	2993	2993	2993	2993	2993	2993	2993	2993	2967	2967	2967	2967	3583	3546	3510	3510	3510	3510	3510	3510	3475	3510	3510	3510	3510	3546	3546	3546	3546	3546	3583	3583	3583	3583	3583	3583	3546	3546	3546	3546	3546	3510	3510	3510	3546	3510	3510	3510	3510	3510	3510	3510	3510	3510	3510	3510	3510	3510	3510	3510	3510	3510	3510	3510	3510	3510	3510	3510	3510	3510	3510	3510	3510	3510	3510	3510	3510	3475	3475	3475	3475	3475	3475	3475	3510	3475	3510	3510	3510	3510	3510	3546	3510	3510	3510	3510	3510	3510	3475	3475	3475	3475	3475	3510	3510	3510	3510	3510	3510	3510	3510	3510	3510	3510	3510	3510	3510	3510	3510	3510	3510	3510	3510	3510	3510	3475	3475	3475	3475	3475	3440	3440	3475	3475	3440	3475	3475	3475	3475	3475	3475	3475	3475	3475	3475	3475	3475	3440	3475	3440	3440	3440	3440	3440	3440	3475	3475	3475	3475	3510	3510	3510	3510	3475	3440	3440	3510	3440	3440	3440	3440	3440	3475	3475	3475	3440	3440	3440	3440	3406	3406	2140	2140	2140	2140	2127	2127	2127	2101	2101	2063	2063	2051	2051	2039	2039	2039	2027	2003	2003	1992	1958	1958	1947	1947	1936	1925	1915	1915	1904	1894	1873	1873	1873	1863	1853	1843	1833	1833	1824	1824	1824	1804	1795	1795	1795	1786	1768	1768	1750	1732	1732	1732	1715	1706	1698	1698	1690	1681	1665	1665	1665	1657	1641	1634	1634	0	0	0	0	0	0	0	0	0	0	0	0	0	0	0	0	0	0	0	0	0	0	0	0	0	0	0	0	0	0	0	0	0	0	0	0	0	0	0
0	0	0	0	0	0	0	0	0	0	1268	1268	1268	1272	1277	1282	1282	1282	1287	1287	1291	1296	1301	1301	1311	1311	1316	1321	1321	1321	1331	1336	1342	1342	1347	1352	1358	1358	1363	1363	1368	1374	1374	1379	1385	1396	1402	1402	1413	1419	1425	1431	1437	1443	1455	1461	1473	1473	1480	1480	1486	1486	1486	1486	1492	1492	1499	1506	1512	1519	1512	1519	1546	1553	1567	1567	1574	1574	1574	1581	1581	1596	1603	1611	1618	1618	1626	1634	1641	1649	1657	1657	1665	1681	1690	1698	1706	1723	1723	1732	1732	1741	1759	1768	1777	1786	1786	1786	1795	1786	1795	1804	1804	1804	1824	1824	1843	1863	1863	1873	1873	1883	1894	1904	1915	1915	2551	2551	2570	2570	2570	2570	2589	2570	2570	2570	2551	2551	2551	2551	2532	2532	2551	2551	2551	2551	2551	2551	2532	2532	2532	2532	2532	2532	2532	2532	2514	2514	2514	2496	2496	2496	2496	2496	2496	2496	2496	2514	2514	2514	2514	2496	2496	2496	2496	2496	2496	2496	2496	2514	2514	2514	2514	2532	2532	0	3583	3583	3583	3546	3546	3546	3546	3546	3546	3546	3546	3546	3546	3546	3546	3546	3546	3546	3546	3546	3546	3546	3510	3510	3510	3510	3510	3510	3510	3510	3510	3510	3510	3510	3510	3510	3510	3510	3510	3510	3510	3510	3510	3510	3546	3583	3621	3621	3621	3621	3621	3583	3583	3583	3621	3621	3621	3621	3659	3659	3621	3621	3621	3621	3621	3621	3659	3698	3659	3698	3698	3698	3698	3698	3659	3659	3659	3698	3659	3659	3659	3698	3698	3659	3659	3659	3659	3659	3659	3621	3659	3621	3621	3659	3659	3621	3621	3621	3583	3583	3621	3621	3101	3101	3101	3101	3101	3101	3073	3073	3073	3046	3046	3046	3019	3019	3019	2993	2993	2967	2967	2967	2967	2967	2967	2967	2967	2967	2942	2993	2967	2967	2967	2967	2967	2993	2967	2993	2993	2993	2993	2967	2967	2967	2967	2967	2967	2967	2967	2967	2967	2967	2967	2967	2967	2967	2967	2967	2967	2967	2967	2993	2993	2993	2993	2993	2993	2993	2993	2993	2993	3046	3046	2993	2993	2993	2993	2967	2967	2967	2942	3546	3546	3510	3510	3510	3475	3475	3510	3510	3510	3510	3510	3510	3546	3546	3546	3546	3546	3546	3546	3546	3583	3583	3546	3546	3546	3546	3546	3546	3546	3546	3510	3546	3510	3510	3510	3510	3510	3510	3510	3510	3510	3510	3510	3510	3510	3510	3510	3510	3510	3510	3510	3510	3510	3510	3510	3510	3510	3510	3510	3510	3510	3510	3510	3510	3475	3475	3475	3475	3475	3475	3475	3510	3475	3475	3475	3510	3510	3546	3546	3510	3510	3510	3510	3510	3510	3475	3475	3510	3475	3475	3510	3510	3510	3510	3510	3510	3510	3510	3510	3510	3510	3510	3510	3510	3510	3510	3510	3475	3475	3475	3475	3475	3475	3475	3475	3475	3475	3440	3440	3440	3440	3440	3440	3475	3475	3510	3510	3475	3475	3475	3475	3475	3475	3475	3440	3475	3475	3475	3440	3440	3440	3440	3510	3475	3475	3475	3475	3510	3510	3510	3440	3440	3440	3440	3440	3440	3440	3440	3440	3475	3475	3440	3475	3440	3440	3440	3440	3440	0	2140	2140	2140	2153	2140	2127	2101	2101	2063	2063	2051	2051	2039	2039	2039	2027	2027	2015	1992	1958	1947	1947	1936	1925	1925	1915	1915	1904	1904	1883	1883	1873	1863	1853	1843	1843	1833	1824	1824	1814	1804	1795	1795	1795	1777	1768	1759	1750	1741	1732	1732	1715	1706	1706	1698	1690	1681	1673	1673	1665	1657	1649	1634	1634	0	0	0	0	0	0	0	0	0	0	0	0	0	0	0	0	0	0	0	0	0	0	0	0	0	0	0	0	0	0	0	0	0	0	0	0	0	0	0
0	0	0	0	0	0	0	0	0	0	1268	1268	1268	1272	1277	1277	1282	1282	1282	1287	1287	1296	1301	1311	1316	1316	1316	1321	1326	1326	1331	1336	1342	1342	1347	1352	1352	1352	1358	1363	1368	1368	1374	1385	1385	1396	1402	1407	1407	1407	1425	1431	1437	1443	1449	1467	1473	1480	1480	1480	1486	1486	1486	1486	1492	1492	1499	1506	1512	1519	1519	1539	1546	1553	1560	1567	1567	1574	1574	1581	1589	1596	1603	1611	1611	1618	1626	1634	1641	1649	1649	1657	1665	1673	1673	1690	1698	1706	1715	1723	1732	1732	1750	1768	1777	1786	1786	1795	1795	1795	1795	1804	1804	1804	1824	1833	1843	1863	1873	1873	1883	1894	1894	1904	1915	1925	1925	2551	2570	2570	2589	2589	2589	2589	2570	2570	2551	2551	2551	2551	2551	2532	2532	2551	2551	2532	2532	2551	2532	2532	2532	2532	2551	2532	2532	2532	2514	2514	2514	2496	2496	2496	2496	2496	2496	2514	2514	2514	2514	2496	2496	2496	2496	2496	2496	2496	2496	2496	2496	2496	2514	2514	2514	2532	2532	0	3583	3546	3546	3546	3546	3546	3546	3546	3546	3546	3546	3546	3546	3546	3546	3546	3546	3546	3546	3546	3546	3546	3546	3546	3510	3510	3510	3510	3546	3546	3546	3546	3546	3510	3510	3510	3510	3510	3510	3510	3510	3510	3546	3583	3583	3583	3621	3621	3621	3621	3621	3621	3583	3583	3621	3621	3621	3621	3621	3621	3621	3621	3621	3621	3583	3621	3659	3659	3659	3659	3659	3659	3659	3659	3659	3659	3659	3698	3698	3659	3659	3659	3659	3659	3659	3659	3621	3659	3621	3621	3621	3621	3621	3621	3659	3621	3621	3583	3621	3621	3583	3621	3101	3129	3101	3101	3101	3101	3073	3073	3073	3073	3046	3046	3046	3019	3019	2993	2993	2993	2967	2967	2967	2967	2967	2967	2967	2942	2942	2967	2967	2967	2967	2993	2993	2967	2967	2967	2967	2967	2993	2967	2967	2967	2967	2967	2967	2967	2967	2967	2942	2967	2967	2967	2967	2967	2967	2967	2967	2967	2967	2967	2993	2993	2993	2993	2993	2993	2993	3019	2993	2993	2993	2993	2993	2993	2993	2993	2967	2967	3546	3546	3546	3510	3510	3510	3510	3510	3475	3475	3510	3510	3510	3510	3546	3546	3583	3546	3546	3546	3546	3546	3546	3546	3546	3546	3546	3546	3546	3546	3546	3546	3546	3546	3546	3546	3510	3546	3546	3546	3546	3546	3510	3510	3510	3510	3510	3510	3510	3510	3510	3510	3510	3510	3510	3510	3510	3510	3510	3510	3510	3510	3510	3510	3510	3510	3475	3475	3475	3475	3475	3475	3475	3475	3475	3475	3475	3475	3510	3546	3546	3510	3546	3510	3510	3510	3510	3510	3510	3510	3510	3475	3510	3510	3510	3510	3510	3510	3510	3510	3510	3510	3510	3510	3510	3510	3510	3510	3510	3475	3475	3475	3475	3475	3475	3510	3510	3475	3510	3406	3440	3475	3440	3475	3475	3475	3475	3510	3510	3510	3475	3475	3475	3475	3475	3475	3475	3475	3475	3440	3440	3440	3440	3440	3475	3475	3475	3475	3475	3510	3510	3510	3440	3440	3440	3440	3440	3440	3440	3440	3440	3440	3475	3440	3440	3440	3440	3440	3440	3440	0	2140	2140	2140	2153	2140	2114	2101	2088	2088	2063	2051	2051	2039	2039	2027	2027	2027	1992	1992	1958	1947	1947	1947	1936	1925	1915	1915	1904	1904	1883	1883	1873	1863	1853	1843	1843	1833	1824	1824	1824	1814	1795	1795	1786	1777	1759	1759	1750	1741	1732	1732	1723	1706	1706	1698	1690	1681	1673	1673	1665	1657	1649	1634	1634	0	0	0	0	0	0	0	0	0	0	0	0	0	0	0	0	0	0	0	0	0	0	0	0	0	0	0	0	0	0	0	0	0	0	0	0	0	0	0
0	0	0	0	0	0	0	0	0	0	1268	1268	1268	1272	1277	1282	1282	1282	1282	1287	1287	1296	1301	1306	1311	1316	1321	1321	1321	1326	1336	1342	1342	1347	1352	1352	1352	1352	1358	1363	1368	1374	1379	1385	1390	1396	1402	1407	1407	1407	1425	1431	1437	1443	1455	1461	1467	1473	1473	1480	1480	1480	1486	1486	1492	1499	1499	1506	1512	1519	1519	1539	1553	1553	1560	1567	1567	1574	1574	1581	1589	1596	1603	1603	1611	1618	1634	1634	1641	1649	1657	1657	1665	1673	1673	1690	1698	1698	1706	1715	1723	1732	1741	1768	1768	1777	1786	1786	1795	1795	1795	1804	1804	1804	1824	1833	1853	1853	1873	1883	1894	1894	1904	1915	1925	1925	1925	1925	1925	2570	2589	2589	2609	2589	2570	2570	2551	2551	2551	2551	2551	2532	2532	2532	2532	2532	2532	2532	2532	2532	2514	2532	2532	2532	2532	2514	2514	2514	2514	2514	2514	2514	2496	2514	2514	2514	2514	2514	2514	2496	2514	2514	2496	2496	2496	2496	2496	2496	2496	2496	2514	2514	2514	2551	2551	2551	3546	3546	3546	3546	3546	3546	3546	3546	3546	3546	3546	3546	3546	3546	3546	3546	3583	3546	3546	3546	3546	3546	3546	3546	3510	3510	3510	3546	3546	3546	3546	3546	3546	3546	3546	3546	3546	3546	3546	3546	3510	3546	3546	3583	3583	3621	3621	3621	3621	3621	3621	3583	3583	3621	3621	3621	3659	3659	3659	3621	3621	3621	3621	3621	3621	3621	3659	3659	3659	3659	3659	3659	3659	3659	3659	3659	3659	3698	3698	3659	3659	3659	3659	3659	3659	3659	3621	3621	3621	3621	3621	3621	3621	3621	3621	3621	3621	3621	3583	3583	3583	3583	3073	3129	3073	3101	3101	3101	3073	3073	3046	3046	3046	3046	3046	3019	2993	2993	2993	2967	2967	2967	2967	2967	2967	2967	2967	2942	2942	2967	2967	2967	2967	2967	2967	2993	2967	2967	2967	2967	2967	2967	2967	2967	2967	2967	2967	2967	2967	2967	2967	2967	2967	2967	2967	2967	2967	2967	2967	2967	2967	2967	2993	2993	2993	2993	2993	3019	3019	3019	3019	2993	2993	2993	2993	2993	2993	2993	2993	2967	3546	3546	3510	3510	3510	3510	3475	3510	3510	3475	3510	3510	3510	3510	3546	3546	3546	3546	3546	3546	3546	3546	3546	3546	3546	3546	3546	3546	3546	3546	3546	3546	3546	3546	3546	3546	3546	3546	3546	3546	3546	3546	3510	3510	3510	3510	3510	3510	3510	3510	3510	3510	3510	3510	3510	3510	3510	3510	3510	3510	3510	3510	3510	3475	3475	3475	3475	3475	3475	3475	3475	3475	3475	3475	3475	3475	3475	3475	3475	3510	3510	3510	3510	3510	3510	3510	3510	3510	3510	3510	3510	3475	3510	3510	3510	3510	3510	3510	3510	3510	3510	3510	3510	3510	3510	3475	3475	3475	3475	3475	3475	3475	3510	3510	3475	3510	3510	3510	3510	3510	3440	3475	3440	3475	3475	3475	3475	3475	3510	3510	3475	3475	3475	3475	3475	3475	3475	3475	3475	3475	3475	3440	3440	3440	3475	3475	3475	3475	3475	3510	3510	3475	3475	3440	3440	3440	3440	3440	3440	3440	3440	3440	3440	3440	3475	3440	3475	3440	3440	0	0	2140	2153	2153	2140	2127	2114	2101	2088	2088	2063	2051	2051	2051	2039	2039	2027	2015	2003	1992	1969	1958	1947	1936	1925	1925	1915	1915	1904	1904	1883	1883	1873	1863	1853	1843	1843	1833	1824	1824	1814	1814	1795	1795	1786	1768	1768	1759	1750	1732	1732	1723	1723	1706	1706	1698	1690	1681	1665	1673	1665	1657	1649	1634	1634	0	0	0	0	0	0	0	0	0	0	0	0	0	0	0	0	0	0	0	0	0	0	0	0	0	0	0	0	0	0	0	0	0	0	0	0	0	0	0
0	0	0	0	0	0	0	0	0	0	1263	1268	1268	1272	1277	1277	1282	1282	1287	1287	1291	1296	1301	1306	1311	1316	1321	1321	1321	1326	1336	1342	1342	1347	1352	1358	1358	1358	1363	1363	1368	1374	1379	1385	1390	1390	1396	1396	1407	1419	1431	1437	1437	1443	1455	1461	1467	1467	1473	1473	1480	1480	1486	1486	1492	1499	1499	1506	1512	1519	1525	1539	1553	1553	1560	1567	1574	1574	1574	1574	1581	1589	1589	1603	1611	1618	1634	1634	1641	1649	1657	1657	1665	1673	1681	1690	1690	1698	1706	1715	1723	1723	1732	1750	1768	1768	1786	1795	1795	1795	1804	1804	1804	1804	1833	1833	1843	1863	1883	1883	1894	1883	1894	1915	1925	1925	1925	1936	1936	0	2609	2609	2609	2609	2589	2570	2551	2551	2551	2551	2551	2532	2532	2532	2532	2532	2532	2514	2514	2532	2514	2514	2514	2532	2514	2514	2496	2496	2496	2496	2496	2496	2496	2514	2496	2496	2496	2514	2514	2514	2514	2496	2496	2496	2496	2496	2496	2496	2496	2514	2514	2514	2532	2551	2551	3510	3546	3546	3546	3546	3510	3510	3510	3546	3546	3546	3546	3546	3546	3546	3546	3546	3510	3546	3546	3546	3546	3546	3546	3546	3510	3546	3546	3510	3510	3546	3546	3546	3546	3546	3546	3546	3546	3546	3546	3546	3546	3546	3583	3583	3583	3621	3621	3621	3621	3621	3621	3621	3621	3621	3621	3621	3659	3659	3659	3621	3621	3621	3621	3621	3621	3621	3659	3659	3659	3659	3659	3659	3659	3659	3659	3659	3659	3659	3659	3659	3659	3659	3659	3659	3659	3659	3621	3621	3659	3621	3621	3621	3659	3621	3621	3621	3621	3621	3583	3583	3583	3583	3073	3101	3073	3101	3101	3073	3073	3073	3046	3046	3046	3046	3019	3019	2993	2993	2993	2993	2967	2967	2967	2967	2967	2967	2967	2942	2942	2967	2967	2967	2967	2967	2967	2967	2967	2967	2967	2967	2967	2967	2967	2967	2967	2967	2967	2967	2967	2967	2967	2942	2967	2967	2967	2967	2967	2967	2967	2967	2993	2993	2993	2993	2993	2993	3019	3019	2993	3019	2993	2993	2993	2993	2993	2993	2993	2993	2993	2967	3546	3546	3510	3510	3510	3475	3475	3475	3475	3475	3475	3475	3510	3510	3546	3546	3546	3510	3546	3546	3546	3546	3546	3546	3546	3546	3546	3546	3546	3546	3546	3546	3546	3546	3546	3546	3546	3546	3546	3546	3546	3546	3510	3510	3510	3510	3510	3510	3510	3510	3510	3510	3510	3510	3510	3510	3510	3510	3510	3510	3510	3510	3475	3475	3475	3475	3475	3475	3475	3475	3475	3475	3475	3475	3475	3475	3475	3475	3475	3510	3510	3510	3510	3510	3510	3510	3510	3510	3510	3510	3510	3510	3475	3510	3510	3510	3510	3510	3510	3510	3510	3510	3510	3510	3510	3475	3475	3510	3510	3475	3475	3475	3475	3475	3475	3510	3510	3510	3510	3475	3440	3475	3475	3475	3475	3475	3475	3475	3475	3475	3475	3475	3475	3475	3475	3475	3475	3475	3475	3475	3475	3440	3440	3440	3475	3475	3475	3475	3475	3510	3510	3475	3475	3475	3440	3440	3440	3440	3440	3440	3440	3440	3440	3440	3475	3475	3475	3475	3475	0	0	2153	2140	2140	2140	2127	2114	2101	2101	2088	2076	2063	2051	2051	2039	2027	2003	2015	2003	1992	1969	1958	1947	1936	1925	1915	1915	1915	1904	1904	1894	1883	1873	1863	1863	1853	1853	1843	1833	1824	1814	1814	1795	1795	1786	1768	1759	1759	1741	1732	1732	1732	1723	1706	1706	1698	1690	1690	1681	1673	1665	1657	1649	1634	1634	0	0	0	0	0	0	0	0	0	0	0	0	0	0	0	0	0	0	0	0	0	0	0	0	0	0	0	0	0	0	0	0	0	0	0	0	0	0	0
0	0	0	0	0	0	0	0	0	0	1263	1268	1268	1272	1272	1277	1282	1282	1287	1291	1291	1301	1301	1306	1306	1306	1311	1316	1321	1326	1336	1342	1342	1347	1352	1352	1358	1358	1363	1368	1368	1374	1379	1385	1390	1396	1396	1402	1407	1425	1431	1437	1437	1443	1455	1461	1467	1467	1473	1473	1480	1480	1486	1486	1492	1499	1499	1506	1512	1519	1532	1546	1546	1560	1560	1567	1567	1574	1574	1574	1581	1589	1603	1603	1611	1618	1634	1641	1641	1649	1657	1665	1665	1673	1681	1690	1690	1698	1698	1715	1723	1723	1732	1750	1759	1759	1768	1786	1786	1795	1804	1804	1804	1814	1814	1833	1843	1863	1883	1883	1883	1883	1894	1925	1925	1925	1936	1936	1947	1947	1947	2609	2629	2629	2629	2589	2570	2551	2551	2551	2551	2532	2532	2532	2532	2532	2514	2514	2532	2514	2514	2514	2514	2532	2532	2496	2496	2496	2496	2496	2496	2496	2496	2496	2496	2496	2514	2514	2514	2496	2514	2496	2496	2496	2496	2496	2496	2496	2496	2496	2496	2514	2532	2551	2551	3510	3546	3546	3546	3546	3546	3546	3546	3546	3546	3546	3546	3546	3546	3546	3546	3546	3546	3546	3546	3546	3546	3546	3546	3546	3546	3546	3546	3546	3546	3546	3546	3546	3546	3546	3546	3546	3546	3546	3546	3546	3546	3546	3583	3583	3621	3621	3621	3621	3621	3621	3621	3621	3583	3621	3621	3621	3659	3659	3621	3621	3621	3621	3621	3621	3621	3621	3659	3659	3659	3659	3659	3659	3659	3659	3659	3659	3659	3659	3659	3659	3659	3621	3621	3621	3621	3621	3621	3621	3621	3659	3659	3659	3659	3621	3621	3621	3621	3621	3583	3583	3583	3073	3073	3129	3073	3073	3073	3073	3046	3046	3046	3046	3046	3046	3019	3019	2993	2993	2993	2993	2993	2993	2967	2967	2967	2967	2967	2942	2942	2967	2967	2967	2967	2967	2967	2967	2967	2967	2967	2967	2967	2967	2967	2967	2967	2967	2967	2942	2967	2967	2967	2942	2967	2967	2967	2967	2967	2967	2967	2967	2993	2993	2993	2993	2993	2993	3019	3019	2993	2993	2993	2993	2993	2993	2993	2993	2993	2967	2967	2967	3510	3510	3510	3510	3475	3475	3475	3475	3475	3475	3510	3510	3510	3510	3546	3546	3546	3546	3546	3546	3510	3546	3510	3546	3510	3510	3510	3510	3510	3546	3510	3546	3546	3546	3546	3546	3546	3546	3546	3546	3510	3510	3510	3510	3510	3510	3510	3510	3510	3510	3510	3510	3510	3510	3510	3510	3510	3510	3510	3510	3510	3510	3475	3475	3475	3475	3475	3475	3475	3475	3475	3475	3475	3475	3475	3475	3475	3475	3475	3510	3510	3510	3510	3510	3510	3510	3510	3510	3510	3510	3510	3510	3475	3510	3475	3510	3510	3510	3510	3510	3510	3510	3510	3510	3475	3475	3475	3475	3475	3475	3475	3475	3475	3475	3440	3440	3440	3510	3510	3440	3440	3475	3440	3475	3440	3475	3475	3475	3475	3475	3475	3475	3475	3475	3475	3475	3475	3475	3475	3475	3475	3475	3440	3440	3475	3475	3475	3475	3475	3475	3510	3475	3475	3475	3475	3475	3440	3440	3440	3440	3440	3440	3440	3440	3475	3440	3440	3440	3475	0	0	2167	2153	2153	2140	2127	2114	2101	2101	2088	2063	2063	2051	2051	2039	2027	2003	2015	2003	1992	1969	1958	1936	1925	1925	1915	1915	1904	1904	1904	1904	1894	1883	1873	1863	1853	1853	1843	1833	1824	1814	1814	1804	1795	1786	1768	1759	1750	1741	1732	1732	1732	1723	1715	1706	1698	1690	1690	1681	1673	1665	1657	1649	1641	1634	1634	0	0	0	0	0	0	0	0	0	0	0	0	0	0	0	0	0	0	0	0	0	0	0	0	0	0	0	0	0	0	0	0	0	0	0	0	0	0
0	0	0	0	0	0	0	0	0	0	1263	1268	1268	1268	1277	1277	1282	1287	1287	1291	1291	1296	1301	1301	1306	1306	1311	1316	1321	1326	1336	1342	1342	1347	1358	1358	1358	1358	1363	1368	1374	1374	1385	1390	1390	1396	1396	1407	1419	1425	1431	1437	1437	1443	1449	1455	1467	1467	1473	1473	1480	1480	1486	1486	1492	1499	1499	1499	1512	1525	1525	1553	1553	1560	1560	1560	1567	1574	1574	1581	1581	1589	1603	1603	1611	1618	1634	1634	1641	1649	1657	1665	1673	1681	1690	1690	1698	1706	1706	1723	1723	1732	1732	1741	1750	1750	1759	1777	1786	1795	1804	1804	1804	1814	1833	1833	1853	1873	1894	1904	1904	1904	1915	1925	1925	1936	1936	1947	1958	1947	1947	1958	1980	1980	1980	1992	2003	2003	2551	2551	2551	2532	2532	2532	2532	2532	2514	2514	2514	2514	2514	2514	2532	2532	2532	2514	2496	2496	2496	2496	2496	2496	2496	2496	2496	2496	2514	2514	2496	2496	2514	2496	2496	2496	2496	2496	2496	2496	2496	2514	2496	2514	2532	2532	3510	3510	3546	3546	3546	3546	3546	3546	3546	3546	3546	3546	3546	3546	3546	3546	3546	3546	3546	3546	3546	3546	3546	3546	3546	3546	3546	3546	3510	3510	3546	3546	3546	3546	3546	3546	3546	3546	3546	3546	3546	3546	3546	3546	3583	3621	3621	3621	3621	3621	3583	3583	3583	3583	3583	3621	3621	3621	3621	3659	3621	3621	3621	3621	3621	3621	3621	3621	3659	3659	3659	3659	3659	3659	3659	3659	3659	3621	3659	3659	3659	3659	3659	3621	3621	3621	3621	3659	3621	3621	3659	3659	3659	3659	3659	3621	3621	3621	3583	3583	3583	3583	3073	3073	3073	3101	3073	3073	3073	3073	3046	3046	3019	3019	3046	3046	3019	3019	3019	3019	2993	2993	2993	2993	2967	2967	2967	2967	2967	2942	2942	2942	2967	2967	2967	2967	2967	2967	2967	2967	2967	2967	2967	2967	2967	2967	2967	2967	2942	2942	2942	2942	2942	2942	2967	2967	2967	2967	2967	2967	2967	2967	2967	2967	2993	2993	2993	2993	2993	3019	2993	2993	2993	2993	2993	2993	2993	2993	2967	2967	2967	3475	3510	3475	3475	3475	3475	3475	3475	3475	3475	3475	3510	3475	3510	3510	3546	3546	3546	3546	3546	3546	3510	3510	3510	3510	3510	3510	3510	3510	3510	3510	3510	3546	3546	3546	3546	3546	3546	3546	3546	3510	3510	3510	3510	3510	3510	3510	3510	3510	3510	3510	3510	3510	3510	3510	3510	3510	3510	3510	3510	3510	3475	3475	3475	3475	3475	3475	3475	3475	3475	3475	3475	3475	3475	3475	3475	3475	3475	3475	3475	3510	3510	3510	3510	3510	3546	3510	3510	3510	3510	3510	3510	3510	3475	3510	3475	3510	3510	3510	3510	3510	3510	3510	3510	3475	3475	3475	3475	3475	3475	3475	3475	3475	3475	3475	3440	3440	3406	3475	3475	3440	3440	3440	3440	3475	3475	3475	3475	3475	3475	3475	3475	3475	3475	3475	3475	3475	3440	3475	3475	3475	3475	3440	3440	3440	3510	3475	3475	3475	3475	3475	3475	3475	3475	3475	3475	3475	3440	3440	3440	3440	3440	3440	3440	3440	3475	3440	3475	3475	0	0	0	2167	2153	2153	2140	2127	2114	2114	2088	2088	2076	2063	2051	2051	2039	2027	2015	2015	2003	1992	1992	1958	1958	1936	1925	1925	1915	1915	1904	1904	1904	1894	1883	1873	1863	1853	1853	1843	1833	1824	1814	1814	1804	1795	1786	1768	1759	1750	1741	1741	1732	1732	1723	1723	1706	1698	1690	1690	1690	1681	1665	1657	1657	1649	1641	1641	0	0	0	0	0	0	0	0	0	0	0	0	0	0	0	0	0	0	0	0	0	0	0	0	0	0	0	0	0	0	0	0	0	0	0	0	0	0
0	0	0	0	0	0	0	0	0	0	1259	1268	1268	1272	1277	1282	1282	1287	1287	1291	1291	1296	1301	1301	1306	1306	1306	1316	1321	1326	1342	1342	1342	1347	1352	1352	1358	1358	1363	1368	1374	1374	1385	1390	1390	1390	1396	1402	1419	1425	1437	1437	1437	1443	1443	1455	1461	1467	1473	1473	1473	1480	1486	1486	1492	1499	1499	1506	1506	1525	1532	1553	1560	1560	1560	1567	1567	1574	1574	1581	1581	1596	1596	1603	1603	1611	1634	1634	1641	1649	1657	1665	1665	1681	1690	1690	1698	1706	1715	1723	1723	1732	1732	1741	1750	1750	1759	1768	1777	1795	1804	1804	1804	1814	1833	1833	1853	1873	1894	1904	1904	1904	1925	1925	1936	1936	1936	1947	1958	1958	1958	1969	1969	1980	1980	1992	2003	2015	2027	2051	2063	2076	2076	2532	2532	2514	2514	2514	2514	2514	2514	2514	2514	2532	2532	2514	2496	2514	2496	2496	2496	2496	2496	2496	2496	2496	2514	2514	2496	2496	2514	2496	2496	2496	2496	2496	2496	2496	2496	2496	2496	2496	2514	2514	3510	3475	3510	3546	3546	3546	3546	3546	3546	3546	3546	3546	3546	3546	3546	3546	3546	3546	3546	3546	3546	3546	3546	3546	3546	3546	3546	3546	3510	3510	3546	3546	3546	3546	3546	3546	3546	3546	3546	3546	3546	3546	3546	3583	3583	3583	3583	3583	3583	3621	3583	3583	3583	3583	3583	3621	3621	3659	3621	3659	3659	3621	3621	3659	3621	3621	3621	3621	3659	3659	3659	3659	3659	3659	3659	3659	3659	3659	3659	3659	3659	3659	3659	3621	3621	3621	3621	3621	3621	3621	3659	3659	3659	3659	3621	3621	3621	3621	3583	3583	3583	3583	3073	3073	3073	3073	3073	3073	3046	3046	3046	3046	3019	3019	3019	3019	3019	3019	3019	3019	3019	2993	2993	2993	2967	2967	2967	2967	2967	2942	2967	2967	2967	2967	2967	2967	2967	2967	2967	2967	2967	2967	2967	2967	2967	2967	2967	2942	2942	2942	2942	2942	2942	2942	2942	2942	2967	2967	2967	2967	2967	2967	2967	2967	2993	2993	2993	2993	2993	2993	2993	2993	2993	2993	2993	2993	2993	2993	2967	2967	2942	2942	3510	3475	3475	3475	3475	3475	3475	3475	3475	3475	3475	3475	3510	3510	3546	3546	3546	3546	3546	3510	3510	3510	3510	3510	3510	3510	3510	3510	3510	3510	3510	3510	3546	3510	3546	3546	3546	3546	3546	3546	3510	3510	3510	3510	3510	3510	3510	3510	3510	3510	3510	3510	3510	3510	3510	3510	3510	3475	3475	3475	3475	3475	3475	3475	3475	3475	3475	3475	3475	3475	3475	3475	3475	3475	3475	3475	3475	3475	3475	3510	3510	3510	3510	3510	3510	3510	3510	3510	3510	3510	3510	3510	3510	3510	3510	3510	3510	3510	3510	3510	3510	3510	3510	3475	3510	3475	3475	3475	3475	3475	3475	3475	3475	3475	3440	3475	3440	3440	3475	3475	3440	3475	3440	3475	3475	3475	3475	3475	3475	3475	3475	3475	3475	3475	3475	3475	3440	3475	3475	3475	3475	3475	3440	3440	3510	3475	3475	3475	3475	3475	3475	3475	3475	3475	3475	3440	3440	3440	3440	3440	3440	3440	3475	3475	3475	3440	3475	3475	0	0	0	2153	2153	2153	2140	2127	2127	2114	2101	2088	2076	2063	2051	2039	2039	2027	2015	2015	2003	1992	1992	1969	1947	1947	1936	1925	1915	1915	1904	1904	1904	1894	1873	1863	1863	1853	1843	1843	1833	1824	1814	1814	1804	1795	1786	1768	1768	1759	1750	1741	1741	1732	1732	1723	1706	1698	1690	1690	1690	1681	1665	1665	1657	1649	1641	1641	0	0	0	0	0	0	0	0	0	0	0	0	0	0	0	0	0	0	0	0	0	0	0	0	0	0	0	0	0	0	0	0	0	0	0	0	0	0
0	0	0	0	0	0	0	0	0	0	1263	1268	1272	1272	1277	1282	1282	1287	1287	1291	1291	1296	1301	1301	1301	1306	1306	1321	1326	1326	1342	1347	1342	1347	1352	1352	1358	1358	1368	1368	1379	1379	1385	1390	1390	1390	1396	1402	1413	1425	1437	1437	1437	1437	1443	1455	1461	1467	1467	1473	1473	1486	1486	1492	1492	1499	1499	1506	1512	1519	1532	1553	1560	1567	1567	1567	1574	1574	1581	1581	1589	1596	1603	1603	1603	1618	1634	1634	1641	1649	1657	1665	1673	1681	1690	1690	1698	1706	1706	1723	1723	1732	1741	1741	1750	1759	1759	1768	1777	1786	1795	1804	1804	1804	1824	1833	1843	1873	1894	1915	1915	1915	1925	1925	1925	1936	1947	1958	1958	1969	1969	1969	1980	1980	1992	1992	2003	2015	2027	2039	2063	2076	2076	2088	2088	2088	2514	2514	2514	2514	2514	2532	2532	2532	2514	2514	2514	2514	2514	2532	2514	2496	2496	2514	2496	2496	2496	2514	2496	2496	2496	2496	2496	2496	2496	2496	2496	2496	2496	2496	2496	2496	2514	2514	3510	3510	3546	3546	3546	3546	3546	3546	3546	3546	3546	3546	3546	3546	3546	3546	3546	3546	3546	3546	3546	3546	3546	3546	3546	3546	3546	3510	3510	3510	3546	3546	3546	3546	3546	3546	3546	3583	3546	3546	3546	3546	3546	3546	3583	3583	3583	3583	3583	3621	3583	3583	3583	3583	3583	3621	3621	3621	3621	3621	3659	3621	3621	3621	3621	3621	3621	3621	3621	3659	3659	3659	3659	3659	3659	3659	3659	3659	3659	3659	3659	3659	3621	3621	3621	3621	3621	3621	3621	3621	3621	3659	3659	3659	3659	3621	3621	3621	3621	3621	3621	3583	3073	3073	3073	3101	3073	3046	3046	3046	3046	3046	3019	3019	3019	3019	3019	3019	3019	3019	2993	2993	2993	2967	2967	2967	2967	2967	2967	2942	2967	2967	2967	2967	2967	2967	2967	2967	2967	2967	2967	2967	2967	2967	2967	2967	2967	2942	2942	2942	2942	2942	2942	2942	2942	2942	2967	2942	2942	2967	2967	2967	2967	2967	2993	2993	2993	2993	2993	2993	2993	2993	2993	2993	2967	2967	2967	2993	2993	2967	2967	3510	3510	3475	3475	3475	3475	3475	3475	3475	3475	3475	3510	3475	3510	3510	3546	3510	3510	3510	3510	3510	3510	3510	3510	3510	3510	3510	3510	3510	3510	3510	3510	3510	3546	3546	3546	3546	3546	3546	3546	3546	3546	3546	3510	3510	3510	3510	3510	3510	3510	3510	3510	3510	3510	3510	3510	3510	3475	3475	3475	3475	3475	3475	3475	3475	3475	3475	3475	3475	3475	3475	3475	3475	3475	3475	3475	3475	3475	3475	3475	3510	3510	3510	3510	3510	3510	3510	3510	3510	3510	3510	3510	3510	3510	3510	3475	3475	3475	3510	3510	3510	3510	3510	3510	3475	3510	3475	3475	3475	3475	3475	3475	3475	3475	3475	3475	3475	3440	3475	3475	3475	3475	3475	3475	3475	3475	3475	3475	3475	3475	3475	3475	3440	3475	3440	3440	3440	3440	3475	3475	3406	3406	3440	3440	3440	3475	3440	3475	3475	3475	3475	3475	3475	3475	3475	3475	3440	3440	3440	3440	3440	3440	3440	3440	3440	3440	3440	3440	3440	0	0	0	2153	2153	2140	2140	2127	2114	2114	2088	2088	2051	2051	2039	2039	2027	2015	2015	2003	1992	1992	1980	1958	1947	1947	1936	1925	1915	1915	1904	1904	1894	1883	1873	1863	1863	1843	1853	1843	1833	1833	1824	1814	1804	1795	1786	1777	1768	1759	1759	1750	1741	1732	1732	1723	1706	1698	1698	1690	1690	1681	1665	1657	1657	1649	1634	1634	0	0	0	0	0	0	0	0	0	0	0	0	0	0	0	0	0	0	0	0	0	0	0	0	0	0	0	0	0	0	0	0	0	0	0	0	0	0
0	0	0	0	0	0	0	0	0	0	1259	1263	1272	1277	1277	1282	1287	1287	1291	1296	1296	1301	1301	1306	1306	1306	1311	1321	1326	1331	1342	1342	1342	1342	1347	1347	1352	1352	1363	1368	1379	1379	1385	1390	1390	1390	1396	1402	1413	1419	1431	1431	1437	1437	1443	1449	1461	1467	1467	1467	1473	1480	1486	1492	1499	1499	1499	1506	1512	1519	1525	1546	1553	1567	1567	1567	1574	1574	1581	1581	1589	1596	1603	1603	1603	1618	1634	1634	1641	1649	1657	1665	1673	1681	1690	1690	1698	1706	1706	1723	1723	1732	1732	1732	1741	1750	1759	1768	1777	1786	1795	1795	1804	1804	1814	1833	1843	1873	1883	1904	1904	1904	1915	1925	1925	1936	1947	1958	1969	1969	1969	1980	1980	1980	1992	1992	1992	2015	2027	2039	2063	2063	2076	2088	2088	2088	2514	2496	2514	2514	2514	2514	2514	2514	2514	2496	2514	2514	2514	2532	2514	2514	2514	2514	2514	2496	2496	2514	2496	2496	2496	2496	2496	2496	2496	2496	2496	2496	2514	2514	2496	2496	2496	3546	3510	3510	3510	3546	3546	3546	3546	3546	3546	3546	3546	3546	3546	3546	3546	3546	3546	3546	3546	3546	3546	3546	3546	3546	3546	3546	3546	3546	3546	3546	3546	3546	3546	3546	3546	3546	3583	3583	3583	3546	3546	3546	3546	3546	3546	3546	3583	3583	3583	3621	3583	3583	3583	3583	3621	3621	3621	3621	3621	3621	3621	3621	3621	3621	3659	3621	3659	3659	3698	3659	3659	3659	3659	3659	3659	3659	3659	3659	3659	3659	3621	3621	3621	3621	3621	3621	3621	3659	3659	3659	3659	3659	3659	3659	3659	3621	3621	3621	3621	3621	3621	3621	3073	3073	3101	3101	3073	3073	3046	3046	3046	3019	3019	3019	3019	3019	3019	2993	2993	2993	2993	2993	2967	2967	2967	2967	2967	2967	2967	2967	2967	2967	2967	2967	2967	2967	2967	2967	2967	2967	2967	2967	2967	2967	2967	2967	2967	2942	2942	2917	2942	2917	2942	2917	2917	2917	2967	2942	2942	2942	2967	2967	2967	2967	2993	2993	2993	2993	2993	2993	2993	2993	2993	2967	2967	2967	2967	2993	2967	2967	2967	2967	3510	3475	3475	3475	3475	3475	3475	3475	3475	3475	3510	3475	3510	3510	3510	3510	3510	3510	3510	3510	3510	3510	3510	3510	3510	3510	3510	3510	3510	3510	3510	3510	3546	3510	3546	3546	3546	3546	3546	3510	3510	3510	3546	3510	3510	3510	3510	3510	3510	3510	3510	3510	3510	3510	3510	3510	3475	3475	3475	3475	3475	3475	3475	3475	3475	3475	3475	3475	3475	3475	3475	3475	3475	3475	3475	3475	3475	3475	3475	3510	3510	3510	3510	3510	3510	3510	3510	3510	3510	3510	3510	3510	3510	3510	3510	3475	3475	3475	3475	3475	3475	3475	3510	3475	3475	3475	3475	3475	3475	3475	3475	3475	3475	3475	3475	3475	3440	3475	3475	3475	3475	3475	3475	3475	3475	3475	3475	3475	3475	3475	3475	3440	3475	3440	3440	3440	3406	3440	3440	3440	3440	3440	3440	3440	3475	3440	3440	3440	3440	3440	3475	3475	3475	3475	3475	3475	3475	3440	3440	3440	3440	3440	3440	3440	3440	3440	3406	3406	0	0	2153	2153	2153	2140	2140	2140	2114	2101	2088	2088	2076	2051	2039	2039	2027	2027	2015	2003	1992	1992	1992	1958	1947	1947	1936	1925	1915	1915	1904	1904	1894	1883	1873	1863	1863	1843	1843	1843	1833	1833	1824	1814	1804	1804	1786	1777	1768	1759	1759	1750	1741	1732	1732	1723	1706	1698	1698	1690	1681	1673	1665	1657	1657	1649	1641	1641	0	0	0	0	0	0	0	0	0	0	0	0	0	0	0	0	0	0	0	0	0	0	0	0	0	0	0	0	0	0	0	0	0	0	0	0	0	0
0	0	0	0	0	0	0	0	0	0	1254	1263	1268	1277	1282	1282	1287	1291	1296	1296	1301	1301	1301	1306	1301	1306	1306	1321	1326	1331	1336	1342	1342	1342	1352	1352	1358	1363	1368	1368	1379	1385	1385	1385	1390	1396	1396	1402	1413	1419	1437	1437	1437	1437	1443	1449	1449	1467	1467	1467	1473	1480	1486	1492	1499	1499	1506	1512	1512	1525	1532	1546	1553	1567	1567	1567	1574	1574	1581	1581	1589	1596	1603	1603	1603	1611	1634	1634	1641	1649	1657	1665	1665	1681	1690	1698	1706	1706	1715	1723	1723	1732	1732	1741	1750	1750	1759	1768	1777	1786	1795	1795	1804	1804	1814	1814	1833	1853	1873	1883	1894	1904	1904	1925	1925	1936	1947	1958	1969	1969	1969	1980	1980	1980	1992	1992	2003	2015	2015	2039	2051	2063	2076	2088	2088	2101	2101	2514	2514	2514	2532	2532	2514	2532	2514	2514	2514	2514	2532	2532	2514	2514	2514	2514	2514	2496	2496	2514	2496	2496	2496	2496	2496	2496	2496	2496	2496	2496	2496	2496	2496	2496	2496	2496	3510	3510	3546	3583	3546	3546	3546	3546	3546	3546	3583	3583	3546	3546	3546	3546	3546	3546	3546	3546	3546	3546	3546	3546	3546	3546	3546	3546	3546	3546	3546	3546	3546	3546	3546	3546	3546	3583	3546	3546	3546	3546	3546	3546	3583	3583	3546	3583	3621	3621	3583	3583	3583	3583	3583	3583	3583	3621	3621	3621	3621	3621	3621	3621	3621	3659	3659	3659	3659	3659	3659	3659	3659	3659	3659	3659	3621	3659	3621	3621	3621	3621	3621	3621	3621	3621	3621	3659	3659	3621	3659	3621	3621	3621	3659	3621	3621	3621	3621	3621	3659	3659	3659	3073	3073	3073	3073	3073	3046	3046	3046	3019	3019	3019	3019	2993	2993	2993	2993	2993	2993	2993	2993	2967	2967	2967	2967	2967	2967	2967	2942	2967	2967	2967	2967	2967	2967	2967	2967	2967	2967	2967	2967	2967	2967	2967	2967	2942	2942	2942	2942	2917	2942	2917	2942	2942	2942	2942	2942	2967	2967	2967	2967	2993	2993	2993	2993	2993	2993	2993	2993	2993	2993	2967	2967	2967	2967	2967	2967	2967	2942	2942	3510	3475	3475	3475	3475	3475	3475	3475	3475	3475	3475	3475	3475	3510	3510	3510	3510	3510	3510	3510	3510	3510	3510	3510	3510	3510	3510	3510	3510	3510	3510	3510	3510	3510	3510	3510	3510	3546	3510	3510	3510	3510	3546	3510	3510	3510	3510	3510	3510	3510	3510	3510	3510	3510	3510	3475	3475	3475	3475	3475	3475	3475	3475	3475	3475	3475	3475	3475	3475	3475	3475	3475	3475	3475	3475	3475	3475	3475	3475	3510	3510	3510	3510	3510	3510	3510	3510	3510	3510	3510	3510	3510	3475	3475	3510	3475	3475	3475	3475	3475	3475	3475	3475	3475	3475	3475	3475	3475	3475	3475	3475	3475	3475	3475	3475	3440	3440	3475	3440	3475	3475	3475	3440	3475	3440	3440	3475	3475	3475	3475	3475	3440	3475	3440	3440	3406	3406	3440	3440	3440	3440	3406	3406	3406	3440	3440	3440	3440	3440	3440	3440	3440	3475	3475	3440	3440	3440	3440	3440	3440	3440	3440	3440	3440	3440	3440	3440	3440	0	0	2153	2153	2153	2153	2140	2127	2114	2114	2101	2088	2076	2051	2039	2039	2027	2027	2015	2003	1992	1992	1980	1958	1947	1947	1936	1925	1915	1915	1904	1904	1904	1894	1873	1863	1863	1843	1843	1843	1833	1833	1824	1814	1804	1804	1786	1777	1768	1759	1759	1750	1741	1732	1723	1723	1723	1706	1698	1690	1681	1673	1665	1657	1657	1649	1649	1649	0	0	0	0	0	0	0	0	0	0	0	0	0	0	0	0	0	0	0	0	0	0	0	0	0	0	0	0	0	0	0	0	0	0	0	0	0	0
