0	0	0	0	0	0	0	0	0	0	0	0	0	726	728	729	729	731	731	734	734	743	745	747	748	750	752	755	755	763	763	765	765	768	770	770	780	784	784	786	788	789	793	800	802	804	804	806	810	814	814	815	831	833	833	835	839	843	848	852	858	860	865	867	869	869	880	884	887	891	896	896	903	905	910	913	917	917	920	922	922	925	930	935	935	937	935	935	930	930	940	0	0	0	0	0	0	0	0	0	0	4463	4581	4581	4643	4643	4643	4643	4643	4643	4581	4581	4581	4581	4581	4581	4581	4581	4581	4643	4581	4581	4643	4581	4581	4521	4581	4581	4581	4581	4521	4581	4581	4581	4581	4521	4521	4521	4521	4521	4521	4463	4463	4463	4463	4463	4463	4521	4521	4521	4581	4521	4521	4581	4581	4581	4643	4706	4706	0	0	0	0	0	0	0	0	0	0	0	0	0	4977	5050	4977	4977	4977	4977	4977	4977	4977	4977	4977	4977	4977	4977	4977	4977	4977	4977	4977	4906	4906	4977	4977	4906	4906	4906	4906	4906	0	0	0	0	0	0	0	0	0	0	0	0	0	0	0	0	6992	6992	6992	6992	7137	7137	7608	7608	7608	7779	7779	7779	7779	0	0	0	0	0	0	7608	7608	7608	7608	7608	7608	7779	7779	7959	7959	7959	8146	8146	8146	8146	8343	8343	8343	8343	7959	7779	7779	7608	7779	7779	7779	7779	7959	7959	8146	8146	0	0	0	0	3510	3475	3440	3440	3440	3440	3406	3406	3406	3406	3440	3440	3440	3440	3440	3440	3440	3440	3440	3440	3440	3475	3475	3475	3475	3440	3440	3440	3440	3440	3440	3440	3440	3440	3406	3406	3406	3373	3406	3373	3373	3373	3406	3406	3406	3440	3475	3475	3510	3510	0	0	0	0	0	0	0	0	0	0	0	0	4581	4581	4581	4581	4581	4581	4581	4521	4521	4521	4521	4521	4463	4463	4521	4521	4521	4521	4521	4521	4521	4521	4521	4463	4463	4406	4406	4406	4350	4350	4296	4243	4243	4192	4243	4296	4296	4296	4296	4350	4350	4296	4296	4243	4243	4192	4192	4192	4243	4296	4296	4296	4296	4350	4296	4350	4350	4350	4350	4350	4406	4406	4406	4350	4406	4350	4350	4350	4406	4463	4463	4463	4463	4463	4463	4350	4350	4350	4350	4350	4350	4350	4296	4296	4350	4296	4296	4350	4350	4406	4350	4350	4350	4296	4296	4296	4296	4296	4243	4296	4296	4296	4296	4296	4296	4296	4296	4243	4296	4192	4192	4192	4142	4142	4142	4142	4142	4142	4142	4142	4142	4142	4142	4142	4142	4192	4142	4142	4142	4142	4142	4142	4142	4142	4142	4142	4142	4142	4142	4142	4142	4142	4142	4142	4142	4192	4192	4192	4243	4243	4243	4192	4192	4192	4192	4192	4192	4142	4142	4142	4142	4142	4142	4142	4192	4192	4142	4142	4142	4142	4142	4142	4142	4093	4142	4142	4142	4142	4142	4142	4142	4142	4142	4142	4192	4296	4350	4406	4463	4463	4463	4463	4521	4581	4838	4906	4906	4977	4977	4906	4906	4906	4906	4838	4906	4838	4838	4838	4906	4906	4906	4906	4906	4906	4906	4906	4906	4906	4906	4977	4977	4977	5050	5050	5202	5125	5202	5202	5050	5050	4977	4977	4906	4977	4977	4977	4977	4977	0	0	0	0	0	0	0	0	0	0	0	0	0	0	0	0	0	5202	5202	5202	5202	5202	5282	5282	5282	5282	5448	5535	5815	5815	5915	5915	5915	5915	0	0	0	0	0	0	0	0	0	0	0	0	0	0	0	0	0	0	0	0	0	0	0	0	0	0	0	0	0	0	0	0	0	0	0	0
0	0	0	0	0	0	0	0	0	0	0	0	0	726	728	729	731	732	732	736	736	742	743	745	748	750	752	753	753	763	763	763	765	767	768	768	782	784	786	786	788	789	789	798	800	800	806	808	812	814	815	815	833	833	833	835	839	843	850	854	860	860	865	867	869	869	873	882	887	891	896	898	905	908	913	913	915	917	920	920	922	925	932	930	935	937	935	935	932	927	930	930	0	0	0	0	0	0	0	4406	4406	4463	4581	4643	4643	4643	4643	4643	4643	4643	4643	4581	4581	4581	4581	4581	4581	4643	4643	4643	4643	4581	4643	4581	4581	4581	4581	4643	4643	4581	4581	4581	4581	4581	4581	4581	4521	4521	4581	4521	4521	4521	4463	4463	4463	4463	4521	4521	4521	4521	4581	4581	4521	4581	4581	4643	4643	4706	4643	4643	0	0	0	0	0	0	0	0	0	0	0	0	0	5050	4977	4977	4977	4977	4977	4977	4977	4977	4977	4977	4977	4977	4977	4977	4977	4977	4977	4977	4906	4906	4906	4906	4906	4906	0	0	0	0	0	0	0	0	0	0	0	0	0	0	0	0	0	0	6853	6992	6992	6992	7137	7137	7287	7287	7608	7608	7608	7608	7608	0	0	0	0	0	0	0	7608	7608	7608	7608	7608	7608	7779	7779	7779	7959	8146	8146	8146	8146	8343	8343	8343	8343	7959	7959	7779	7608	7608	7608	7779	7779	7779	7959	8146	8146	0	0	0	0	3510	3475	3440	3440	3440	3440	3406	3406	3406	3406	3406	3406	3440	3440	3440	3440	3440	3440	3440	3406	3440	3475	3475	3475	3475	3475	3440	3440	3440	3440	3440	3440	3440	3440	3406	3406	3406	3373	3406	3373	3373	3373	3406	3406	3406	3440	3475	3475	3510	3510	0	0	0	0	0	0	0	0	0	0	0	0	4581	4581	4581	4581	4581	4581	4521	4521	4521	4463	4521	4521	4463	4463	4521	4521	4521	4521	4521	4521	4521	4521	4521	4463	4463	4406	4406	4406	4350	4350	4296	4296	4243	4243	4243	4296	4296	4296	4463	4463	4350	4350	4350	4296	4296	4243	4192	4296	4350	4350	4296	4406	4350	4350	4406	4406	4406	4406	4406	4406	4406	4463	4463	4463	4463	4463	4350	4406	4463	4463	4463	4463	4463	4463	4463	4463	4406	4350	4350	4350	4350	4350	4350	4350	4350	4350	4350	4350	4406	4406	4463	4350	4350	4350	4350	4350	4350	4350	4296	4296	4296	4296	4296	4296	4296	4296	4296	4243	4243	4192	4192	4142	4142	4142	4142	4142	4142	4142	4142	4142	4142	4142	4142	4142	4142	4142	4142	4142	4142	4142	4142	4142	4142	4142	4142	4142	4142	4142	4142	4142	4142	4142	4093	4142	4142	4142	4142	4192	4192	4243	4243	4243	4243	4243	4243	4192	4142	4142	4142	4142	4142	4142	4142	4142	4142	4192	4192	4142	4142	4142	4142	4093	4093	4093	4093	4142	4093	4142	4142	4142	4142	4142	4142	4192	4192	4296	4350	4406	4463	4463	4463	4463	4521	4581	4838	4838	4906	4906	4977	4906	4906	4906	4906	4838	4906	4838	4838	4906	4906	4906	4906	4906	4906	4838	4906	4838	4906	4906	4906	4977	4977	5050	5050	5125	5125	5125	5125	5125	5125	5050	4977	4906	4906	4977	4977	4977	4977	4977	0	0	0	0	0	0	0	0	0	0	0	0	0	0	0	0	0	5202	5202	5202	5202	5282	5282	5282	5282	5364	5448	5626	5719	5719	5815	5815	5915	0	0	0	0	0	0	0	0	0	0	0	0	0	0	0	0	0	0	0	0	0	0	0	0	0	0	0	0	0	0	0	0	0	0	0	0	0
0	0	0	0	0	0	0	0	0	0	719	720	720	722	722	728	731	732	732	734	736	736	743	745	747	750	750	750	750	763	763	763	765	767	772	773	780	780	782	784	786	788	788	797	797	806	808	810	812	814	814	837	837	835	835	837	841	845	852	856	860	860	865	867	867	869	873	878	887	891	896	898	905	908	913	913	915	917	920	922	922	925	927	930	932	937	935	935	932	930	932	932	0	0	0	0	0	0	0	4406	4406	0	0	4581	4643	4643	4581	4643	4643	4643	4643	4643	4643	4643	4643	4643	4643	4643	4643	4643	4643	4643	4643	4643	4581	4581	4581	4643	4643	4581	4581	4581	4581	4581	4581	4581	4463	4521	4463	4463	4463	4463	4463	4463	4521	4521	4521	4521	4521	4521	4581	4581	4581	4643	4581	4643	4643	4643	4643	4838	4906	4906	0	0	0	0	0	0	0	0	0	0	0	0	4977	4977	4977	4977	4977	4977	4977	4977	4977	4977	4977	4977	4977	4977	4977	4977	4977	4906	4906	4906	4906	4906	4906	0	0	0	0	0	0	0	0	0	0	0	0	0	0	0	0	0	0	6992	6853	6992	6992	6992	6992	6992	7137	7137	7287	7444	7444	7608	7608	0	0	0	0	0	0	0	0	7608	7608	7608	7608	7608	7779	7779	7779	7959	7959	8146	8146	8146	8343	8343	8343	8343	8146	7959	7959	7779	7779	7779	7779	7779	7779	7959	7959	7959	0	0	0	0	0	3475	3440	3440	3440	3440	3406	3406	3406	3406	3406	3406	3440	3440	3440	3440	3440	3406	3406	3406	3406	3440	3440	0	3475	3475	3440	3440	3440	3440	3440	3440	3440	3440	3406	3406	3406	3373	3406	3373	3373	3373	3373	3406	3440	3440	3475	3475	3510	3510	0	0	0	0	0	0	0	0	0	0	0	4581	4581	4581	4581	4581	4581	4521	4521	4521	4521	4463	4521	4463	4521	4521	4521	4521	4521	4521	4521	4521	4521	4521	4463	4463	4406	4406	4406	4406	4406	4350	4350	4296	4243	4192	4243	4296	4296	4350	4463	4463	4463	4406	4350	4350	4350	4296	4243	4406	4296	4350	4350	4463	4406	4463	4463	4463	4463	4463	4406	4463	4463	4463	4463	4463	4463	4463	4406	4463	4463	4521	4463	4463	4463	4463	4463	4463	4406	4406	4406	4350	4350	4350	4350	4350	4350	4350	4406	4406	4406	4406	4463	4350	4350	4406	4350	4350	4350	4350	4350	4350	4350	4296	4350	4296	4296	4296	4296	4243	4296	4243	4192	4142	4142	4142	4142	4142	4142	4142	4142	4142	4142	4192	4142	4142	4192	4142	4142	4142	4142	4142	4142	4142	4142	4142	4192	4142	4142	4142	4142	4142	4142	4142	4093	4093	4142	4142	4192	4192	4192	4296	4243	4243	4243	4243	4243	4192	4142	4142	4093	4093	4093	4142	4142	4142	4192	4192	4192	4142	4093	4093	4093	4093	4093	4093	4093	4142	4093	4142	4142	4142	4142	4142	4142	4192	4243	4296	4350	4406	4463	4463	4463	4463	4521	4581	4906	4906	4906	4906	4906	4906	4906	4906	4906	4838	4838	4838	4838	4838	4906	4906	4906	4906	4906	4906	4906	4906	4906	4906	4906	4977	4977	4977	5050	5050	5125	5125	5125	5050	4977	4977	4977	4906	4906	4977	4977	4977	4977	0	0	0	0	0	0	0	0	0	0	0	0	0	0	0	0	0	0	0	5202	5202	5202	5282	5282	5282	5282	5364	5448	5282	5535	5535	5535	5815	0	0	0	0	0	0	0	0	0	0	0	0	0	0	0	0	0	0	0	0	0	0	0	0	0	0	0	0	0	0	0	0	0	0	0	0	0	0
0	0	0	0	0	708	708	710	710	717	714	720	720	722	725	725	732	732	732	736	736	739	743	745	747	750	752	752	755	756	756	760	760	765	772	770	777	780	780	782	786	788	788	798	798	806	808	808	810	812	812	831	835	835	835	837	841	843	852	856	858	860	860	867	869	869	873	875	887	894	896	898	903	908	913	915	917	920	920	922	922	925	927	927	930	940	940	942	942	942	932	932	0	0	0	0	0	0	0	4406	4463	4581	4581	4581	4643	4643	4643	4643	4643	4643	4643	4643	4643	4706	4643	4643	4643	4643	4643	4643	4643	4643	4643	4643	4581	4581	4581	4643	4643	4643	4581	4643	4581	4581	4581	4581	4463	4463	4463	4463	4463	4463	4463	4463	4521	4521	4521	4521	4521	4581	4581	4581	4581	4643	4643	4643	4643	4706	4706	4838	4838	4643	4643	0	0	0	0	0	0	0	0	0	0	5125	5050	5050	5050	5050	5050	4977	4977	4977	4977	4977	4977	4977	4977	4977	4977	4977	4977	4906	4906	4906	0	0	0	0	0	0	0	0	0	0	0	0	0	0	0	0	0	0	0	0	0	6992	6853	6853	6853	6992	6992	6992	6992	7137	7137	7287	7287	0	0	0	0	0	0	0	0	0	0	0	7779	7779	7779	7779	7779	7779	7779	7959	7959	7959	8146	8146	8343	8343	8343	8343	8146	7959	7959	7779	7779	7779	7779	7779	7959	7779	7779	7959	7959	0	0	0	0	3475	3475	3440	3440	3406	3406	3406	3406	3406	3406	3406	3440	3440	3440	3440	3440	3440	3406	3406	3406	3406	3440	0	0	0	3440	3440	3440	3440	3475	3440	3440	3440	3440	3406	3406	3373	3373	3373	3373	3373	3373	3406	3406	3440	3475	3475	3510	3510	0	0	0	0	0	0	0	0	0	0	0	4521	4521	4581	4581	4521	4521	4521	4521	4521	4521	4463	4521	4521	4521	4521	4521	4521	4521	4521	4521	4521	4463	4463	4463	4406	4406	4406	4406	4406	4406	4350	4350	4296	4243	4296	4350	4296	4350	4463	4463	4521	4463	4463	4463	4463	4406	4350	4350	4406	4406	4463	4463	4463	4463	4463	4521	4521	4521	4521	4463	4521	4463	4463	4463	4463	4463	4463	4406	4463	4463	4463	4463	4463	4463	4463	4463	4463	4406	4406	4406	4406	4350	4350	4350	4350	4350	4350	4406	4406	4406	4406	4406	4406	4406	4406	4350	4350	4350	4350	4350	4350	4350	4296	4296	4296	4296	4296	4243	4243	4243	4192	4192	4142	4142	4142	4142	4142	4142	4142	4142	4142	4142	4142	4142	4142	4142	4142	4142	4142	4142	4142	4142	4142	4142	4142	4192	4142	4142	4142	4142	4142	4142	4093	4045	4045	4093	4142	4192	4192	4192	4296	4243	4243	4243	4192	4192	4192	4142	4142	4093	4093	4093	4093	4093	4093	4142	4192	4142	4142	4093	4093	4093	4093	4093	4093	4093	4093	4093	4142	4142	4142	4142	4142	4192	4192	4243	4296	4350	4406	4406	4406	4463	4463	4463	4463	4906	4906	4906	4906	4906	4906	4906	4906	4906	4838	4906	4906	4838	4838	4838	4906	4906	4906	4906	4906	4906	4906	4906	4906	4906	4977	4977	5050	5050	5050	5125	5125	5050	5050	4977	4977	4977	4906	4906	4977	4977	4977	0	0	0	0	0	0	0	0	0	0	0	0	0	0	0	0	0	0	0	0	0	5202	5202	5282	5282	5282	5282	5282	5282	5282	5282	5282	5535	0	0	0	0	0	0	0	0	0	0	0	0	0	0	0	0	0	0	0	0	0	0	0	0	0	0	0	0	0	0	0	0	0	0	0	0	0	0	0
0	0	0	0	0	708	708	710	710	710	719	719	719	722	726	729	731	731	734	734	737	740	743	745	747	750	748	748	752	752	758	761	761	765	768	773	779	780	780	782	786	789	788	789	808	806	808	810	810	810	810	831	831	829	831	837	841	843	854	856	858	858	860	867	867	869	873	875	884	891	894	896	903	910	913	913	915	917	920	922	922	925	932	932	935	937	937	937	937	937	937	0	0	0	0	0	0	0	0	0	4643	4643	4581	4581	4643	4581	4581	4643	4643	4643	4643	4643	4643	4643	4643	4643	4643	4643	4643	4706	4643	4643	4643	4643	4581	4581	4581	4581	4643	4581	4581	4581	4581	4581	4521	4521	4463	4463	4463	4463	4463	4463	4463	4463	4521	4463	4463	4463	4463	4521	4521	4521	4581	4643	4643	4706	4643	4706	4838	4838	4838	4838	4838	4838	0	0	0	0	0	0	0	0	5125	5050	5050	5050	5050	5050	5050	4977	4977	4977	4977	4977	4977	4977	4977	4906	4906	4906	4906	4906	4906	4906	0	0	0	0	0	0	0	0	0	0	0	0	0	0	0	0	0	0	0	0	0	6992	6853	6853	6853	6853	6992	6992	6853	6992	6992	7137	7137	0	0	0	0	0	0	0	0	0	0	0	7779	7779	7779	7779	7959	7779	7779	7959	7959	7959	8146	8146	8146	8343	8343	8343	8146	8146	7959	7959	7779	7779	7779	7779	7779	7779	7608	7608	7608	0	0	0	0	3510	3475	3440	3440	3406	3406	3406	3406	3440	3406	3406	3440	3440	3440	3440	3406	3440	3406	3406	3406	3406	0	0	0	0	3406	3440	3440	3440	3475	3440	3440	3440	3440	3406	3406	3406	3406	3373	3373	3373	3373	3406	3406	3406	3475	3475	3475	3510	3510	0	0	0	0	0	0	0	0	0	0	4581	4581	4581	4581	4521	4521	4521	4521	4521	4521	4463	4521	4521	4521	4521	4521	4521	4521	4521	4521	4521	4521	4463	4463	4463	4463	4406	4463	4463	4463	4463	4350	4296	4296	4296	4350	4350	4350	4463	4463	4521	4463	4463	4463	4463	4463	4406	4350	4406	4406	4406	4463	4463	4463	4463	4463	4463	4463	4463	4463	4463	4463	4463	4406	4463	4463	4463	4406	4463	4463	4463	4463	4463	4463	4406	4463	4463	4463	4406	4406	4406	4406	4406	4350	4350	4406	4406	4350	4350	4406	4406	4406	4406	4406	4406	4406	4350	4406	4406	4350	4350	4296	4296	4296	4296	4296	4296	4243	4192	4243	4192	4192	4142	4142	4142	4142	4192	4192	4192	4192	4192	4192	4192	4142	4142	4142	4142	4142	4142	4142	4142	4142	4142	4142	4142	4192	4142	4142	4142	4142	4142	4142	4093	4045	4045	4093	4142	4142	4192	4192	4192	4243	4192	4192	4192	4192	4142	4142	4093	4093	4142	4142	4142	4142	4142	4142	4192	4142	4142	4093	4093	4093	4093	4093	4093	4093	4093	4093	4142	4142	4142	4192	4192	4192	4192	4192	4350	4350	4406	4406	4406	4463	4463	4463	4463	4906	4906	4906	4906	4906	4906	4906	4906	4906	4838	4838	4838	4906	4838	4906	4906	4906	4906	4906	4906	4906	4906	4906	4906	4906	4977	4977	4977	4977	4977	5050	5050	5050	5050	4977	4977	4977	4906	4906	4977	4977	4977	0	0	0	0	0	0	0	0	0	0	0	0	0	0	0	0	0	0	0	0	0	0	5202	5282	5282	5202	5202	5364	5282	5202	5202	5282	5282	0	0	0	0	0	0	0	0	0	0	0	0	0	0	0	0	0	0	0	0	0	0	0	0	0	0	0	0	0	0	0	0	0	0	0	0	0	0	0
0	0	0	0	0	0	707	708	710	711	716	719	719	723	725	725	731	731	734	736	739	742	743	745	747	747	748	748	753	760	758	760	763	767	768	768	777	780	780	782	788	789	788	795	806	806	808	810	812	812	812	831	831	831	831	833	837	848	852	856	858	858	860	865	867	869	873	875	880	887	889	896	898	908	913	915	917	920	920	922	922	925	927	927	927	930	935	937	937	937	937	0	0	0	0	0	0	0	0	0	4643	4643	4643	4643	4643	4581	4521	4581	4643	4643	4581	4643	4643	4643	4643	4643	4581	4643	4581	4581	4643	4521	4521	4581	4521	4521	4521	4581	4581	4581	4581	4581	4581	4521	4521	4521	4521	4463	4463	4463	4463	4463	4463	4463	4463	4463	4463	4463	4463	4521	4521	4521	4581	4706	4706	4706	4706	4771	4838	4838	4838	4838	4838	4838	0	0	0	0	0	0	0	0	5050	5050	4977	4977	4977	4977	4977	4977	4977	4977	4977	4977	4977	4906	4977	4906	4906	4906	4906	4906	4906	4977	4977	0	0	0	0	0	0	0	0	0	0	0	0	0	0	0	0	0	0	0	0	6853	6853	6992	6992	6992	6992	6992	6853	6992	6992	6992	7137	0	0	0	0	0	0	0	7779	7779	7779	7959	7959	7959	7779	7779	7779	7779	7779	7779	7779	7959	7959	8146	8146	8343	8343	8146	7959	7959	7959	7959	7779	7779	7779	7779	7779	7608	7608	7608	7608	7608	0	0	3546	3510	3475	3440	3440	3406	3406	3406	3406	3406	3406	3406	3440	3440	3440	3440	3440	3440	3440	3440	3440	3440	0	0	0	0	3406	3440	3440	3440	3440	3440	3440	3440	3440	3406	3406	3406	3406	3406	3406	3373	3373	3406	3406	3440	3440	3475	3510	3546	3546	3546	0	0	0	0	0	0	0	0	4581	4581	4581	4581	4581	4521	4521	4521	4521	4521	4521	4463	4521	4521	4521	4521	4521	4521	4521	4521	4521	4521	4521	4463	4463	4463	4463	4406	4463	4463	4463	4463	4350	4296	4296	4296	4350	4350	4350	4406	4406	4521	4463	4463	4463	4463	4463	4406	4406	4406	4406	4406	4463	4463	4406	4463	4463	4463	4463	4463	4463	4463	4463	4406	4406	4406	4406	4406	4406	4406	4463	4463	4406	4406	4406	4406	4463	4463	4463	4406	4463	4406	4406	4406	4406	4350	4406	4406	4350	4350	4350	4406	4406	4463	4463	4463	4463	4463	4406	4406	4406	4350	4350	4350	4350	4296	4296	4296	4243	4192	4243	4243	4192	4142	4192	4192	4192	4192	4192	4142	4192	4192	4192	4192	4142	4142	4192	4192	4192	4192	4192	4192	4192	4192	4142	4142	4192	4142	4142	4142	4142	4142	4142	4142	4045	4045	4093	4142	4192	4192	4192	4243	4192	4192	4192	4192	4192	4142	4142	4093	4142	4142	4142	4142	4142	4142	4142	4192	4142	4142	4093	4093	4093	4093	4093	4093	4093	4093	4093	4142	4142	4192	4192	4192	4192	4192	4192	4243	4350	4406	4406	4406	4406	4463	4463	4463	4838	4906	4906	4906	4906	4906	4906	4906	4906	4838	4838	4906	4906	4838	4906	4906	4906	4906	4906	4906	4906	4906	4906	4906	4906	4977	4977	4977	4977	4977	5050	5050	5050	5050	5050	4977	4977	4977	4906	4977	4977	4977	4977	0	0	0	0	0	0	0	0	0	0	0	0	0	0	0	0	0	0	0	0	0	0	5282	5282	5202	5282	5364	5282	5282	5202	5364	5364	0	0	0	0	0	0	0	0	0	0	0	0	0	0	0	0	0	0	0	0	0	0	0	0	0	0	0	0	0	0	0	0	0	0	0	0	0	0	0
0	0	0	0	0	0	707	710	710	713	716	717	717	722	722	725	728	728	732	734	734	743	743	745	747	748	750	752	755	760	760	760	765	768	770	773	779	780	780	782	788	789	789	793	802	806	808	808	810	810	810	831	833	831	833	833	837	848	852	856	858	860	862	865	869	871	873	878	880	884	887	891	896	903	917	915	917	917	920	920	920	925	927	927	932	932	935	940	940	940	940	0	0	0	0	0	0	0	0	0	0	4643	4643	4643	4643	4581	4581	4581	4581	4643	4581	4581	4643	4643	4643	4581	4581	4643	4581	4581	4521	4521	4521	4581	4581	4521	4521	4581	4581	4581	4581	4581	4581	4521	4521	4521	4521	4521	4463	4521	4463	4521	4521	4521	4521	4463	4463	4463	4463	4521	4521	4581	4581	4706	4706	4706	4706	4771	4771	4838	4838	4771	4771	0	0	0	0	0	0	0	0	0	4977	4977	4977	4977	4977	5050	4977	4977	4977	4977	4977	4977	4906	4906	4906	4906	4906	4906	4906	4906	4906	4906	4906	0	0	0	0	0	0	0	0	0	0	0	0	0	0	0	0	0	0	0	6992	6853	6853	6853	6992	6992	6992	6992	6992	6992	6992	6992	0	0	0	0	0	0	7959	7779	7779	7779	7779	7779	7779	7779	7779	7779	7779	7779	7779	7779	7779	7959	7959	7959	8146	8146	8343	8146	8146	7959	7959	7959	7779	7779	7779	7779	7779	7608	7608	7608	7608	7608	0	0	3546	3510	3475	3440	3440	3406	3406	3406	3406	3406	3406	3440	3440	3440	3440	3440	3440	3440	3440	3475	3475	3475	0	0	0	0	3406	3440	3475	3475	3475	3440	3440	3440	3440	3406	3406	3406	3406	3406	3406	3406	3406	3406	3406	3440	3475	3475	3510	3510	3510	3546	0	0	0	0	0	0	0	0	4581	4521	4521	4581	4521	4521	4521	4521	4521	4521	4521	4521	4521	4521	4521	4521	4521	4521	4521	4521	4521	4521	4463	4463	4463	4463	4463	4463	4463	4463	4463	4463	4350	4296	4192	4192	4350	4350	4406	4406	4463	4463	4463	4463	4463	4463	4463	4463	4406	4406	4463	4463	4463	4406	4406	4406	4463	4406	4406	4463	4406	4406	4406	4406	4406	4406	4406	4406	4406	4406	4406	4406	4406	4350	4406	4406	4406	4406	4406	4406	4406	4406	4406	4350	4350	4350	4350	4350	4350	4350	4406	4406	4463	4463	4463	4463	4463	4463	4463	4463	4406	4406	4350	4350	4350	4296	4296	4296	4243	4192	4243	4243	4192	4192	4192	4192	4192	4192	4192	4142	4192	4192	4192	4192	4192	4192	4192	4192	4192	4243	4243	4192	4192	4192	4192	4192	4192	4192	4142	4142	4142	4142	4142	4142	4045	4093	4142	4192	4192	4243	4192	4243	4192	4192	4192	4192	4192	4192	4142	4093	4142	4142	4142	4142	4142	4142	4142	4192	4192	4142	4093	4093	4142	4093	4093	4093	4093	4093	4093	4142	4192	4142	4192	4192	4192	4192	4192	4243	4350	4350	4350	4406	4463	4521	4643	4771	4838	4838	4906	4977	4906	4906	4906	4838	4838	4838	4838	4838	4838	4906	4906	4906	4906	4906	4906	4906	4906	4906	4906	4906	4906	4906	4977	4977	4977	4977	5050	5125	5050	5050	5202	5125	4977	4977	4906	4977	4977	4977	4977	0	0	0	0	0	0	0	0	0	0	0	0	0	0	0	0	0	0	0	0	0	0	0	5282	5202	5282	5448	5282	5282	5202	5448	5535	5535	5535	5719	5815	5815	5815	0	0	0	0	0	0	0	0	0	0	0	0	0	0	0	0	0	0	0	0	0	0	0	0	0	0	0	0	0	0	0	0	0
0	0	0	0	0	0	0	710	711	714	716	716	716	716	723	725	728	728	728	737	740	743	743	745	747	747	750	752	755	760	760	760	765	768	772	773	777	779	780	782	788	789	789	791	800	802	806	808	810	810	823	831	831	831	831	833	837	848	852	856	858	858	860	865	869	871	873	875	880	884	887	891	896	898	905	913	917	917	920	922	922	925	927	927	932	935	937	940	940	940	940	0	0	0	0	0	0	0	0	0	0	4643	4643	4643	4643	4643	4581	4581	4581	4581	4581	4581	4581	4581	4581	4581	4581	4581	4581	4581	4521	4521	4521	4521	4521	4521	4521	4521	4521	4521	4581	4581	4521	4521	4521	4521	4521	4463	4463	4463	4463	4463	4521	4463	4521	4463	4463	4463	4521	4521	4521	4581	4581	4643	4643	4643	4643	4706	4771	4838	4838	4838	4771	0	0	0	0	0	0	0	0	0	4977	4977	4977	4977	4977	4977	4977	4977	4977	4977	4977	4977	4906	4906	4977	4906	4906	4906	4906	4838	4838	4838	4906	0	0	0	0	0	0	0	0	0	0	0	0	0	0	0	0	0	0	0	6853	6853	6853	6853	6853	6853	6853	6853	6720	6720	6992	6992	0	0	0	0	0	7779	7779	7779	7779	7779	7779	7779	7779	7779	7779	7779	7779	7779	7779	7779	7779	7779	7959	7959	7959	7959	7959	7959	7959	7959	7959	7959	7959	7779	7779	7779	7608	7608	7608	7608	7608	7608	0	0	0	3510	3440	3440	3440	3406	3406	3406	3406	3406	3406	3406	3440	3440	3440	3440	3440	3440	3475	3475	3475	3475	0	0	0	0	3440	3475	3475	3475	3475	3440	3440	3440	3440	3406	3406	3406	3406	3406	3406	3406	3406	3406	3406	3440	3475	3475	3510	3510	3510	0	0	0	0	0	0	0	0	0	4581	4521	4521	4521	4521	4521	4521	4521	4521	4521	4521	4521	4521	4521	4521	4521	4521	4521	4521	4521	4521	4463	4463	4463	4463	4463	4463	4463	4463	4463	4463	4463	4463	4350	4296	4296	4350	4296	4350	4350	4406	4463	4463	4463	4463	4463	4463	4463	4406	4463	4463	4463	4463	4463	4463	4463	4406	4406	4406	4463	4406	4406	4406	4406	4350	4406	4406	4406	4406	4406	4406	4406	4406	4350	4406	4406	4406	4406	4406	4406	4406	4406	4406	4406	4350	4350	4406	4350	4406	4406	4406	4406	4406	4463	4463	4463	4406	4463	4463	4463	4406	4406	4350	4350	4350	4350	4296	4243	4192	4192	4243	4192	4192	4192	4192	4192	4192	4192	4192	4192	4192	4192	4192	4192	4192	4192	4243	4243	4243	4243	4243	4243	4192	4192	4192	4192	4192	4243	4192	4243	4243	4192	4192	4142	4093	4142	4350	4296	4243	4243	4243	4243	4192	4192	4192	4192	4192	4192	4142	4142	4093	4192	4142	4192	4192	4192	4192	4243	4243	4192	4142	4142	4142	4142	4142	4093	4093	4093	4142	4192	4192	4192	4192	4192	4192	4192	4192	4243	4296	4350	4350	4406	4463	4521	4521	4771	4838	4906	4906	4977	4906	4906	4838	4838	4838	4838	4838	4838	4838	4906	4906	4906	4906	4906	4906	4906	4906	4906	4906	4906	4906	4906	4977	4977	4977	4977	4977	5050	5050	5050	5125	4977	4977	4906	4906	4977	4977	4977	4977	4977	0	0	0	0	0	0	0	0	0	0	0	0	0	0	0	0	0	0	0	0	0	0	0	0	0	5448	5202	5202	5202	5448	5448	5535	5535	5719	5719	5815	5815	0	0	0	0	0	0	0	0	0	0	0	0	0	0	0	0	0	0	0	0	0	0	0	0	0	0	0	0	0	0	0	0	0
0	0	0	0	0	0	0	0	711	713	713	716	716	716	723	725	728	729	729	736	737	743	743	747	747	748	752	753	755	761	763	765	767	768	772	773	777	779	782	782	788	789	789	795	802	804	806	808	810	812	823	829	831	829	829	833	841	848	852	856	858	858	860	867	869	871	873	878	878	882	882	891	894	896	903	910	915	917	920	922	922	925	927	927	932	932	937	937	940	940	940	0	0	0	0	0	0	0	0	0	4643	4643	4643	4643	4581	4581	4581	4581	4581	4643	4581	4581	4581	4581	4581	4581	4581	4581	4581	4581	4521	4521	4521	4521	4521	4521	4521	4521	4521	4521	4521	4581	4521	4521	4521	4521	4521	4463	4463	4521	4521	4521	4521	4521	4521	4521	4463	4521	4521	4521	4581	4581	4581	4643	4643	4643	4643	4706	4706	4771	4771	4838	0	0	0	0	0	0	0	0	4977	4977	4977	4977	4977	4977	4977	4977	4977	4977	4977	4977	4977	4977	4906	4906	4906	4906	4906	4906	4906	4838	4838	4838	4838	0	0	0	0	0	0	0	0	0	0	0	0	0	0	0	0	0	0	6992	6853	6853	6853	6853	6853	6853	6853	6853	6720	6720	0	0	0	0	0	0	0	7779	7779	7779	7779	7779	7779	7779	7779	7779	7779	7779	7779	7779	7779	7779	7779	7779	7779	7779	7779	7959	7959	7959	7959	7959	7779	7779	7779	7779	7608	7779	7779	7608	7608	7608	7608	7608	0	0	0	3510	3440	3440	3406	3406	3406	3406	3406	3406	3406	3406	3440	3440	3440	3440	3440	3440	3475	3475	3475	3475	0	0	0	0	3440	3475	3475	3475	3475	3440	3440	3440	3440	3440	3406	3406	3406	3406	3406	3406	3406	3406	3406	3406	3475	3475	3510	3546	3546	0	0	0	0	0	0	0	0	0	0	4521	4521	4521	4521	4521	4521	4521	4521	4521	4521	4521	4521	4521	4521	4521	4521	4521	4521	4521	4521	4463	4463	4463	4463	4463	4463	4463	4463	4463	4463	4463	4463	4350	4350	4350	4350	4350	4350	4350	4406	4463	4521	4521	4463	4463	4463	4463	4463	4463	4463	4463	4463	4463	4463	4463	4406	4406	4406	4406	4406	4406	4406	4406	4350	4406	4406	4406	4406	4406	4406	4406	4406	4350	4406	4406	4406	4406	4406	4406	4406	4406	4406	4406	4406	4406	4406	4406	4406	4406	4406	4406	4406	4406	4463	4463	4406	4463	4463	4463	4406	4406	4406	4350	4350	4350	4296	4243	4192	4192	4192	4192	4192	4192	4192	4192	4192	4243	4243	4192	4192	4192	4192	4192	4192	4243	4243	4296	4296	4296	4296	4296	4243	4243	4296	4350	4296	4350	4296	4243	4243	4243	4243	4192	4192	4350	4350	4350	4296	4296	4296	4296	4243	4192	4243	4243	4192	4243	4192	4192	4142	4243	4192	4192	4192	4192	4243	4296	4243	4243	4192	4192	4192	4142	4142	4093	4142	4093	4142	4192	4192	4192	4192	4192	4192	4192	4142	4192	4243	4296	4350	4406	4463	4463	4463	4521	4771	4838	4906	4906	4906	4906	4906	4838	4838	4838	4838	4838	4838	4906	4906	4906	4906	4906	4906	4906	4906	4906	4906	4906	4906	4906	4906	4977	4977	4977	4977	4977	4977	4977	4977	4906	4906	4906	4906	4977	4906	4906	4906	4906	0	0	0	0	0	0	0	0	0	0	0	0	0	0	0	0	0	0	0	0	0	0	0	0	0	5282	5282	5282	5282	5364	5448	5535	5535	5815	5815	5815	5815	0	0	0	0	0	0	0	0	0	0	0	0	0	0	0	0	0	0	0	0	0	0	0	0	0	0	0	0	0	0	0	0	0
0	0	0	0	0	0	0	0	711	713	713	714	714	716	0	714	714	729	729	736	743	743	745	747	747	748	750	753	755	761	763	765	767	770	772	773	777	779	780	782	786	789	791	798	804	806	806	808	810	812	823	827	829	829	829	833	837	841	850	854	856	858	862	862	869	871	875	878	880	887	887	891	896	896	898	910	920	920	922	922	925	927	927	927	932	932	932	937	940	940	940	0	0	0	0	0	0	0	0	0	4643	4643	4643	4643	4581	4581	4581	4581	4643	4643	4643	4581	4581	4581	4581	4581	4581	4581	4581	4581	4521	4521	4521	4521	4521	4521	4521	4521	4521	4521	4521	4521	4521	4521	4521	4521	4521	4521	4521	4521	4643	4521	4521	4521	4521	4521	4521	4521	4521	4521	4581	4581	4581	4643	4643	4643	4643	4706	4706	4706	4771	0	0	0	0	0	0	0	0	0	4906	4906	4977	4977	4977	4977	4977	4977	4977	4977	4977	5050	4977	4977	4977	4977	4977	4906	4906	4906	4906	4906	4906	4838	4838	0	0	0	0	0	0	0	0	0	0	0	0	0	0	0	0	0	0	6992	6853	6720	6720	6720	6720	6720	6592	6468	6468	0	0	0	0	0	0	0	7779	7779	7779	7779	7779	7779	7779	7779	7779	7779	7608	7608	7779	7779	7779	7779	7959	7959	7959	7779	7779	7959	7959	7959	7779	7779	7779	7779	7779	7779	7779	7779	7779	7779	7779	7608	7608	7608	0	0	0	0	3440	3440	3440	3406	3406	3406	3406	3440	3406	3440	3440	3440	3440	3440	3440	3440	3475	3475	3475	3475	0	0	0	0	0	3440	3440	3440	3440	3440	3440	3440	3440	3440	3406	3406	3406	3406	3406	3406	3406	3406	3406	3406	3475	3475	3475	3510	3510	0	0	0	0	0	0	0	0	0	4521	4521	4521	4521	4521	4521	4521	4521	4521	4521	4521	4521	4521	4521	4521	4521	4521	4521	4521	4521	4463	4463	4463	4463	4463	4463	4463	4463	4463	4521	4521	4463	4463	4350	4350	4350	4350	4350	4406	4350	4406	4463	4463	4463	4463	4463	4463	4463	4463	4463	4463	4463	4463	4463	4463	4406	4406	4406	4406	4406	4350	4350	4406	4406	4350	4406	4406	4406	4406	4406	4406	4406	4350	4350	4406	4406	4406	4406	4406	4406	4406	4406	4406	4406	4406	4406	4406	4406	4406	4406	4406	4406	4463	4463	4463	4463	4406	4463	4463	4463	4463	4406	4406	4406	4350	4350	4296	4243	4192	4192	4192	4192	4243	4192	4192	4192	4243	4296	4296	4243	4243	4243	4243	4243	4296	4296	4296	4350	4350	4350	4350	4350	4350	4350	4296	4296	4296	4350	4350	4296	4296	4350	4350	4350	4350	4406	4406	4350	4350	4350	4296	4296	4296	4243	4243	4243	4243	4243	4243	4192	4192	4350	4243	4243	4243	4243	4243	4296	4296	4296	4243	4296	4243	4192	4192	4142	4142	4142	4142	4192	4192	4192	4192	4192	4192	4192	4192	4192	4243	4350	4350	4406	4463	4463	4521	4581	4706	4771	4838	4906	4906	4906	4906	4838	4838	4838	4838	4838	4838	4906	4838	4906	4906	4906	4906	4906	4906	4906	4906	4906	4906	4906	4906	4906	4906	4906	4977	4977	4977	4977	4977	4906	4906	4906	4838	4906	4906	4906	4906	4906	0	0	0	0	0	0	0	0	0	0	0	0	0	0	0	0	0	0	0	0	0	0	0	0	0	5282	5282	5282	5282	5282	5448	5448	5448	5915	5915	5915	5915	5915	0	0	0	0	0	0	0	0	0	0	0	0	0	0	0	0	0	0	0	0	0	0	0	0	0	0	0	0	0	0	0	0
0	0	0	0	0	0	0	0	0	713	713	719	719	0	0	714	714	0	0	0	740	743	745	745	747	747	750	752	755	760	763	765	767	772	773	775	777	779	782	782	788	795	798	800	804	806	806	808	810	812	821	825	829	831	831	833	835	839	843	843	856	860	865	869	871	873	875	878	882	887	889	891	894	896	898	901	922	920	922	922	925	925	925	925	930	930	935	937	940	940	940	0	0	0	0	0	0	0	0	0	0	4581	4643	4643	4643	4643	4581	4581	4643	4643	4581	4581	4581	4581	4581	4581	4581	4581	4581	4581	4521	4521	4521	4521	4521	4521	4521	4521	4521	4521	4521	4521	4521	4521	4521	4521	4521	4521	4521	4521	4643	4581	4521	4521	4521	4521	4521	4521	4521	4581	4581	4581	4581	4643	4643	4643	4643	4643	4706	4706	0	0	0	0	0	0	0	0	0	0	4906	4906	4906	4977	4977	4977	4977	5050	5050	4977	4977	4977	4977	4977	4977	4977	4977	4906	4906	4906	4906	4906	4906	4838	4838	0	0	0	0	0	0	0	0	0	0	0	0	0	0	0	0	0	0	6853	6853	6720	6720	6592	6592	6720	6720	6468	6468	0	0	0	0	0	0	0	7779	7779	7779	7779	7779	7779	7779	7779	7779	7779	7779	7779	7779	7779	7779	7779	7959	7959	7959	7779	7779	7959	7959	7779	7779	7779	7779	7779	7779	7608	7608	7779	7779	7779	7779	7779	7608	7608	0	0	0	0	3440	3440	3440	3406	3406	3406	3406	3406	3406	3406	3440	3440	3440	3440	3440	3440	3440	3475	3475	3475	0	0	0	0	0	3440	3440	3440	3440	3440	3440	3440	3440	3440	3406	3406	3406	3406	3406	3406	3406	3406	3406	3440	3475	3475	3475	3475	3510	0	0	0	0	0	0	0	0	0	4521	4521	4521	4521	4521	4521	4521	4521	4521	4521	4521	4521	4521	4521	4521	4521	4521	4521	4521	4463	4463	4463	4463	4463	4463	4463	4463	4463	4463	4463	4463	4463	4463	4350	4243	4192	4192	4243	4350	4350	4406	4463	4463	4463	4463	4463	4463	4463	4463	4463	4463	4463	4463	4463	4463	4406	4406	4406	4406	4406	4406	4350	4406	4406	4350	4406	4406	4406	4406	4406	4406	4406	4350	4350	4350	4406	4406	4406	4406	4406	4406	4406	4406	4406	4406	4406	4406	4406	4406	4406	4406	4406	4406	4406	4406	4406	4406	4406	4406	4463	4463	4406	4406	4406	4350	4350	4296	4243	4243	4192	4192	4192	4243	4243	4192	4350	4350	4406	4350	4296	4296	4296	4296	4296	4350	4350	4350	4350	4350	4350	4350	4350	4350	4350	4350	4350	4350	4350	4350	4350	4350	4350	4350	4350	4350	4350	4406	4406	4350	4350	4350	4350	4350	4296	4243	4350	4350	4350	4350	4243	4296	4350	4296	4296	4296	4296	4296	4350	4350	4350	4296	4350	4296	4296	4243	4192	4192	4192	4192	4192	4192	4192	4192	4192	4192	4192	4243	4243	4350	4350	4350	4406	4463	4463	4521	4521	4643	4771	4838	4838	4906	4838	4906	4838	4838	4838	4838	4838	4838	4906	4838	4906	4906	4906	4906	4906	4906	4906	4906	4906	4906	4906	4906	4906	4906	4906	4977	4977	4977	4977	4977	4906	4906	4906	4906	4977	4906	4906	4906	4906	4906	0	0	0	0	0	0	0	0	0	0	0	0	0	0	0	0	0	0	0	0	0	0	0	0	5282	5282	5282	5202	5282	5282	5915	5915	5915	5915	5915	5915	5915	0	0	0	0	0	0	0	0	0	0	0	0	0	0	0	0	0	0	0	0	0	0	0	0	0	0	0	0	0	0	0	0
0	0	0	0	0	0	0	0	0	0	0	717	717	0	0	0	0	0	0	0	740	743	745	745	747	747	748	752	755	761	763	765	768	773	779	777	779	780	782	782	786	793	797	800	802	806	806	812	814	817	821	825	829	831	831	835	835	839	841	852	856	860	867	869	871	873	878	880	882	887	889	891	894	896	898	903	922	920	925	922	922	925	925	925	927	932	932	935	937	937	937	0	0	0	0	0	0	0	0	0	0	4521	4581	4643	4643	4643	4581	4643	4643	4643	4581	4581	4581	4581	4581	4581	4581	4581	4581	4643	4581	4581	4581	4581	4521	4521	4521	4521	4521	4521	4521	4521	4463	4521	4521	4463	4521	4521	4521	4521	4521	4521	4521	4521	4521	4521	4521	4521	4521	4581	4581	4581	4581	4581	4643	4643	4643	4643	4706	4706	0	0	0	0	0	0	0	0	4838	4906	4906	4838	4838	4977	4906	4906	4906	4977	4977	4977	4977	4977	4977	4977	4977	4977	4977	4906	4906	4906	4906	4906	4838	4838	4838	0	0	0	0	0	0	0	0	0	0	0	0	0	0	0	0	0	0	6853	6853	6853	6720	6592	6592	6592	6720	0	0	0	0	0	0	0	0	0	8146	7779	7779	7779	7779	7779	7779	7779	7779	7779	7779	7779	7779	7779	7779	7779	7779	7779	7779	7779	7779	7779	7779	7779	7779	7779	7779	7779	7779	7608	7779	7779	7779	7779	7608	7608	7779	7779	0	0	0	0	3475	3440	3440	3440	3406	3406	3406	3406	3406	3406	3440	3440	3440	3440	3440	3440	3440	3440	3475	3475	0	0	0	0	0	3440	3440	3475	3440	3440	3440	3440	3440	3440	3406	3406	3406	3406	3406	3406	3406	3406	3406	3440	3475	3475	3475	3475	0	0	0	0	0	0	0	0	0	0	0	4521	4521	4521	4521	4521	4521	4521	4521	4521	4521	4521	4521	4521	4521	4521	4521	4521	4521	4521	4463	4463	4463	4521	4463	4463	4463	4463	4463	4521	4463	4463	4463	4350	4243	4192	4142	4243	4296	4296	4350	4406	4463	4463	4463	4463	4463	4463	4463	4463	4463	4463	4463	4463	4406	4406	4350	4350	4406	4406	4350	4350	4406	4406	4406	4463	4463	4406	4463	4406	4406	4406	4406	4350	4406	4406	4406	4406	4406	4406	4406	4406	4406	4406	4406	4406	4406	4406	4463	4463	4406	4406	4406	4406	4406	4406	4406	4406	4406	4406	4406	4406	4350	4406	4350	4350	4296	4296	4296	4243	4243	4243	4243	4243	4243	4350	4350	4350	4406	4406	4350	4406	4406	4406	4406	4406	4406	4406	4406	4406	4406	4406	4406	4406	4350	4350	4350	4406	4406	4350	4350	4350	4406	4350	4350	4350	4406	4406	4406	4406	4350	4350	4350	4350	4296	4350	4350	4350	4350	4350	4350	4350	4350	4350	4350	4350	4350	4350	4350	4350	4350	4350	4296	4296	4296	4243	4243	4243	4243	4192	4192	4192	4192	4192	4192	4192	4243	4296	4350	4350	4406	4406	4406	4406	4463	4463	4581	4771	4838	4906	4906	4838	4906	4906	4906	4838	4838	4838	4838	4906	4906	4906	4906	4906	4906	4906	4906	4906	4906	4906	4906	4906	4906	4906	4906	4906	4977	4906	4906	4906	4906	4906	4906	4906	4906	4906	4906	4906	4906	4838	4838	0	0	0	0	0	0	0	0	0	0	0	0	0	0	0	0	0	0	0	0	0	0	0	0	0	5282	5282	5202	5282	5282	5915	5915	6018	5915	6018	5915	5915	0	0	0	0	0	0	0	0	0	0	0	0	0	0	0	0	0	0	0	0	0	0	0	0	0	0	0	0	0	0	0	0
0	0	0	0	0	0	0	0	0	717	717	717	717	717	0	0	0	0	0	0	739	743	743	743	745	747	752	753	756	761	765	767	768	773	779	777	779	780	782	782	789	797	797	798	802	804	804	810	814	817	819	823	829	831	831	835	837	839	841	850	856	862	867	869	871	873	878	878	882	887	889	894	896	898	898	903	917	917	922	922	922	925	925	925	927	932	932	935	935	935	935	0	0	0	0	0	0	0	0	0	0	4581	4581	4643	4643	4643	4643	4643	4643	4643	4643	4581	4581	4581	4581	4581	4581	4581	4581	4581	4581	4581	4581	4581	4521	4521	4521	4521	4521	4521	4521	4521	4521	4521	4521	4463	4521	4521	4521	4521	4521	4521	4521	4521	4521	4521	4521	4581	4521	4521	4581	4581	4581	4581	4581	4643	4643	4643	4643	4706	0	0	0	0	4906	4906	4906	0	4838	4906	4906	4838	4906	4906	4906	4906	4906	4977	4977	4977	4977	4977	4977	4977	4977	4977	4977	4977	4906	4906	4906	4906	4771	4771	4771	0	0	0	0	0	0	0	0	0	0	0	0	0	0	0	0	0	0	6853	6853	6720	6592	6592	6468	6468	0	0	0	0	0	0	0	0	7959	7779	7959	7779	7779	7779	7779	7779	7779	7779	7779	7779	7779	7779	7779	7779	7779	7779	7779	7779	7779	7779	7779	7779	7779	7779	7779	7779	7779	7779	7779	7779	7779	7779	7779	7779	7608	7608	7608	7608	0	0	0	0	3475	3475	3440	3440	3440	3440	3406	3406	3406	3406	3406	3440	3440	3440	3440	3440	3440	3440	3440	3440	0	0	0	0	0	3440	3440	3440	3440	3440	3440	3440	3440	3440	3406	3406	3406	3406	3406	3406	3406	3406	3406	3406	3440	3440	3440	3440	0	0	0	0	0	0	0	0	0	0	0	0	4521	4521	4521	4521	4521	4521	4521	4521	4521	4521	4521	4521	4521	4521	4521	4521	4521	4521	4463	4463	4463	4521	4463	4463	4463	4463	4463	4521	4463	4463	4463	4350	4296	4192	4142	4192	4296	4350	4406	4463	4463	4463	4463	4463	4463	4463	4463	4463	4463	4463	4463	4406	4406	4406	4350	4350	4406	4406	4406	4406	4406	4406	4406	4463	4463	4463	4463	4406	4406	4406	4350	4350	4350	4406	4406	4406	4406	4406	4406	4406	4406	4406	4406	4406	4406	4406	4463	4463	4406	4406	4406	4350	4350	4350	4350	4406	4406	4406	4406	4406	4350	4350	4350	4350	4296	4296	4296	4243	4243	4243	4243	4243	4350	4406	4406	4406	4406	4406	4406	4406	4406	4406	4406	4406	4406	4406	4406	4406	4406	4406	4406	4406	4406	4406	4406	4406	4406	4406	4406	4406	4406	4406	4406	4406	4406	4406	4406	4406	4406	4350	4406	4406	4350	4350	4350	4350	4406	4406	4350	4350	4350	4350	4350	4350	4350	4350	4350	4350	4350	4350	4350	4350	4350	4296	4296	4296	4243	4243	4243	4243	4243	4192	4192	4192	4243	4350	4350	4350	4406	4406	4406	4406	4406	4463	4643	4771	4838	4838	4906	4838	4906	4906	4906	4838	4838	4838	4838	4906	4906	4906	4906	4906	4906	4906	4906	4906	4906	4906	4906	4906	4906	4906	4906	4906	4977	4906	4977	4906	4906	4906	4838	4906	4906	4906	4906	4906	4906	4838	4838	0	0	0	0	0	0	0	0	0	0	0	0	0	0	0	0	0	0	0	0	0	0	0	0	0	5282	5282	5202	5202	5202	6018	6018	6018	5915	6018	5915	5915	0	0	0	0	0	0	0	0	0	0	0	0	0	0	0	0	0	0	0	0	0	0	0	0	0	0	0	0	0	0	0	0
0	0	0	0	0	0	0	0	0	717	717	717	717	717	0	0	0	0	0	739	739	742	743	742	743	747	752	753	755	760	763	765	770	773	775	775	779	780	782	784	791	795	797	798	800	800	802	814	815	817	819	823	829	829	831	833	837	839	841	854	860	862	865	869	869	875	875	878	880	884	889	896	898	903	903	910	917	917	922	925	925	925	925	925	927	930	930	932	935	935	935	0	0	0	0	0	0	0	0	0	0	4463	4521	4581	4643	4643	4643	4643	4643	4643	4643	4581	4581	4581	4581	4581	4643	4643	4581	4581	4581	4581	4581	4581	4521	4581	4581	4581	4581	4521	4521	4521	4521	4521	4521	4463	4463	4521	4521	4463	4521	4521	4521	4521	4521	4521	4521	4521	4521	4521	4521	4521	4521	4521	4581	4581	4643	4643	4706	4706	0	0	0	0	4906	4906	4906	4906	4906	4906	4977	4906	4977	4977	4906	4977	4977	4906	4977	4977	4977	4977	4977	4977	4977	4977	4977	4906	4906	4906	4906	4906	4906	4838	4838	4838	0	0	0	0	0	0	0	0	0	0	0	0	0	0	0	0	0	6853	6853	6592	6592	6468	6468	6468	0	0	0	0	0	0	0	0	7959	7608	7779	7779	7779	7779	7779	7779	7779	7779	7779	7779	7779	7779	7779	7779	7779	7779	7779	7779	7779	7779	7779	7779	7779	7779	7779	7608	7608	7608	7779	7608	7779	7779	7779	7779	7779	7608	7608	7608	0	0	0	0	3440	3440	3440	3440	3440	3440	3440	3406	3406	3406	3406	3440	3440	3440	3440	3440	3440	3440	3475	3475	0	0	0	0	3440	3440	3440	3440	3440	3440	3440	3440	3440	3440	3406	3406	3406	3406	3406	3406	3406	3406	3406	3406	3440	3440	3440	3440	0	0	0	0	0	0	0	0	0	0	0	0	4521	4521	4521	4521	4521	4521	4521	4521	4521	4521	4521	4521	4521	4521	4521	4521	4521	4521	4463	4463	4463	4463	4463	4463	4463	4463	4463	4521	4463	4463	4463	4463	4243	4192	4142	4142	4296	4406	4463	4463	4463	4521	4463	4463	4463	4463	4463	4463	4463	4463	4406	4406	4406	4406	4350	4350	4406	4406	4406	4406	4406	4406	4406	4463	4463	4463	4463	4406	4406	4406	4350	4350	4350	4406	4406	4406	4406	4463	4406	4406	4406	4406	4406	4463	4406	4406	4463	4406	4406	4406	4350	4350	4350	4350	4350	4350	4350	4406	4406	4350	4350	4406	4350	4350	4296	4243	4243	4243	4243	4243	4243	4350	4406	4406	4406	4406	4406	4406	4406	4406	4463	4406	4406	4406	4406	4406	4406	4406	4406	4406	4406	4406	4406	4406	4406	4406	4406	4406	4406	4406	4406	4406	4406	4406	4406	4406	4406	4406	4406	4406	4406	4406	4350	4350	4350	4350	4406	4406	4406	4350	4350	4350	4406	4406	4406	4350	4406	4350	4350	4350	4350	4350	4350	4296	4296	4296	4296	4243	4243	4243	4243	4192	4192	4192	4192	4243	4296	4350	4406	4406	4463	4406	4463	4463	4643	4771	4838	4838	4906	4838	4906	4906	4906	4838	4838	4838	4838	4906	4906	4906	4906	4906	4906	4906	4838	4838	4838	4838	4838	4838	4838	4906	4906	4906	4977	4906	4977	4906	4906	4906	4838	4906	4906	4977	4906	4906	4906	0	0	0	0	0	0	0	0	0	0	0	0	0	0	0	0	0	0	0	0	0	0	0	0	0	0	0	5202	5282	5202	5202	5202	6018	5915	5915	5915	5915	5915	5915	5915	0	0	0	0	0	0	0	0	0	0	0	0	0	0	0	0	0	0	0	0	0	0	0	0	0	0	0	0	0	0	0
0	0	0	0	0	0	0	0	719	717	719	717	717	719	719	0	0	0	737	739	740	743	743	743	745	747	750	753	756	760	763	767	770	772	775	775	777	780	784	788	793	793	797	798	800	804	806	814	815	817	819	821	827	831	831	833	837	839	850	852	858	862	865	867	869	873	875	878	880	887	889	894	898	903	905	913	917	917	922	925	925	925	927	927	930	932	932	932	935	935	935	935	0	0	0	0	0	0	0	0	0	4463	4581	4643	4581	4581	4581	4581	4581	4643	4581	4643	4581	4581	4581	4581	4643	4643	4581	4581	4581	4643	4581	4581	4581	4581	4581	4581	4581	4521	4521	4521	4521	4521	4521	4463	4463	4521	4521	4463	4463	4521	4521	4521	4521	4521	4581	4581	4521	4521	4521	4521	4521	4521	4581	4581	4581	4643	4643	4771	4771	4771	4771	4771	4771	4906	4906	4977	4977	4977	4977	4906	4977	4977	4906	4977	4977	4906	4977	4977	4977	4977	4977	4977	4906	4906	4906	4906	4906	4906	4906	4906	4906	4838	4838	4838	0	0	0	0	0	0	0	0	0	0	0	0	0	0	0	0	0	6992	6853	6853	6592	6592	6468	0	0	0	0	0	0	0	0	0	0	7779	7779	7779	7779	7779	7779	7779	7959	7779	7779	7779	7779	7779	7779	7779	7779	7779	7779	7779	7779	7779	7779	7779	7779	7779	7779	7608	7608	7779	7779	7779	7779	7779	7779	7779	7779	7779	7779	7779	0	0	0	0	3440	3440	3440	3440	3440	3440	3440	3406	3406	3406	3406	3406	3440	3440	3440	3440	3475	3475	3475	3475	0	0	0	0	3440	3440	3440	3440	3440	3440	3440	3440	3406	3406	3406	3406	3406	3406	3406	3406	3406	3406	3406	3406	3440	3440	3440	3440	0	0	0	0	0	0	0	0	0	0	0	0	4521	4521	4521	4521	4521	4521	4521	4521	4521	4521	4521	4521	4521	4521	4521	4521	4521	4521	4463	4463	4463	4463	4463	4463	4463	4521	4521	4521	4521	4521	4521	4350	4296	4192	4142	4142	4296	4350	4463	4463	4521	4521	4463	4463	4463	4463	4463	4463	4463	4463	4463	4463	4463	4406	4406	4406	4406	4406	4406	4350	4406	4406	4406	4463	4463	4463	4463	4406	4406	4406	4350	4350	4350	4406	4406	4406	4406	4463	4406	4406	4406	4463	4463	4463	4463	4463	4463	4463	4406	4406	4406	4350	4350	4350	4350	4406	4350	4406	4406	4350	4350	4350	4350	4296	4243	4243	4243	4243	4243	4243	4296	4350	4350	4350	4406	4406	4406	4406	4406	4406	4406	4406	4406	4406	4406	4406	4406	4406	4406	4463	4463	4463	4463	4463	4463	4463	4463	4406	4406	4406	4406	4463	4463	4406	4463	4463	4406	4406	4406	4406	4406	4406	4406	4350	4350	4350	4406	4406	4406	4406	4350	4406	4406	4406	4406	4350	4406	4350	4350	4350	4350	4350	4350	4350	4296	4350	4296	4243	4243	4243	4243	4192	4192	4192	4243	4350	4296	4350	4406	4406	4406	4406	4463	4463	4643	4771	4838	4838	4906	4906	4906	4906	4906	4838	4906	4906	4906	4906	4906	4906	4906	4906	4906	4906	4838	4838	4838	4838	4838	4838	4838	4906	4906	4977	4977	4906	4977	4977	4977	4906	4838	4838	4906	4977	4906	4906	4906	0	0	0	0	0	0	0	0	0	0	0	0	0	0	0	0	0	0	0	0	0	0	0	0	0	0	0	5202	5202	5125	5125	5202	0	6018	6018	5915	5915	5915	5915	5915	0	0	0	0	0	0	0	0	0	0	0	0	0	0	0	0	0	0	0	0	0	0	0	0	0	0	0	0	0	0	0
0	0	697	695	695	0	0	0	719	719	719	719	719	720	720	720	0	0	739	739	742	743	743	743	743	747	752	755	758	760	761	765	768	772	772	775	779	779	784	789	795	797	798	798	800	804	806	814	815	817	819	819	829	831	833	835	839	841	841	856	860	865	867	869	869	871	875	878	882	887	889	894	898	905	910	915	920	920	922	922	925	925	925	925	927	930	930	932	935	935	935	935	0	0	0	0	0	0	0	0	0	0	4643	4643	4643	4643	4643	4581	4581	4581	4581	4581	4581	4581	4581	4581	4643	4643	4581	4581	4581	4581	4581	4581	4521	4581	4581	4581	4581	4521	4581	4521	4521	4521	4521	4463	4463	4521	4521	4463	4463	4521	4521	4521	4521	4521	4521	4521	4521	4521	4521	4521	4521	4521	4581	4581	4581	4643	4706	4706	4771	4771	4906	4906	4906	4906	4977	4977	4977	4977	4977	4977	4977	4977	4906	4977	4977	4906	4977	4977	4977	4977	4977	4906	4906	4906	4906	4906	4906	4906	4906	4906	4906	4838	4838	4771	4771	0	0	0	0	0	0	0	0	0	0	0	0	0	0	0	0	6992	6992	6992	6592	6592	0	0	0	0	0	0	0	0	0	0	0	7779	7779	7779	7779	7779	7779	7779	7959	7779	7779	7779	7779	7779	7779	7779	7779	7779	7779	7779	7779	7779	7779	7779	7779	7779	7779	7779	7779	7779	7779	7779	7779	7959	7959	7959	7779	7779	7779	7779	0	0	0	3440	3475	3510	3475	3440	3440	3440	3440	3406	3406	3406	3406	3406	3440	3440	3440	3440	3475	3475	3475	0	0	0	0	0	0	3475	3440	3440	3440	3440	3440	3440	3406	3440	3406	3406	3406	3406	3406	3406	3406	3406	3406	3406	3440	3440	3440	3440	0	0	0	0	0	0	0	0	0	0	0	0	4521	4521	4521	4521	4521	4521	4521	4521	4521	4521	4521	4463	4463	4521	4521	4521	4521	4463	4463	4463	4463	4463	4463	4463	4463	4463	4463	4521	4463	4521	4521	4463	4296	4192	4142	4192	4296	4296	4350	4463	4463	4463	4463	4463	4463	4463	4463	4463	4463	4463	4463	4463	4463	4406	4463	4406	4406	4406	4406	4406	4406	4406	4406	4463	4463	4463	4463	4406	4406	4350	4406	4350	4350	4406	4406	4406	4406	4406	4406	4406	4463	4463	4463	4463	4463	4463	4463	4463	4406	4406	4406	4406	4350	4350	4350	4350	4350	4350	4350	4350	4350	4350	4296	4296	4243	4243	4243	4243	4243	4243	4296	4350	4350	4350	4406	4406	4406	4406	4406	4406	4463	4406	4406	4406	4406	4406	4406	4406	4406	4463	4463	4463	4463	4463	4406	4463	4463	4406	4406	4406	4406	4406	4406	4406	4406	4406	4406	4406	4406	4406	4406	4406	4406	4350	4350	4350	4406	4406	4406	4406	4406	4406	4406	4406	4406	4406	4406	4406	4350	4406	4350	4406	4350	4350	4350	4350	4350	4296	4243	4243	4243	4243	4192	4192	4296	4350	4350	4350	4350	4406	4406	4406	4406	4463	4643	4771	4838	4838	4906	4906	4906	4906	4906	4906	4906	4906	4906	4906	4906	4906	4906	4906	4906	4906	4906	4838	4838	4838	4838	4838	4838	4906	4977	4977	4977	4977	4977	4906	4906	4906	4838	4838	4838	4977	4977	4977	4977	0	0	0	0	0	0	0	0	0	0	0	0	0	0	0	0	0	0	0	0	0	0	0	0	0	5448	5364	5282	5282	5202	5202	0	0	6018	6018	5915	5915	5915	5915	5915	0	0	0	0	0	0	0	0	0	0	0	0	0	0	0	0	0	0	0	0	0	0	0	0	0	0	0	0	0	0	0
0	0	697	697	697	697	0	0	719	719	720	719	720	720	722	722	726	739	739	740	742	743	743	743	745	747	753	756	758	760	760	761	767	772	775	775	777	780	782	791	797	798	798	800	802	804	806	812	815	817	819	821	829	831	833	837	841	841	841	854	860	867	865	867	869	871	875	878	884	887	887	894	898	905	913	917	920	917	922	922	925	925	925	925	927	927	930	932	932	935	935	935	0	0	0	0	0	0	0	0	0	4706	4706	4706	4643	4643	4643	4643	4581	4581	4581	4581	4581	4581	4581	4581	4643	4643	4581	4581	4581	4581	4581	4581	4521	4581	4581	4581	4581	4581	4581	4521	4521	4521	4521	4463	4463	4463	4463	4463	4463	4463	4521	4521	4521	4521	4521	4581	4521	4521	4521	4521	4521	4521	4521	4643	4643	4706	4706	4838	4838	4838	4906	4906	4906	4906	4977	4977	4977	4977	4977	4906	4977	4906	4906	4977	4977	4977	4977	4977	4977	4977	4977	4906	4906	4906	4906	4906	4906	4906	4906	4906	4906	4838	4838	4838	4771	0	0	0	0	0	0	0	0	0	0	0	0	0	0	0	0	0	6992	6992	0	0	0	0	0	0	0	0	0	0	0	0	0	7608	7779	7779	7779	7779	7779	7779	7779	7779	7779	7779	7779	7779	7779	7779	7779	7779	7608	7779	7779	7779	7779	7779	7779	7779	7779	7779	7779	7779	7779	7779	7779	7779	7779	7779	7779	7779	7779	0	0	0	0	3440	3475	3510	3475	3440	3440	3440	3440	3406	3440	3406	3406	3406	3440	3440	3440	3440	3440	3440	3440	0	0	0	0	0	0	3475	3475	3440	3440	3440	3440	3440	3406	3406	3406	3406	3406	3406	3373	3373	3373	3373	3406	3406	3440	3440	3440	3406	3406	0	0	0	0	0	0	0	0	0	0	0	4521	4521	4521	4521	4521	4521	4521	4521	4521	4463	4463	4463	4463	4463	4463	4463	4463	4463	4463	4463	4463	4463	4463	4463	4521	4521	4463	4521	4463	4521	4463	4350	4296	4243	4142	4192	4192	4296	4350	4463	4463	4463	4463	4463	4463	4463	4463	4463	4463	4463	4463	4463	4463	4463	4463	4463	4463	4463	4406	4406	4406	4406	4406	4463	4463	4463	4406	4406	4406	4406	4406	4350	4350	4406	4463	4406	4406	4406	4406	4406	4406	4406	4406	4406	4463	4463	4463	4463	4406	4406	4406	4406	4350	4406	4350	4406	4350	4350	4350	4350	4350	4350	4296	4243	4243	4243	4243	4243	4243	4243	4296	4350	4350	4350	4406	4406	4406	4406	4406	4463	4463	4406	4406	4406	4406	4406	4406	4406	4406	4406	4406	4406	4463	4463	4463	4463	4463	4406	4406	4406	4406	4406	4406	4406	4406	4406	4406	4406	4406	4406	4406	4406	4406	4350	4350	4350	4350	4406	4406	4406	4406	4406	4406	4406	4406	4350	4350	4406	4406	4406	4350	4350	4350	4350	4350	4350	4350	4296	4243	4243	4243	4192	4192	4192	4350	4350	4350	4350	4406	4406	4463	4463	4406	4521	4771	4771	4906	4906	4906	4906	4906	4906	4906	4906	4906	4906	4906	4906	4906	4906	4906	4906	4906	4906	4906	4838	4838	4838	4771	4906	4906	4906	4977	4977	4977	4906	4977	4977	4906	4906	4838	4838	4906	4977	4977	4977	4977	4977	0	0	0	0	0	0	0	0	0	0	0	0	0	0	0	0	0	0	0	0	0	0	0	0	5535	5535	5282	5282	5202	5202	0	0	0	0	5915	5915	6124	6018	6018	0	0	0	0	0	0	0	0	0	0	0	0	0	0	0	0	0	0	0	0	0	0	0	0	0	0	0	0	0	0	0
0	0	697	697	698	698	0	0	720	720	720	720	722	722	725	726	726	740	740	740	742	743	743	743	745	753	753	758	758	760	761	763	765	770	772	773	777	782	784	791	795	797	798	800	800	804	806	810	815	817	819	821	825	831	837	839	843	843	843	852	858	865	865	867	867	871	871	875	882	887	887	894	903	910	913	915	917	917	920	922	922	922	922	925	925	927	930	930	932	935	935	0	0	0	0	0	0	0	4463	4463	4463	4706	4706	4706	4706	4643	4643	4643	4643	4581	4581	4643	4581	4581	4581	4521	4581	4581	4581	4581	4581	4581	4581	4581	4581	4581	4581	4581	4581	4521	4521	4521	4463	4463	4463	4463	4463	4463	4463	4463	4463	4463	4463	4521	4463	4521	4463	4463	4463	4521	4521	4521	4521	4521	4521	4581	4643	4706	4771	4838	4838	4838	4906	4906	4906	4906	4977	4977	4977	4977	4977	4906	4906	4906	4906	4906	4977	4977	4977	4977	4977	4977	4977	4906	4906	4906	4906	4906	4906	4906	4906	4906	4906	4838	4906	4906	4906	0	0	0	0	0	0	0	0	0	0	0	0	0	0	0	0	0	0	0	0	0	0	0	0	0	0	0	0	0	0	0	0	7608	7608	7608	7779	7779	7779	7779	7779	7779	7779	7779	7779	7779	7779	7779	7779	7779	7779	7779	7608	7779	7779	7779	7779	7779	7959	7959	7779	7779	7779	7779	7779	7779	7779	7779	7779	7779	7959	7959	0	0	0	3475	3475	3510	3475	3475	3440	3440	3440	3440	3440	3406	3406	3406	3440	3440	3440	3440	3440	3440	3440	0	0	0	0	0	0	3475	3475	3475	3440	3440	3440	3440	3406	3406	3406	3406	3406	3373	3373	3406	3373	3406	3406	3406	3440	3440	3440	3406	3406	0	0	0	0	0	0	0	0	0	4406	4463	4463	4521	4521	4521	4521	4521	4521	4521	4521	4463	4463	4463	4463	4463	4463	4463	4463	4463	4463	4463	4463	4463	4463	4463	4463	4463	4463	4463	4463	4521	4463	4463	4243	4243	4192	4243	4296	4296	4350	4463	4463	4463	4463	4463	4463	4463	4463	4463	4463	4463	4463	4463	4463	4463	4463	4406	4406	4406	4406	4406	4406	4406	4406	4406	4406	4463	4406	4406	4406	4406	4406	4406	4406	4406	4406	4406	4406	4406	4350	4406	4406	4406	4406	4406	4463	4463	4463	4463	4406	4406	4406	4406	4406	4406	4406	4406	4350	4350	4350	4350	4350	4350	4350	4296	4296	4243	4243	4243	4243	4243	4243	4350	4350	4350	4350	4406	4406	4406	4406	4406	4463	4406	4406	4406	4406	4406	4406	4406	4406	4406	4406	4406	4463	4463	4463	4463	4463	4406	4406	4406	4406	4406	4406	4406	4406	4406	4406	4406	4406	4406	4406	4350	4406	4350	4350	4406	4406	4406	4406	4406	4406	4406	4406	4406	4406	4350	4350	4406	4406	4406	4350	4406	4406	4350	4350	4350	4350	4296	4243	4243	4192	4192	4192	4142	4192	4296	4350	4350	4406	4406	4406	4463	4406	4463	4771	4838	4838	4838	4906	4906	4906	4906	4906	4906	4906	4906	4906	4906	4906	4906	4906	4906	4906	4906	4838	4838	4838	4838	4771	4906	4906	4906	4977	4977	4977	4906	4977	4906	4906	4906	4838	4838	4906	4977	4906	4977	4977	4977	0	0	0	0	0	0	0	0	0	0	0	0	0	0	0	0	0	0	0	0	0	0	0	0	5535	5535	0	0	0	0	0	0	0	0	0	0	6124	6018	6018	0	0	0	0	0	0	0	0	0	0	0	0	0	0	0	0	0	0	0	0	0	0	0	0	0	0	0	0	0	0	0
0	0	0	698	700	700	700	0	720	720	720	720	723	723	726	728	729	729	740	740	740	742	742	742	747	753	756	756	758	760	761	763	765	768	770	772	773	780	784	793	795	797	798	800	800	804	804	808	815	817	821	821	825	829	833	839	843	843	843	852	850	865	865	867	869	871	871	871	880	884	887	896	903	910	913	915	915	915	917	920	920	922	925	925	925	927	930	930	0	0	0	0	0	0	0	0	0	0	4463	4463	4521	4521	4771	4771	4706	4643	4643	4643	4643	4643	4643	4643	4643	4581	4581	4521	4581	4581	4581	4581	4521	4581	4581	4581	4521	4581	4521	4581	4581	4581	4521	4521	4463	4463	4463	4463	4463	4463	4463	4463	4463	4463	4463	4463	4521	4521	4463	4463	4521	4521	4463	4463	4521	4521	4521	4643	4706	4706	4771	4838	4838	4838	4906	4906	4906	4906	4977	4977	4977	4977	4977	4977	4977	4977	4977	4977	4977	4977	4977	4977	4977	4977	4977	4906	4906	4906	4906	4906	4906	4906	4906	4906	4906	4838	4906	4906	4906	0	0	0	0	0	0	0	0	0	0	0	0	0	0	0	0	0	0	0	0	0	0	0	0	0	0	0	0	0	0	0	0	7608	7608	7608	7608	7779	7779	7779	7779	7779	7779	7779	7779	7779	7779	7779	7779	7779	7779	7779	7779	7779	7779	7779	7959	7959	7959	7959	7959	7779	7779	7779	7779	7779	7959	7959	7959	8146	8146	8146	0	0	0	3475	3475	3475	3475	3475	3440	3440	3440	3440	3406	3406	3406	3406	3406	3440	3440	3440	3440	3440	3440	0	0	0	0	0	0	3475	3475	3475	3440	3440	3440	3440	3440	3440	3406	3406	3406	3406	3406	3406	3406	3406	3406	3406	3440	3440	3440	3440	3440	0	0	0	0	0	0	0	0	0	4406	4463	4521	4521	4521	4521	4521	4521	4521	4521	4521	4463	4463	4463	4463	4463	4463	4463	4463	4463	4463	4463	4463	4463	4463	4463	4463	4463	4463	4463	4463	4463	4463	4463	4296	4243	4243	4243	4296	4350	4350	4463	4463	4463	4463	4463	4463	4463	4463	4463	4463	4463	4463	4463	4463	4463	4463	4406	4406	4406	4406	4406	4406	4406	4406	4463	4463	4463	4406	4406	4406	4406	4406	4406	4406	4406	4406	4406	4406	4406	4350	4350	4350	4406	4406	4406	4463	4463	4463	4463	4406	4406	4406	4406	4406	4406	4406	4406	4406	4406	4350	4350	4350	4350	4296	4296	4243	4243	4243	4243	4243	4243	4296	4296	4350	4350	4350	4406	4406	4406	4406	4406	4406	4406	4406	4406	4406	4406	4406	4406	4406	4406	4406	4463	4463	4463	4463	4463	4463	4406	4406	4406	4406	4406	4406	4406	4406	4406	4406	4406	4406	4406	4406	4406	4406	4350	4350	4350	4406	4406	4406	4406	4406	4406	4406	4406	4406	4350	4350	4406	4406	4406	4350	4406	4350	4350	4350	4350	4350	4296	4243	4296	4243	4192	4192	4192	4192	4296	4350	4350	4350	4406	4406	4406	4406	4463	4771	4771	4906	4906	4906	4906	4906	4906	4906	4906	4838	4906	4906	4906	4906	4906	4906	4906	4906	4906	4838	4838	4838	4838	4838	4906	4906	4906	4977	4977	4977	4906	4906	4906	4906	4906	4838	4838	4838	4906	4906	4906	4906	4906	0	0	0	0	0	0	0	0	0	0	0	0	0	0	0	0	0	0	0	0	0	0	0	0	0	0	0	0	0	0	0	0	0	0	0	0	0	0	0	0	0	0	0	0	0	0	0	0	0	0	0	0	0	0	0	0	0	0	0	0	0	0	0	0	0	0	0	0	0	0
0	0	0	698	698	700	700	0	717	717	725	725	726	726	728	728	729	729	729	740	740	742	742	745	748	752	756	756	756	758	761	763	765	770	768	772	772	775	779	791	795	795	797	800	800	804	806	808	815	817	821	821	825	827	829	837	843	843	843	845	850	867	865	867	869	871	869	871	878	887	889	894	898	905	910	910	915	917	920	920	922	922	922	922	925	925	925	925	0	0	0	0	0	0	0	0	0	0	4463	4463	4521	4521	4706	4706	4706	4706	4643	4643	4643	4643	4581	4643	4643	4581	4581	4581	4581	4581	4581	4581	4521	4521	4521	4521	4521	4581	4521	4581	4581	4581	4581	4521	4521	4521	4521	4463	4463	4463	4463	4463	4463	4463	4521	4521	4521	4521	4521	4521	4521	4463	4463	4463	4521	4521	4521	4643	4706	4706	4771	4838	4838	4838	4906	4906	4906	4906	4977	4977	4977	4977	4977	4977	4977	4977	4977	4977	4977	4977	4977	4977	4977	4977	4977	4977	4906	4906	4906	4906	4906	4906	4906	4906	4906	4906	4977	5050	5125	5125	0	0	0	0	0	0	0	0	0	0	0	0	0	0	0	0	0	0	0	0	0	0	0	0	0	0	0	0	0	0	0	7608	7444	7608	7608	7608	7779	7779	7779	7779	7779	7779	7779	7779	7779	7779	7779	7779	7779	7779	7779	7779	7779	7959	7959	7959	7959	7959	7779	7779	7779	7779	7779	7779	7959	7959	7959	8146	8146	8343	8343	8343	3475	3475	3475	3475	3475	3475	3440	3440	3440	3440	3406	3406	3406	3406	3406	3440	3440	3440	3440	3440	3475	3475	0	0	0	0	0	3440	3440	3440	3440	3440	3440	3440	3406	3440	3406	3406	3406	3406	3406	3406	3406	3406	3406	3406	3440	3440	3440	3440	3440	0	0	0	0	0	0	0	0	0	4406	4406	4521	4521	4521	4521	4521	4521	4521	4521	4521	4521	4463	4463	4463	4463	4463	4463	4463	4406	4463	4463	4463	4463	4463	4463	4521	4463	4463	4463	4463	4463	4463	4463	4243	4243	4243	4243	4296	4296	4350	4350	4406	4406	4463	4463	4463	4463	4463	4463	4463	4521	4463	4463	4463	4463	4463	4406	4406	4406	4406	4406	4406	4350	4406	4406	4406	4406	4406	4406	4406	4350	4406	4406	4406	4406	4406	4350	4350	4406	4350	4350	4406	4406	4406	4406	4463	4463	4463	4463	4463	4406	4406	4406	4406	4406	4406	4406	4406	4406	4350	4350	4350	4350	4350	4296	4243	4243	4192	4192	4192	4243	4243	4296	4350	4350	4350	4406	4406	4406	4406	4406	4406	4406	4406	4406	4406	4406	4406	4406	4406	4406	4406	4406	4406	4406	4406	4406	4406	4406	4406	4406	4406	4406	4406	4406	4406	4406	4406	4406	4406	4406	4406	4406	4406	4350	4350	4350	4350	4406	4406	4406	4406	4406	4406	4406	4406	4406	4350	4350	4406	4406	4350	4350	4406	4406	4406	4406	4350	4296	4296	4296	4243	4243	4192	4192	4192	4296	4296	4350	4350	4350	4406	4463	4463	4581	4838	4838	4906	4906	4906	4906	4906	4906	4906	4906	4906	4906	4906	4906	4906	4906	4906	4906	4906	4906	4906	4838	4838	4838	4838	4906	4906	4906	4977	4977	4977	4977	4977	4906	4906	4906	4838	4838	4838	4906	4906	4906	4906	4906	0	0	0	0	0	0	0	0	0	0	0	0	0	0	0	0	0	0	0	0	0	0	0	0	0	0	0	0	0	0	0	0	0	0	0	0	0	0	0	0	0	0	0	0	0	0	0	0	0	0	0	0	0	0	0	0	0	0	0	0	0	0	0	0	0	0	0	0	0	0
0	0	0	700	700	703	703	708	717	717	719	719	722	723	723	726	728	728	740	740	742	742	742	747	750	753	756	756	756	760	761	763	765	768	768	772	773	779	780	791	793	795	797	800	802	804	806	810	815	815	821	823	825	829	833	837	841	843	843	845	852	865	865	867	869	871	871	873	884	887	887	894	896	903	910	915	915	917	917	917	920	922	922	922	925	925	925	925	0	0	0	0	0	0	0	0	0	0	4463	4463	4463	4463	4643	4771	4771	4706	4706	4643	4643	4643	4643	4643	4643	4643	4581	4581	4581	4581	4581	4521	4521	4521	4521	4521	4521	4521	4521	4521	4581	4581	4521	4521	4463	4463	4463	4463	4463	4463	4521	4521	4463	4521	4521	4521	4521	4521	4521	4521	4521	4521	4521	4521	4521	4521	4521	4581	4706	4771	4771	4838	4906	4906	4906	4906	4906	4906	4977	4977	4977	4977	4977	4977	4977	4977	4977	4977	4977	4977	4977	4977	4977	4977	4977	4906	4906	4906	4906	4906	4906	4906	4977	4977	4977	4977	5050	5050	5125	5282	5282	0	0	0	0	0	0	0	0	0	0	0	0	0	0	0	0	0	0	0	0	0	0	0	0	0	0	0	0	0	0	0	7444	7444	7608	7608	7779	7779	7779	7779	7779	7779	7779	7779	7779	7779	7779	7779	7779	7779	7779	7779	7779	7959	7959	7959	7959	7959	7779	7779	7779	7779	7779	7959	7959	8146	7959	8146	8146	8146	8343	8343	3475	3475	3475	3510	3475	3475	3440	3440	3440	3406	3406	3406	3406	3406	3406	3440	3475	3475	3440	3440	3475	3475	0	0	0	0	0	3440	3440	3440	3440	3440	3440	3440	3440	3440	3406	3406	3406	3406	3406	3406	3406	3406	3406	3406	3440	3440	3440	3440	3475	3475	0	0	0	0	0	0	0	0	4406	4463	4521	4521	4521	4521	4521	4521	4521	4521	4521	4521	4463	4463	4463	4463	4463	4406	4406	4406	4406	4463	4521	4463	4463	4463	4521	4463	4463	4463	4463	4463	4463	4463	4350	4243	4243	4243	4296	4296	4350	4350	4350	4406	4406	4406	4406	4406	4463	4463	4463	4463	4463	4463	4463	4463	4463	4406	4406	4350	4350	4350	4350	4350	4350	4350	4350	4406	4350	4350	4406	4350	4350	4406	4406	4406	4406	4406	4406	4406	4406	4350	4406	4350	4406	4406	4406	4406	4406	4406	4406	4406	4406	4406	4406	4406	4406	4350	4406	4406	4350	4350	4350	4350	4296	4243	4192	4192	4192	4192	4192	4243	4243	4296	4350	4350	4350	4406	4406	4406	4406	4406	4406	4406	4406	4406	4521	4463	4406	4406	4406	4406	4406	4406	4406	4406	4406	4406	4406	4406	4406	4406	4406	4406	4406	4406	4406	4406	4406	4406	4406	4406	4406	4406	4406	4406	4350	4350	4406	4406	4406	4406	4406	4406	4406	4406	4406	4406	4350	4350	4406	4406	4350	4350	4406	4406	4406	4406	4350	4350	4350	4296	4243	4243	4192	4192	4192	4243	4296	4350	4350	4406	4406	4463	4463	4643	4838	4838	4906	4906	4906	4906	4906	4906	4906	4838	4838	4906	4906	4906	4906	4906	4906	4906	4906	4906	4906	4906	4906	4906	4906	4906	4906	4906	4977	4906	4906	4906	4906	4906	4906	4906	4838	4838	4838	4906	4906	4906	4977	4906	4906	0	0	0	0	0	0	0	0	0	0	0	0	0	0	0	0	0	0	0	0	0	0	0	0	0	0	0	0	0	0	0	0	0	0	0	0	0	0	0	0	0	0	0	0	0	0	0	0	0	0	0	0	0	0	0	0	0	0	0	0	0	0	0	0	0	0	0	0	0
0	0	0	704	707	705	707	707	710	710	710	722	722	722	725	725	726	726	739	743	740	742	742	745	750	753	755	756	756	760	761	763	765	768	768	772	775	782	782	789	791	795	795	797	802	804	808	810	815	817	821	823	825	827	833	837	841	843	843	845	854	860	860	867	869	869	871	875	884	887	891	894	896	903	910	913	915	915	917	917	920	922	922	922	922	922	922	925	0	0	0	0	0	0	0	0	0	0	4463	4463	4463	4521	4643	4581	4643	4643	4706	4706	4706	4643	4643	4643	4643	4643	4581	4581	4581	4581	4581	4521	4521	4521	4521	4463	4463	4521	4463	4521	4463	4463	4521	4463	4463	4521	4521	4463	4463	4521	4521	4521	4521	4463	4521	4521	4521	4521	4521	4521	4521	4521	4521	4521	4521	4521	4521	4643	4643	4838	4838	4838	4906	4906	4906	4906	4906	4977	4977	4977	4977	4977	4977	4977	4977	4977	4977	4977	4977	4977	4977	4977	4977	4977	4977	4977	4906	4906	4906	4977	4906	4977	4977	4977	4977	4977	5050	5050	5125	5202	5202	5202	0	0	0	0	0	0	0	0	0	0	0	0	0	0	0	0	0	0	0	0	0	0	0	0	0	0	0	0	0	0	7444	7444	7608	7608	7608	7608	7779	7779	7779	7779	7779	7779	7779	7779	7779	7779	7779	7779	7779	7779	7779	7779	7779	7959	7779	7779	7779	7779	7779	7779	7779	7959	7959	8146	7959	8146	8146	8146	8343	8343	0	3510	3475	3475	3475	3475	3440	3440	3440	3440	3406	3406	3406	3406	3406	3440	3440	3440	3440	3440	3440	3475	0	0	0	0	0	3440	3440	3440	3440	3440	3440	3440	3440	3440	3440	3406	3406	3406	3406	3406	3406	3406	3406	3406	3440	3440	3440	3440	3475	3475	0	0	0	0	0	0	0	0	0	4521	4521	4581	4581	4581	4521	4521	4521	4521	4521	4463	4463	4463	4463	4463	4463	4406	4521	4463	4463	4463	4521	4463	4463	4463	4463	4463	4463	4463	4406	4406	4406	4463	4463	4350	4243	4243	4296	4296	4350	4350	4350	4350	4350	4350	4406	4406	4463	4463	4463	4463	4463	4463	4463	4463	4463	4406	4406	4406	4406	4350	4350	4350	4350	4350	4350	4350	4350	4350	4350	4350	4406	4406	4406	4406	4406	4350	4406	4406	4350	4350	4350	4350	4350	4350	4350	4350	4350	4350	4350	4350	4350	4350	4350	4350	4350	4350	4350	4350	4350	4350	4350	4350	4350	4296	4243	4243	4192	4192	4192	4243	4296	4296	4350	4350	4350	4406	4406	4406	4406	4406	4406	4406	4406	4406	4406	4406	4406	4406	4406	4406	4406	4406	4406	4406	4406	4406	4406	4406	4406	4406	4406	4406	4406	4406	4406	4406	4406	4406	4350	4406	4406	4406	4406	4406	4350	4350	4406	4406	4406	4406	4406	4406	4406	4406	4406	4406	4406	4350	4406	4406	4350	4406	4406	4406	4463	4463	4350	4296	4296	4296	4243	4192	4192	4142	4192	4243	4296	4350	4350	4406	4406	4406	4463	4463	4643	4771	4838	4906	4906	4906	4906	4906	4906	4906	4838	4906	4906	4906	4906	4906	4906	4906	4906	4906	4906	4906	4906	4906	4906	4906	4906	4906	4977	4906	4906	4906	4906	4906	4838	4838	4838	4838	4838	4906	4906	4906	4977	4906	4906	4906	0	0	0	0	0	0	0	0	0	0	0	0	0	0	0	0	0	0	0	0	0	0	0	0	0	0	0	0	0	0	0	0	0	0	0	0	0	0	0	0	0	0	0	0	0	0	0	0	0	0	0	0	0	0	0	0	0	0	0	0	0	0	0	0	0	0	0	0
0	0	0	705	705	707	708	710	710	708	710	710	722	722	725	725	728	728	736	739	740	740	742	745	752	753	755	756	755	760	763	763	765	770	768	775	777	780	780	784	789	793	795	795	800	802	806	814	815	817	821	823	825	827	837	837	841	843	843	845	852	852	860	867	869	871	873	878	884	889	894	896	898	903	910	913	915	917	917	917	920	922	922	922	922	922	922	922	0	0	0	0	0	0	0	0	0	0	4463	4463	4463	4463	4643	4581	4643	4643	4706	4706	4706	4643	4643	4643	4643	4643	4581	4581	4581	4581	4581	4521	4521	4521	4521	4521	4521	4521	4463	4463	4463	4521	4521	4463	4463	4521	4521	4521	4521	4521	4521	4521	4521	4521	4521	4521	4463	4463	4521	4521	4581	4521	4581	4581	4581	4581	4581	4643	4706	4838	4838	4906	4906	4906	4906	4906	4906	4906	4977	4977	4977	4977	4977	4977	4977	4977	4977	4977	4977	4977	4977	4977	4977	4977	4977	4977	4977	4977	4977	4977	4977	4977	4977	4977	4977	4977	5050	5050	5125	5282	5202	5125	5125	5125	0	0	0	0	0	0	0	0	0	0	0	0	0	0	0	0	0	0	0	0	0	0	0	0	0	0	0	0	0	7137	7287	7287	7608	7608	7779	7779	7779	7779	7779	7779	7779	7779	7779	7779	7779	7779	7608	7779	7779	7779	7779	7779	7779	7608	7608	7608	7608	7608	7779	7779	7779	7959	7959	7959	8146	8146	8343	8343	3510	3510	3510	3475	3475	3475	3440	3440	3440	3440	3440	3406	3406	3406	3406	3406	3440	3475	3475	3475	3475	3475	0	0	0	0	0	3440	3440	3440	3440	3440	3440	3440	3440	3440	3440	3440	3406	3406	3406	3406	3406	3406	3406	3406	3440	3440	3440	3440	3475	3475	0	0	0	0	0	0	0	0	0	4581	4581	4581	4581	4581	4521	4521	4521	4463	4463	4463	4463	4463	4463	4463	4463	4463	4463	4463	4463	4463	4521	4463	4463	4463	4463	4463	4463	4463	4463	4463	4463	4463	4296	4243	4243	4243	4296	4296	4296	4350	4350	4350	4350	4350	4350	4406	4463	4463	4463	4463	4463	4463	4463	4406	4406	4406	4350	4350	4350	4350	4350	4296	4296	4296	4296	4296	4296	4350	4350	4350	4406	4406	4406	4406	4350	4350	4350	4350	4350	4350	4350	4350	4350	4350	4350	4350	4350	4350	4350	4350	4350	4350	4350	4350	4350	4350	4350	4350	4350	4296	4296	4296	4296	4243	4243	4243	4192	4192	4243	4243	4296	4296	4406	4406	4406	4406	4406	4406	4406	4406	4406	4406	4406	4406	4406	4406	4406	4406	4406	4406	4406	4406	4406	4406	4406	4406	4406	4406	4406	4406	4406	4463	4406	4406	4406	4406	4406	4406	4406	4406	4406	4350	4350	4350	4350	4350	4406	4406	4406	4406	4406	4406	4406	4406	4406	4406	4406	4406	4406	4406	4350	4350	4350	4350	4350	4350	4296	4296	4350	4243	4243	4192	4192	4192	4192	4243	4296	4350	4350	4406	4406	4406	4406	4463	4706	4771	4838	4906	4906	4906	4906	4906	4838	4838	4838	4838	4838	4906	4906	4906	4906	4906	4906	4838	4906	4838	4838	4838	4906	4906	4906	4906	4906	4906	4906	4906	4906	4906	4838	4838	4838	4838	4838	4838	4838	4906	4906	4906	4906	4906	0	0	0	0	0	0	0	0	0	0	0	0	0	0	0	0	0	0	0	0	0	0	0	0	0	0	0	0	0	0	0	0	0	0	0	0	0	0	0	0	0	0	0	0	0	0	0	0	0	0	0	0	0	0	0	0	0	0	0	0	0	0	0	0	0	0	0	0
0	0	0	705	708	708	708	708	710	708	710	710	722	722	726	728	734	736	736	736	737	739	739	743	743	753	755	755	755	758	760	761	765	772	772	777	777	780	780	782	789	793	795	795	800	802	804	812	815	815	819	821	823	825	825	825	841	848	845	848	852	856	860	869	871	873	875	880	884	891	896	896	898	903	908	913	915	917	920	917	920	922	925	925	922	922	922	922	0	0	0	0	0	0	0	0	0	0	0	4406	4406	4463	4463	4521	4643	4643	4643	4643	4706	4643	4643	4643	4643	4643	4643	4581	4581	4581	4581	4581	4521	4521	4521	4521	4521	4521	4463	4463	4463	4521	4521	4463	4463	4521	4521	4521	4521	4521	4581	4581	4521	4521	4521	4521	4463	4521	4521	4521	4581	4521	4521	4521	4643	4581	4643	4706	4771	4838	4906	4906	4906	4906	4906	4906	4906	4906	4906	4906	4977	4906	4906	4906	4977	4977	4977	4977	5050	5050	4977	4977	4977	4977	4977	4977	4977	4977	4906	4977	4977	4977	4977	4977	4977	4977	5125	5125	5125	5282	5125	5125	5125	5125	0	0	0	0	0	0	0	0	0	0	0	0	0	0	0	0	0	0	0	0	0	0	0	0	0	0	0	0	7137	7137	7287	7287	7608	7779	7779	7779	7779	7959	7779	7779	7779	7779	7779	7779	7779	7779	7779	7779	7779	7779	7779	7779	7779	7608	7779	7608	7608	7608	7779	7779	7779	7959	7959	7959	8146	8146	8146	8343	3510	3475	3475	3475	3475	3440	3440	3440	3440	3440	3406	3406	3406	3406	3406	3440	3440	3475	3475	3475	3475	0	0	0	0	0	0	3440	3406	3406	3440	3440	3440	3440	3440	3440	3440	3440	3440	3406	3406	3406	3406	3406	3406	3406	3440	3440	3440	3440	3475	3475	0	0	0	0	0	0	0	0	0	4581	4581	4581	4581	4521	4521	4521	4521	4463	4463	4463	4463	4463	4463	4463	4463	4463	4463	4463	4463	4463	4463	4463	4463	4463	4463	4463	4463	4463	4463	4463	4463	4463	4350	4296	4243	4243	4296	4296	4296	4296	4350	4350	4350	4350	4350	4406	4406	4463	4463	4463	4463	4463	4406	4296	4296	4296	4296	4296	4296	4296	4296	4296	4296	4296	4296	4296	4296	4296	4350	4350	4350	4350	4350	4350	4350	4350	4350	4350	4350	4350	4296	4296	4296	4296	4296	4296	4296	4296	4296	4296	4350	4350	4350	4350	4296	4296	4296	4296	4296	4296	4296	4296	4296	4296	4243	4243	4192	4192	4192	4243	4243	4296	4296	4350	4406	4406	4406	4406	4406	4406	4350	4406	4406	4406	4406	4406	4406	4406	4406	4406	4406	4406	4406	4406	4406	4406	4406	4406	4406	4406	4463	4463	4406	4406	4406	4406	4406	4406	4350	4406	4406	4350	4350	4350	4350	4350	4406	4406	4406	4406	4406	4406	4406	4406	4406	4350	4406	4406	4406	4406	4350	4350	4350	4350	4350	4296	4350	4243	4350	4243	4192	4192	4192	4192	4142	4243	4296	4350	4350	4350	4406	4406	4406	4463	4706	4771	4838	4838	4838	4906	4906	4838	4838	4838	4838	4838	4838	4838	4838	4838	4838	4838	4838	4838	4838	4838	4838	4838	4906	4906	4838	4838	4906	4906	4906	4906	4838	4838	4838	4838	4838	4838	4838	4838	4906	4906	4906	4906	4906	4906	4906	0	0	0	0	0	0	0	0	0	0	0	0	0	0	0	0	0	0	0	0	0	0	0	0	0	0	0	0	0	0	0	0	0	0	0	0	0	0	0	0	0	0	0	0	0	0	0	0	0	0	0	0	0	0	0	0	0	0	0	0	0	0	0	0	0	0	0
0	0	0	705	707	708	708	710	710	710	711	716	719	722	723	723	734	737	736	737	737	739	739	742	742	753	755	756	755	760	763	763	765	770	770	775	777	780	782	786	788	791	793	795	798	802	804	814	814	815	817	819	819	823	823	831	831	848	848	850	850	856	860	869	873	873	878	880	887	891	896	896	896	898	905	913	915	917	920	917	922	922	925	925	925	922	925	925	0	0	0	0	0	0	0	0	0	0	0	4406	4406	4406	4406	4406	4581	4581	4643	4643	4643	4643	4643	4643	4643	4643	4643	4643	4643	4581	4581	4581	4581	4521	4521	4521	4521	4521	4521	4521	4521	4521	4521	4521	4521	4521	4521	4521	4521	4521	4521	4521	4521	4521	4521	4521	4521	4521	4521	4521	4581	4581	4581	4521	4643	4581	4643	4706	4706	4838	4906	4906	4906	4906	4906	4906	4906	4906	4906	4906	4977	4906	4906	4906	4906	4977	4977	4977	4977	5050	4977	4977	4977	4977	4977	4977	4906	4906	4906	4977	4977	4977	4977	4977	4977	4977	5050	5050	5125	5125	5125	5050	5050	5050	0	0	0	0	0	0	0	0	0	0	0	0	0	0	0	0	0	0	0	0	0	0	0	0	0	0	0	0	7137	7137	7287	7287	0	7779	7779	7779	7779	7959	7779	7779	7779	7779	7779	7779	7779	7779	7779	7779	7608	7608	7608	7779	7608	7608	7608	7608	7608	7608	7779	7779	7959	8146	8146	8146	8146	8146	8146	0	3510	3440	3440	3440	3440	3440	3440	3440	3440	3440	3440	3406	3406	3406	3406	3440	3440	3475	3475	3475	3475	0	0	0	0	0	0	0	3406	3406	3440	3440	3440	3440	3440	3440	3440	3440	3440	3406	3406	3406	3406	3406	3406	3406	3440	3440	3440	3440	3440	3475	0	0	0	0	0	0	0	0	0	4706	4706	4643	4581	4521	4521	4521	4521	4463	4463	4463	4463	4463	4463	4463	4463	4463	4463	4463	4463	4521	4521	4463	4463	4463	4463	4463	4463	4463	4463	4463	4463	4463	4406	4296	4243	4243	4296	4296	4296	4296	4296	4296	4296	4296	4350	4406	4406	4463	4350	4406	4350	4296	4243	4192	4243	4243	4243	4243	4243	4296	4296	4243	4192	4243	4243	4243	4243	4296	4350	4350	4350	4350	4350	4350	4350	4350	4350	4350	4350	4296	4296	4296	4296	4243	4243	4296	4243	4296	4296	4296	4296	4296	4296	4296	4296	4296	4296	4296	4296	4296	4243	4243	4243	4243	4142	4142	4142	4142	4142	4192	4192	4243	4350	4406	4406	4406	4406	4406	4406	4406	4350	4406	4406	4406	4406	4406	4406	4406	4406	4406	4406	4406	4406	4406	4406	4406	4406	4406	4406	4406	4463	4463	4406	4406	4406	4406	4406	4406	4350	4350	4406	4350	4350	4350	4350	4350	4406	4406	4406	4406	4406	4406	4406	4406	4406	4406	4406	4406	4406	4406	4350	4350	4350	4350	4350	4350	4296	4243	4243	4192	4192	4192	4192	4142	4142	4142	4296	4350	4350	4350	4406	4406	4406	4463	4706	4771	4838	4838	4838	4838	4906	4838	4838	4838	4838	4838	4838	4838	4838	4838	4838	4838	4838	4771	4838	4771	4771	4838	4906	4906	4906	4906	4906	4906	4977	4906	4906	4838	4838	4838	4838	4838	4838	4838	4906	4906	4906	4906	4906	4906	4906	0	0	0	0	0	0	0	0	0	0	0	0	0	0	0	0	0	0	0	0	0	0	0	0	0	0	0	0	0	0	0	0	0	0	0	0	0	0	0	0	0	0	0	0	0	0	0	0	0	0	0	0	0	0	0	0	0	0	0	0	0	0	0	0	0	0	0
0	0	0	705	708	708	708	710	710	710	713	717	720	722	723	723	732	734	734	736	737	739	740	742	742	753	753	755	755	760	763	763	767	770	772	775	777	780	780	784	788	791	793	797	798	800	808	808	815	815	817	819	819	821	825	825	848	848	850	850	856	856	860	871	873	875	880	884	887	889	894	896	896	898	908	913	915	917	920	917	922	925	925	925	925	925	925	925	0	0	0	0	0	0	0	0	0	0	4350	4406	4406	4406	4406	4350	4350	4643	4643	4643	4643	4643	4643	4643	4643	4643	4643	4643	4643	4581	4581	4581	4581	4521	4521	4521	4521	4521	4521	4521	4521	4521	4521	4521	4521	4521	4581	4521	4581	4581	4521	4521	4521	4521	4521	4521	4463	4521	4521	4521	4581	4581	4581	4521	4643	4643	4643	4706	4771	4838	4906	4906	4977	4977	4977	4977	4977	4977	4977	4977	4977	4906	4906	4906	4977	4977	4977	4977	4977	5050	4977	4977	4977	4977	4977	4906	4906	4906	4906	4977	4977	4977	4977	4977	4977	5050	5125	5125	5125	5125	5125	5050	5050	5050	0	0	0	0	0	0	0	0	0	0	0	0	0	0	0	0	0	0	0	0	0	0	0	0	0	0	0	0	0	0	0	0	0	0	0	0	0	7959	7779	7779	7779	7779	7779	7779	7779	7779	7608	7608	7608	7608	7608	7608	7608	7444	7444	7608	7608	7779	7779	7959	7959	8146	8146	8343	8343	8146	0	0	0	3440	3440	3440	3440	3440	3440	3440	3440	3406	3440	3406	3406	3406	3406	3440	3440	3475	3475	3475	3475	0	0	0	0	0	0	0	3406	3406	3440	3440	3440	3440	3440	3440	3406	3406	3440	3406	3406	3406	3406	3406	3406	3406	3440	3440	3440	3440	3440	0	0	0	0	0	0	0	0	0	0	4706	4643	4581	4521	4521	4521	4521	4521	4463	4463	4463	4463	4463	4406	4463	4463	4463	4463	4463	4463	4463	4463	4463	4463	4463	4463	4463	4521	4521	4521	4463	4463	4463	4350	4296	4243	4243	4243	4243	4243	4296	4296	4296	4296	4243	4243	4296	4243	4243	4296	4350	4296	4243	4192	4142	4142	4142	4142	4192	4192	4243	4243	4192	4142	4192	4243	4243	4192	4243	4243	4296	4296	4296	4296	4296	4296	4296	4350	4296	4296	4296	4296	4243	4243	4243	4243	4243	4243	4243	4243	4243	4296	4243	4243	4243	4243	4243	4243	4243	4243	4142	4142	4142	4142	4142	4142	4093	4142	4093	4142	4142	4142	4296	4350	4350	4406	4350	4406	4350	4350	4406	4350	4350	4406	4406	4406	4406	4406	4406	4406	4406	4406	4406	4406	4350	4406	4406	4406	4406	4463	4463	4463	4463	4406	4406	4406	4406	4406	4406	4350	4350	4406	4350	4350	4350	4350	4350	4406	4406	4406	4406	4406	4406	4406	4406	4406	4406	4406	4406	4406	4406	4350	4350	4350	4350	4350	4296	4296	4243	4243	4192	4142	4142	4142	4093	4093	4192	4296	4350	4350	4350	4350	4406	4463	4463	4771	4771	4838	4838	4838	4838	4838	4906	4838	4906	4838	4838	4838	4838	4838	4838	4838	4838	4838	4771	4771	4771	4771	4771	4838	4838	4906	4906	4906	4906	4977	4906	4906	4838	4838	4838	4771	4838	4838	4838	4906	4906	4977	4977	4906	4906	4906	0	0	0	0	0	0	0	0	0	0	0	0	0	0	0	0	0	0	0	0	0	0	0	0	0	0	0	0	0	0	0	0	0	0	0	0	0	0	0	0	0	0	0	0	0	0	0	0	0	0	0	0	0	0	0	0	0	0	0	0	0	0	0	0	0	0	0
0	0	0	0	708	708	708	710	710	710	713	719	720	722	722	722	732	734	736	737	739	739	740	743	742	745	752	756	758	761	763	763	767	768	773	777	779	780	782	786	788	789	791	791	798	802	810	814	815	815	817	819	819	821	823	833	833	848	850	854	856	856	860	869	873	875	880	884	887	887	894	896	896	903	910	913	915	917	917	917	922	925	927	927	925	927	927	927	0	0	0	0	0	0	0	0	0	0	4350	4406	4406	4406	4296	4350	4350	4581	4581	4643	4643	4643	4643	4643	4643	4643	4643	4581	4643	4581	4581	4581	4581	4521	4521	4521	4521	4521	4521	4521	4463	4521	4521	4521	4521	4521	4581	4581	4581	4581	4521	4521	4521	4521	4521	4521	4463	4521	4521	4521	4521	4521	4581	4521	4581	4643	4643	4706	4771	4838	4906	4906	4906	4906	4977	4977	4977	4977	4977	4977	4977	4977	4977	4977	4977	4977	4977	4977	4977	4977	4977	4977	4977	4906	4906	4906	4906	4906	4906	4977	4977	4977	4977	4977	5050	5050	5125	5125	5125	5125	5050	5050	5050	5050	0	0	0	0	0	0	0	0	0	0	0	0	0	0	0	0	0	0	0	0	0	0	0	0	0	0	0	0	0	0	0	0	0	0	0	0	0	7779	7779	7779	7779	7779	7779	7779	7779	7608	7608	7608	7608	7444	7608	7608	7444	7287	7287	7444	7444	7608	7779	7959	7959	7959	8146	8343	8343	0	0	0	0	3440	3440	3440	3440	3440	3440	3440	3440	3440	3440	3406	3406	3406	3406	3440	3440	3475	3475	3475	3475	0	0	0	0	0	0	0	3406	3406	3440	3440	3440	3440	3440	3440	3406	3406	3406	3406	3406	3406	3406	3406	3406	3406	3406	3440	3440	3440	3440	0	0	0	0	0	0	0	0	0	0	4643	4643	4581	4521	4521	4521	4521	4463	4463	4463	4463	4463	4463	4463	4463	4463	4463	4463	4463	4463	4463	4463	4463	4463	4463	4463	4463	4463	4463	4463	4463	4463	4463	4350	4296	4243	4243	4243	4243	4192	4243	4243	4243	4243	4192	4243	4243	4192	4192	4243	4243	4192	4192	4142	4142	4142	4142	4142	4142	4192	4192	4243	4192	4142	4192	4296	4296	4192	4192	4243	4296	4296	4243	4296	4296	4296	4296	4296	4296	4243	4296	4243	4192	4192	4192	4192	4243	4243	4243	4243	4243	4243	4243	4243	4243	4192	4192	4192	4192	4142	4192	4142	4142	4142	4142	4142	4142	4142	4142	4142	4192	4192	4192	4296	4350	4406	4350	4350	4350	4350	4350	4350	4350	4350	4350	4406	4406	4406	4406	4406	4406	4406	4406	4406	4406	4406	4406	4463	4463	4463	4463	4463	4463	4406	4406	4406	4406	4406	4406	4350	4350	4406	4350	4350	4350	4350	4350	4406	4406	4406	4406	4406	4406	4406	4406	4406	4406	4406	4406	4463	4463	4350	4350	4350	4350	4296	4296	4243	4243	4192	4192	4142	4142	4142	4142	4142	4243	4296	4350	4350	4350	4406	4406	4463	4581	4771	4771	4838	4838	4838	4838	4838	4838	4838	4838	4838	4838	4838	4838	4838	4838	4838	4838	4771	4771	4771	4771	4838	4838	4838	4838	4838	4906	4906	4906	4906	4906	4838	4838	4838	4838	4838	4838	4838	4838	4906	4906	4977	4977	4906	4906	0	0	0	0	0	0	0	0	0	0	0	0	0	0	0	0	0	0	0	0	0	0	0	0	0	0	0	0	0	0	0	0	0	0	0	0	0	0	0	0	0	0	0	0	0	0	0	0	0	0	0	0	0	0	0	0	0	0	0	0	0	0	0	0	0	0	0	0
0	0	0	704	704	707	708	710	710	710	710	720	722	722	723	725	732	734	736	739	739	740	740	743	742	747	753	756	760	761	763	763	767	768	775	777	779	780	780	784	786	789	791	795	798	802	808	812	814	817	817	819	819	821	823	837	843	848	850	852	854	856	860	869	873	875	880	884	887	889	896	896	898	905	908	910	913	917	917	917	922	925	930	927	927	930	932	932	0	0	0	0	0	0	0	0	0	0	0	4406	4406	4406	4406	4463	4463	4581	4643	4643	4643	4643	4581	4581	4581	4581	4581	4581	4581	4643	4581	4581	4643	4581	4581	4581	4581	4521	4521	4521	4521	4521	4521	4521	4521	4521	4581	4581	4581	4581	4521	4521	4521	4521	4463	4463	4463	4463	4463	4463	4463	4521	4581	4581	4581	4643	4643	4643	4706	4706	4906	4906	4906	4977	4977	4977	4977	4977	4977	4977	4977	4977	4977	4977	4977	4977	4977	4977	4977	4977	4977	4977	4977	4906	4977	4906	4906	4906	4977	4977	4977	4977	4977	4977	5050	5050	5125	5125	5125	5125	5050	5050	5050	5050	0	0	0	0	0	0	0	0	0	0	0	0	0	0	0	0	0	0	0	0	0	0	0	0	0	0	0	0	0	0	0	0	0	0	0	0	0	7779	7779	7779	7779	7779	7779	7779	7608	7608	7608	7608	7608	7444	7608	7444	7444	7287	7287	7608	7608	7608	7779	7779	7959	7959	0	0	0	0	0	0	0	3440	3440	3440	3440	3440	3440	3440	3440	3406	3440	3406	3406	3406	3406	3440	3440	3440	3440	3475	3475	0	0	0	0	0	0	0	3406	3406	3440	3440	3440	3440	3440	3440	3406	3406	3440	3406	3406	3406	3406	3406	3406	3406	3440	3440	3440	3440	3440	0	0	0	0	0	0	0	0	0	0	4643	4581	4581	4521	4521	4521	4521	4463	4463	4463	4463	4463	4463	4463	4463	4463	4463	4463	4463	4463	4463	4463	4463	4463	4463	4463	4463	4463	4521	4521	4521	4521	4521	4350	4243	4192	4192	4192	4192	4192	4243	4243	4243	4296	4243	4243	4243	4243	4243	4243	4243	4192	4192	4142	4142	4142	4093	4142	4142	4142	4142	4296	4296	4142	4296	4296	4350	4296	4243	4243	4296	4296	4296	4243	4243	4243	4243	4243	4243	4243	4192	4192	4192	4142	4142	4142	4192	4192	4192	4192	4192	4243	4192	4192	4192	4192	4192	4192	4192	4192	4192	4192	4142	4142	4142	4142	4142	4142	4142	4192	4192	4192	4192	4243	4243	4350	4350	4296	4296	4296	4296	4296	4296	4296	4350	4350	4350	4406	4406	4406	4406	4406	4406	4406	4406	4406	4463	4463	4463	4463	4463	4463	4463	4406	4406	4406	4406	4406	4406	4350	4350	4406	4406	4350	4350	4406	4350	4350	4350	4406	4406	4406	4406	4406	4406	4406	4406	4406	4406	4463	4463	4463	4406	4350	4350	4350	4296	4243	4243	4192	4192	4192	4142	4142	4142	4142	4243	4296	4350	4350	4350	4463	4463	4521	4581	4706	4771	4838	4838	4838	4838	4838	4838	4838	4838	4838	4838	4838	4838	4838	4838	4771	4771	4771	4771	4771	4706	4771	4771	4838	4838	4838	4838	4838	4838	4906	4838	4838	4838	4838	4838	4838	4838	4838	4838	4906	4906	4906	4906	4906	4906	0	0	0	0	0	0	0	0	0	0	0	0	0	0	0	0	0	0	0	0	0	0	0	0	0	0	0	0	0	0	0	0	0	0	0	0	0	0	0	0	0	0	0	0	0	0	0	0	0	0	0	0	0	0	0	0	0	0	0	0	0	0	0	0	0	0	0	0
0	0	0	701	701	707	707	708	708	710	710	722	722	722	722	722	732	734	736	739	739	740	740	742	743	747	753	755	758	761	763	765	768	772	775	777	779	779	780	782	786	789	793	798	800	804	806	810	812	815	817	819	821	823	823	839	843	845	848	852	854	854	858	871	873	875	882	884	889	894	896	896	898	901	905	910	913	917	920	920	922	925	927	927	927	932	932	932	0	0	0	0	0	0	0	0	0	0	0	4406	4406	4463	4581	4463	4581	4643	4643	4643	4643	4643	4581	4643	4581	4581	4581	4581	4643	4643	4643	4643	4643	4581	4581	4581	4581	4521	4521	4521	4521	4521	4581	4521	4581	4581	4581	4581	4581	4581	4521	4581	4521	4521	4463	4463	4463	4463	4463	4463	4463	4463	4521	4521	4521	4581	4643	4643	4706	4771	4838	4838	4906	4977	4977	4977	4977	4977	4977	4977	4977	4977	4977	4977	4977	4977	4977	4977	4977	4977	4977	4977	4977	4977	4977	4906	4906	4906	4977	4977	4977	4977	4977	4977	5050	5050	5125	5125	5125	5125	5050	5050	4977	4977	0	0	0	0	0	0	0	0	0	0	0	0	0	0	0	0	0	0	0	0	0	0	0	0	0	0	0	7608	7608	0	0	0	0	0	0	0	0	7608	7779	7779	7779	7779	7779	7779	7608	7608	7444	7608	7444	7444	7444	7444	7287	7287	7444	7444	7444	7608	7779	7779	7959	7959	0	0	0	0	0	0	0	3440	3440	3440	3440	3440	3440	3440	3440	3440	3440	3406	3406	3406	3440	3440	3440	3440	3475	3475	3475	0	0	0	0	0	0	3373	3406	3406	3440	3440	3440	3440	3440	3406	3406	3406	3406	3406	3406	3406	3406	3440	3406	3406	3440	3475	3440	3440	3440	0	0	0	0	0	0	0	0	0	0	4643	4581	4581	4521	4521	4521	4521	4521	4463	4463	4463	4463	4463	4463	4463	4463	4463	4463	4463	4463	4463	4463	4463	4463	4463	4463	4463	4463	4521	4521	4521	4521	4521	4243	4192	4192	4192	4192	4192	4192	4243	4243	4296	4296	4296	4243	4296	4296	4296	4296	4296	4296	4243	4192	4142	4142	4142	4142	4142	4192	4296	4296	4296	4296	4350	4350	4350	4296	4296	4296	4296	4296	4296	4296	4243	4243	4243	4243	4243	4243	4192	4192	4192	4192	4142	4142	4192	4192	4192	4192	4243	4243	4192	4192	4243	4296	4243	4243	4192	4192	4192	4192	4192	4142	4142	4142	4142	4142	4142	4142	4192	4192	4192	4243	4243	4243	4296	4296	4243	4243	4296	4296	4243	4243	4243	4296	4350	4350	4350	4350	4350	4350	4406	4406	4406	4406	4406	4463	4463	4463	4463	4463	4350	4350	4350	4350	4350	4406	4406	4350	4350	4350	4350	4350	4350	4350	4350	4350	4350	4350	4350	4350	4350	4406	4406	4406	4406	4406	4406	4463	4463	4463	4406	4350	4350	4350	4296	4243	4243	4192	4192	4192	4142	4142	4142	4192	4296	4350	4350	4406	4406	4406	4463	4463	4521	4706	4771	4771	4838	4838	4838	4838	4838	4838	4838	4838	4838	4838	4838	4838	4838	4771	4771	4771	4771	4771	4771	4838	4838	4838	4838	4838	4838	4838	4838	4906	4838	4838	4838	4838	4838	4838	4838	4838	4838	4906	4906	4906	4906	4906	0	0	0	0	0	0	0	0	0	0	0	0	0	0	0	0	0	0	0	0	0	0	0	0	0	0	0	0	2181	2181	2181	2167	2153	2153	0	0	0	0	0	0	0	0	0	0	0	0	0	0	0	0	0	0	0	0	0	0	0	0	0	0	0	0	0	0	0	0	0	0	0
0	0	0	700	701	705	705	708	708	708	714	714	722	722	723	723	732	734	736	737	739	739	740	742	745	750	752	753	756	760	760	767	770	772	773	775	777	777	780	782	788	793	798	800	802	804	806	810	814	817	817	821	821	823	827	835	841	848	850	852	854	856	858	869	873	875	882	884	889	894	896	896	898	898	903	908	913	917	920	920	920	922	922	927	927	932	932	932	0	0	0	0	0	0	0	0	0	0	4463	4463	4521	4463	4521	4463	4463	4643	4643	4643	4643	4643	4581	4643	4581	4581	4521	4581	4581	4643	4643	4581	4581	4581	4581	4581	4521	4521	4521	4521	4521	4521	4581	4521	4521	4581	4581	4581	4581	4581	4521	4643	4643	4581	4581	4521	4521	4521	4521	4463	4521	4521	4521	4521	4521	4521	4643	4643	4643	4706	4838	4838	4906	4977	4977	4977	4977	4977	4977	4977	4977	4977	4977	4977	4977	4977	4977	4977	4977	4977	4977	4977	4977	4977	4906	4906	4906	4906	4977	4977	4977	4977	4977	4977	5050	5050	5125	5202	5202	5125	5050	5050	5050	4977	0	0	0	0	0	0	0	0	0	0	0	0	0	0	0	0	0	0	0	0	0	0	0	0	0	0	0	7608	7608	7444	7444	7608	7608	7608	0	0	0	7608	7608	7779	7779	7779	7779	7779	7608	7608	7444	7608	7444	7444	7444	7444	7444	7444	7444	7444	7608	7608	7779	7779	0	0	0	0	0	0	0	0	0	3475	3440	3440	3440	3440	3440	3440	3440	3440	3440	3406	3440	3440	3440	3440	3440	3440	3475	3475	3475	0	0	0	0	0	0	3373	3373	3406	3440	3440	3440	3440	3440	3406	3406	3406	3406	3406	3406	3406	3406	3406	3406	3406	3440	3475	3440	3440	3440	0	0	0	0	0	0	0	0	0	0	0	4581	4521	4521	4521	4521	4521	4463	4463	4463	4521	4521	4521	4463	4521	4463	4463	4463	4463	4463	4463	4463	4406	4463	4463	4463	4463	4463	4463	4463	4463	4521	4521	4243	4192	4192	4192	4243	4243	4192	4243	4296	4296	4296	4243	4243	4296	4296	4243	4243	4296	4296	4296	4243	4192	4192	4192	4142	4142	4243	4243	4296	4350	4350	4350	4350	4350	4350	4296	4296	4296	4296	4296	4296	4296	4296	4296	4243	4243	4243	4192	4192	4192	4192	4192	4350	4296	4243	4243	4296	4296	4296	4296	4243	4243	4296	4296	4243	4243	4243	4192	4192	4192	4192	4142	4142	4142	4142	4093	4142	4142	4142	4192	4192	4192	4192	4243	4243	4243	4243	4243	4243	4192	4192	4243	4243	4296	4350	4350	4350	4350	4350	4350	4350	4350	4350	4406	4350	4296	4296	4243	4243	4243	4296	4296	4350	4350	4350	4350	4350	4350	4350	4350	4296	4296	4296	4296	4296	4296	4296	4350	4350	4350	4350	4350	4406	4406	4406	4406	4406	4406	4350	4350	4350	4350	4296	4296	4296	4243	4243	4192	4192	4192	4142	4142	4192	4296	4350	4406	4350	4350	4406	4463	4521	4581	4706	4643	4643	4771	4771	4838	4838	4771	4771	4771	4838	4838	4838	4838	4838	4838	4771	4771	4771	4771	4771	4771	4838	4838	4838	4838	4838	4838	0	0	0	0	0	0	0	0	4838	4838	4838	4838	4906	4906	4906	4906	0	0	0	0	0	0	0	0	0	0	0	0	0	0	0	0	0	0	0	0	0	0	0	0	2181	2181	2181	2181	2181	2181	2181	2181	2181	2167	2167	0	0	0	0	0	0	0	0	0	0	0	0	0	0	0	0	0	0	0	0	0	0	0	0	0	0	0	0	0	0	0	0	0	0	0
0	0	0	700	701	704	705	708	710	711	714	714	722	722	722	722	732	734	734	736	739	740	742	745	745	748	753	753	756	763	765	767	770	770	772	772	775	775	777	782	789	795	800	802	802	804	808	810	812	815	817	821	823	825	829	833	839	845	850	852	854	856	858	871	875	875	880	884	887	891	894	896	896	896	901	905	908	908	917	917	917	922	927	930	930	935	935	0	0	0	0	0	0	0	0	0	0	0	4463	4521	4581	4581	4581	4521	4521	4643	4643	4581	4581	4581	4581	4581	4581	4581	4521	4521	4521	4581	4581	4581	4581	4581	4521	4521	4521	4521	4521	4521	4521	4521	4581	4581	4581	4581	4581	4581	4581	4581	4521	4521	4643	4581	4581	4521	4521	4521	4521	4463	4521	4521	4521	4521	4521	4521	4643	4643	4643	4706	4838	4906	4906	4977	5050	4977	5050	4977	4977	4977	4977	4977	4977	4977	4977	4977	4977	4977	4977	4977	4977	4977	4977	4906	4906	4906	4906	4906	4977	4977	4977	4977	4977	4977	5050	5050	5050	5125	5202	5125	5125	5050	5050	0	0	0	0	0	0	0	0	0	0	0	0	0	0	0	0	0	0	0	0	0	0	0	0	0	0	0	7779	7608	7608	7608	7608	7608	7608	7608	7608	7608	7608	7608	7608	7779	7779	7779	7779	7779	7779	7608	7444	7779	7608	7608	7608	7608	7444	7444	7608	7608	7608	7779	7779	0	0	0	0	0	0	0	0	0	0	3475	3475	3440	3440	3440	3440	3440	3440	3440	3440	3406	3440	3440	3440	3440	3440	3440	3475	3475	3475	3475	0	0	0	0	0	3309	3373	3373	3440	3440	3440	3440	3440	3406	3406	3406	3406	3406	3406	3406	3406	3406	3406	3440	3440	3475	3475	3440	3440	0	0	0	0	0	0	0	0	0	0	0	4581	4581	4521	4521	4521	4521	4521	4521	4521	4521	4521	4521	4463	4521	4463	4463	4463	4463	4463	4463	4463	4463	4463	4463	4463	4463	4463	4463	4463	4463	4406	4350	4350	4192	4192	4192	4243	4296	4243	4243	4296	4296	4296	4296	4243	4296	4296	4243	4243	4296	4296	4350	4350	4296	4296	4296	4243	4243	4296	4243	4296	4350	4350	4350	4350	4406	4406	4350	4350	4296	4296	4296	4296	4296	4296	4296	4296	4296	4243	4296	4296	4243	4350	4350	4350	4350	4350	4350	4406	4350	4350	4296	4296	4296	4296	4296	4296	4296	4243	4296	4243	4243	4192	4142	4142	4142	4142	4142	4142	4192	4192	4192	4192	4192	4192	4243	4243	4192	4192	4192	4192	4192	4192	4192	4192	4243	4243	4243	4296	4296	4296	4296	4243	4243	4192	4192	4192	4192	4243	4192	4192	4192	4192	4243	4296	4296	4296	4350	4296	4296	4296	4296	4243	4243	4243	4243	4243	4243	4243	4296	4296	4296	4350	4350	4350	4350	4350	4350	4406	4406	4350	4296	4296	4296	4296	4296	4243	4243	4192	4192	4192	4192	4142	4142	4192	4243	4296	4350	4350	4350	4406	4463	4463	4581	4581	4643	4838	4838	4838	4838	4838	4838	4771	4771	4838	4838	4838	0	0	0	0	0	0	0	4838	4771	4838	4838	4838	4838	4838	4838	0	0	0	0	0	0	0	0	0	0	0	0	4906	4906	4906	4906	0	0	0	0	0	0	0	0	0	0	0	0	0	0	0	0	0	0	0	0	0	0	0	2181	2181	2181	2181	2181	2181	2181	2181	2181	2167	2167	2167	0	0	0	0	0	0	0	0	0	0	0	0	0	0	0	0	0	0	0	0	0	0	0	0	0	0	0	0	0	0	0	0	0	0	0
0	0	0	700	701	704	705	707	710	713	716	716	716	720	722	722	732	732	734	736	740	740	743	747	748	750	753	753	755	761	765	767	770	772	773	773	775	773	775	775	795	798	802	804	804	806	808	810	812	814	817	821	823	825	829	833	841	845	850	852	854	856	858	867	873	875	882	884	887	891	894	894	896	898	901	901	908	915	917	920	920	922	927	930	932	937	937	0	0	0	0	0	0	0	0	0	0	0	4463	4581	4581	4581	4581	4581	4581	4581	4581	4581	4581	4581	4521	4581	4581	4581	4521	4521	4521	4581	4581	4581	4581	4581	4463	4521	4521	4463	4463	4463	4463	4521	4521	4521	4521	4521	4521	4521	4521	4521	4521	4521	4581	4521	4521	4521	4521	4521	4521	4463	4463	4463	4521	4463	4521	4521	4521	4643	4643	4706	4906	4906	4977	4977	5050	4977	4977	4977	5050	4977	4977	4977	5050	5050	5050	4977	4977	4977	4977	4906	4977	4977	4977	4906	4906	4906	4906	4906	4906	4977	4977	4977	4977	4977	5050	5050	5125	5125	5125	5125	5050	5050	5050	0	0	0	0	0	0	0	0	0	0	0	0	0	0	0	0	0	0	0	0	0	0	0	0	0	0	0	7779	7608	7608	7608	7608	7608	7608	7608	7608	7608	7608	7608	7608	7608	7779	7779	7779	7779	7779	7779	7608	7779	7779	7779	7608	7608	7608	7608	7608	7608	7608	7779	7779	7779	0	0	0	0	0	0	0	0	0	3475	3475	3440	3440	3440	3440	3440	3406	3406	3406	3406	3406	3406	3440	3440	3440	3440	3475	3475	3475	3475	0	0	0	0	0	3309	3341	3406	3406	3440	3440	3440	3406	3406	3406	3406	3406	3406	3406	3406	3406	3406	3406	3440	3440	3475	3475	3440	3475	3475	0	0	0	0	0	0	0	0	0	0	4581	4521	4521	4521	4521	4521	4521	4521	4521	4521	4521	4521	4521	4521	4521	4463	4463	4463	4463	4463	4463	4463	4463	4463	4463	4463	4463	4463	4463	4463	4406	4350	4350	4192	4192	4192	4243	4296	4243	4296	4296	4296	4296	4296	4243	4296	4296	4296	4296	4296	4350	4350	4406	4350	4350	4350	4350	4296	4296	4296	4350	4350	4350	4350	4406	4406	4406	4350	4350	4350	4350	4296	4296	4296	4296	4296	4296	4296	4296	4296	4296	4350	4350	4350	4350	4350	4406	4406	4463	4406	4350	4350	4350	4350	4350	4350	4350	4350	4296	4350	4296	4296	4243	4243	4192	4142	4142	4142	4142	4142	4192	4192	4192	4192	4192	4243	4192	4192	4192	4192	4192	4192	4192	4192	4192	4192	4192	4192	4192	4243	4243	4243	4192	4192	4142	4142	4142	4142	4142	4142	4142	4142	4192	4192	4192	4243	4243	4296	4296	4296	4296	4296	4243	4243	4243	4243	4192	4192	4243	4243	4243	4243	4243	4243	4296	4296	4296	4296	4296	4296	4296	4243	4243	4243	4243	4243	4243	4243	4192	4192	4192	4192	4142	4142	4192	4243	4296	4350	4350	4406	4463	4521	4521	4581	4581	4581	4838	4838	4838	4838	4838	4838	0	0	0	0	0	0	0	0	0	0	0	0	4838	4838	4771	4838	4838	4838	4838	4838	0	0	0	0	0	0	0	0	0	0	0	0	0	0	4906	4906	0	0	0	0	0	0	0	0	0	0	0	0	0	0	2252	2237	2237	2237	2223	2223	2208	2208	2194	2181	2181	2181	2181	2181	2181	2181	2167	2181	2167	2167	2167	0	0	0	0	0	0	0	0	0	0	0	0	0	0	0	0	0	0	0	0	0	0	0	0	0	0	0	0	0	0	0	0	0	0	0
0	0	0	701	703	704	705	708	711	714	716	716	720	722	722	731	731	732	734	736	739	740	742	747	748	750	753	753	755	761	765	768	772	772	773	773	775	773	773	773	797	800	802	804	804	806	808	810	810	812	817	823	823	825	829	835	841	845	848	852	854	858	860	865	871	873	882	884	889	891	891	894	896	898	903	908	910	915	917	920	920	922	925	930	930	935	935	0	0	0	0	0	0	0	0	0	0	0	4521	4581	4581	4581	4581	4581	4581	4581	4581	4581	4581	4581	4521	4643	4581	4581	4521	4521	4521	4581	4581	4581	4521	4521	4463	4463	4521	4521	4463	4463	4463	4463	4521	4463	4463	4463	4521	4521	4521	4521	4521	4521	4581	4581	4581	4521	4521	4521	4521	4463	4463	4463	4463	4463	4463	4521	4521	4581	4706	4706	4706	4838	4906	4977	4977	4977	4977	4977	4977	4977	5050	5050	5050	5050	5050	4977	4977	4977	4977	4906	4906	4906	4906	4906	4906	4906	4906	4906	4906	4977	4977	4977	4977	4977	5050	5050	5050	5125	5125	5125	5050	5050	5050	0	0	0	0	0	0	0	0	0	0	0	0	0	0	0	0	0	0	0	0	0	0	0	0	0	0	7608	7608	7608	7608	7608	7608	7608	7608	7608	7608	7608	7608	7608	7779	7779	7779	7779	7779	7779	7779	7779	7779	7779	7779	7779	7608	7608	7608	7608	7608	7608	7608	7779	7779	7779	7779	0	0	0	0	0	0	0	0	3475	3440	3440	3440	3440	3406	3406	3406	3406	3406	3406	3406	3440	3440	3440	3440	3440	3475	3475	3440	3440	0	0	0	0	0	3309	3373	3406	3406	3440	3440	3440	3440	3406	3406	3406	3406	3406	3406	3406	3406	3406	3440	3440	3440	3475	3475	3475	3475	3475	0	0	0	0	0	0	0	0	0	0	0	4521	4521	4521	4521	4521	4521	4521	4521	4521	4521	4521	4521	4521	4463	4463	4463	4463	4521	4463	4463	4463	4463	4463	4463	4463	4463	4463	4463	4463	4406	4296	4296	4192	4192	4243	4243	4296	4296	4350	4350	4350	4350	4350	4296	4296	4296	4350	4350	4350	4406	4406	4463	4406	4406	4406	4406	4406	4350	4350	4350	4406	4463	4406	4406	4406	4406	4406	4350	4350	4350	4350	4350	4350	4350	4350	4350	4350	4350	4350	4350	4350	4350	4406	4406	4350	4406	4406	4406	4406	4406	4350	4350	4406	4406	4350	4350	4350	4350	4350	4350	4296	4296	4243	4192	4192	4142	4142	4192	4192	4192	4243	4243	4192	4192	4243	4192	4142	4142	4142	4192	4142	4142	4142	4142	4142	4142	4192	4192	4192	4192	4192	4142	4142	4142	4142	4142	4142	4142	4142	4142	4142	4142	4142	4142	4192	4192	4243	4243	4296	4296	4243	4243	4192	4192	4192	4192	4192	4192	4192	4192	4192	4243	4192	4243	4243	4243	4192	4192	4192	4192	4192	4192	4192	4243	4243	4243	4243	4243	4243	4243	4192	4192	4192	4192	4243	4296	4350	4350	4350	4406	4463	4463	4463	4463	4463	0	0	0	0	0	0	0	0	0	0	0	0	0	0	0	0	0	0	0	4838	4771	4838	4838	4838	4838	4838	0	0	0	0	0	0	0	0	0	0	0	0	0	0	0	0	0	0	0	0	0	0	0	0	0	0	0	0	0	2237	2237	2237	2237	2237	2223	2223	2208	2208	2194	2194	2181	2181	2181	2181	2181	2181	2153	2181	2181	2167	2167	0	0	0	0	0	0	0	0	0	0	0	0	0	0	0	0	0	0	0	0	0	0	0	0	0	0	0	0	0	0	0	0	0	0	0
0	0	0	701	703	704	705	708	711	713	713	713	713	711	711	731	731	732	732	736	739	740	743	747	750	752	753	753	755	760	767	770	772	772	773	773	775	773	775	775	800	802	804	806	804	806	808	808	810	810	815	823	825	827	833	835	841	845	848	852	852	858	860	865	869	871	871	887	887	891	896	896	898	898	901	908	913	915	917	917	920	920	922	925	927	932	932	0	0	0	0	0	0	0	0	0	0	0	4521	4581	4581	4581	4581	4581	4581	4581	4581	4581	4581	4581	4581	4581	4581	4581	4521	4581	4581	4581	4581	4581	4581	4521	4463	4463	4463	4463	4463	4463	4463	4463	4521	4521	4521	4521	4521	4463	4521	4463	4463	4521	4521	4463	4463	4581	4581	4463	4463	4463	4463	4463	4463	4463	4521	4521	4643	4643	4706	4706	4706	4838	4906	4977	4977	4977	4977	4977	4977	5050	4977	5050	5050	5050	4977	4977	4977	4977	4906	4906	4906	4906	4906	4906	4906	4906	4906	4906	4906	4906	4977	4977	4977	4977	4977	4977	5050	5050	5125	5125	5050	5050	5050	0	0	0	0	0	0	0	0	0	0	0	0	0	0	0	0	0	0	0	0	0	0	0	0	0	0	7779	7779	7608	7608	7608	7608	7608	7608	7608	7608	7608	7608	7608	7779	7779	7779	7779	7779	7959	7959	7779	7779	7779	7779	7779	7779	7779	7608	7608	7608	7608	7608	7779	7779	7779	7779	7779	0	0	0	0	0	0	0	3440	3440	3440	3440	3406	3406	3406	3406	3406	3406	3406	3406	3406	3440	3440	3440	3440	3475	3475	3510	3510	0	0	0	0	0	0	3373	3373	3406	3440	3440	3440	3440	3406	3406	3406	3406	3406	3406	3406	3406	3406	3440	3440	3440	3475	3475	3475	3475	3475	0	0	0	0	0	0	0	0	0	0	0	4521	4521	4521	4521	4521	4521	4521	4521	4521	4521	4521	4521	4521	4521	4463	4521	4521	4521	4521	4463	4521	4521	4521	4463	4463	4463	4463	4463	4406	4406	4350	4350	4243	4243	4243	4296	4296	4296	4350	4350	4350	4350	4350	4350	4350	4350	4350	4406	4406	4463	4463	4463	4463	4463	4463	4463	4463	4406	4406	4463	4463	4463	4463	4463	4463	4463	4463	4406	4406	4406	4350	4350	4350	4350	4350	4350	4350	4350	4350	4350	4350	4406	4406	4406	4406	4406	4406	4406	4406	4406	4350	4350	4406	4406	4406	4350	4350	4350	4350	4350	4350	4296	4296	4296	4243	4243	4192	4243	4296	4243	4296	4296	4243	4192	4243	4192	4142	4142	4142	4142	4142	4142	4142	4142	4142	4142	4142	4142	4192	4192	4142	4142	4142	4142	4142	4142	4142	4142	4142	4142	4142	4093	4142	4142	4142	4192	4192	4243	4243	4243	4243	4192	4192	4192	4142	4142	4142	4142	4192	4192	4192	4192	4192	4192	4192	4192	4142	4142	4142	4192	4192	4192	4192	4192	4192	4243	4243	4296	4296	4296	4243	4243	4243	4192	4243	4243	4350	4406	4406	4406	4463	4406	4406	4463	4463	0	0	0	0	0	0	0	0	0	0	0	0	0	0	0	0	0	0	0	0	0	0	0	0	0	0	0	0	0	0	0	0	0	0	0	0	0	0	0	0	0	0	0	0	0	0	0	0	0	0	0	0	0	0	0	2252	2252	2237	2237	2237	2237	2223	2208	2208	2208	2194	2194	2194	2181	2181	2181	2181	2167	2167	2181	2167	2167	0	0	0	0	0	0	0	0	0	0	0	0	0	0	0	0	0	0	0	0	0	0	0	0	0	0	0	0	0	0	0	0	0	0	0
0	0	0	0	703	704	704	704	710	711	711	711	711	711	714	731	731	732	734	736	737	739	742	747	750	752	753	753	755	760	765	768	770	772	772	772	773	773	773	779	800	802	802	806	804	806	808	808	810	810	812	823	825	827	831	833	841	845	850	852	854	858	858	865	869	871	878	878	889	891	894	896	898	898	901	910	913	915	915	917	917	920	922	925	927	927	932	0	0	0	0	0	0	0	0	0	0	4521	4521	4581	4581	4581	4581	4581	4581	4581	4581	4581	4581	4581	4581	4643	4643	4581	4521	4521	4521	4581	4581	4521	4521	4521	4463	4463	4463	4463	4463	4463	4463	4463	4521	4463	4463	4521	4521	4463	4463	4463	4463	4521	4521	4463	4463	4581	4581	4581	4463	4463	4463	4463	4463	4463	4521	4521	4643	4643	4706	4706	4838	4906	4906	4977	4977	4977	4977	4977	4977	5050	4977	4977	4977	5050	4977	4977	4977	4977	4977	4838	4838	4906	4906	4906	4906	4906	4906	4906	4906	4906	4977	4977	4977	4977	4977	4977	4977	5050	0	0	0	0	0	0	0	0	0	0	0	0	0	0	0	0	0	0	0	0	0	0	0	0	0	0	0	0	0	0	0	7779	7779	7608	7779	7779	7608	7608	7608	7608	7608	7608	7608	7608	7608	7608	7779	7779	7779	8146	8146	8146	7779	7779	7779	7779	7779	7779	7779	7779	7608	7779	7608	7779	7779	7779	7779	7779	7779	0	0	0	0	0	0	3440	3440	3440	3440	3406	3406	3406	3406	3406	3406	3406	3440	3440	3440	3440	3440	3440	3440	3475	3510	3510	0	0	0	0	0	0	0	3406	3440	3440	3440	3440	3440	3406	3406	3406	3406	3406	3406	3406	3406	3406	3440	3440	3475	3475	3475	3475	3475	3475	0	0	0	0	0	0	0	0	0	0	0	4521	4521	4521	4521	4521	4521	4463	4521	4521	4521	4521	4521	4521	4521	4521	4521	4521	4521	4521	4463	4521	4521	4521	4463	4463	4463	4406	4406	4406	4406	4350	4296	4296	4296	4296	4296	4296	4350	4406	4406	4406	4406	4406	4406	4406	4406	4406	4406	4406	4463	4463	4463	4463	4463	4463	4463	4463	4463	4463	4463	4463	4463	4463	4463	4463	4463	4463	4463	4406	4406	4406	4406	4350	4350	4350	4350	4350	4350	4350	4350	4406	4406	4406	4406	4406	4406	4406	4406	4406	4406	4406	4406	4406	4406	4406	4350	4350	4350	4406	4350	4350	4350	4296	4296	4243	4243	4192	4243	4243	4243	4243	4243	4243	4192	4192	4142	4142	4142	4142	4142	4142	4142	4142	4142	4142	4142	4142	4142	4142	4192	4142	4142	4142	4093	4142	4142	4142	4142	4142	4142	4142	4142	4142	4142	4142	4192	4192	4192	4192	4192	4192	4192	4142	4142	4142	4142	4142	4142	4142	4192	4192	4192	4142	4192	4192	4142	4142	4142	4093	4093	4093	4093	4142	4192	4192	4243	4296	4243	4243	4243	4243	4192	4243	4192	4243	4296	4350	4406	4406	4406	4406	4406	4406	4406	4406	0	0	0	0	0	0	0	0	0	0	0	0	0	0	0	0	0	0	0	0	0	0	0	0	0	0	0	0	0	0	0	0	0	0	0	0	0	0	0	0	0	0	0	0	0	0	0	0	0	0	0	0	0	0	0	2252	2252	2237	2237	2237	2237	2223	2223	2223	2223	2194	2194	2194	2181	2181	2181	2181	2167	2167	2181	2181	2181	0	0	0	0	0	0	0	0	0	0	0	0	0	0	0	0	0	0	0	0	0	0	0	0	0	0	0	0	0	0	0	0	0	0	0
