0	0	0	0	0	0	0	0	0	0	0	0	0	0	0	0	0	0	0	0	0	0	0	0	0	0	0	0	0	0	0	2343	2343	2359	2359	1068	1068	1068	1071	1071	1071	1071	1061	1061	0	0	0	0	0	0	2443	2443	2443	2426	2460	2460	2426	2426	2426	2443	2443	2426	2426	2426	2409	2409	2409	2426	2443	2443	2443	2443	2426	2426	2426	2409	2409	2409	0	0	0	0	0	0	1894	1904	1904	1894	1894	1894	1894	1894	1894	1915	1915	1915	1915	0	2478	2478	2460	2460	2460	2460	2460	2460	2460	2460	2460	2460	2460	2460	2460	2443	2443	2426	2426	2409	2409	2426	2409	2460	2460	2460	2443	2443	0	0	0	0	0	0	2478	2478	2478	2460	2443	2443	2443	2443	2426	2426	2426	2426	2426	2443	2443	2443	2460	2443	2443	2443	2443	2426	2426	2426	2426	2426	2426	2426	2409	2409	2409	2409	2426	2426	2443	2426	2443	2443	2460	2478	2478	2478	2514	2532	2532	2551	2589	2629	2649	2669	2690	2690	2733	2777	2777	2799	2799	2822	2799	2799	2799	2799	2822	2822	2822	2822	2822	0	3998	3952	3907	3907	3907	3907	3907	3864	3864	3821	3821	3821	3821	3821	3821	3821	3821	3821	3821	3779	3779	3779	3779	3779	3779	3779	3779	3779	3779	3738	3779	3779	3779	3779	3779	3779	3779	3821	3821	3821	3821	3821	3821	3864	3864	3864	3864	3907	3952	3952	3952	3998	4045	4045	4045	4045	4045	4093	4093	4045	4045	4045	4045	4093	4093	4093	4643	4581	4581	4581	4581	4581	4581	4581	4521	4581	4581	4581	4581	4581	4581	4581	4581	4581	4581	4581	4581	4521	4521	4463	4350	4142	4142	4093	4142	4093	4093	4581	4581	4643	4643	4581	4581	4581	4581	4581	4581	4581	4581	4581	4581	4581	4581	4581	4581	4581	4581	4581	4521	4521	4521	4521	4521	4463	4463	4463	4463	4406	4406	4296	4296	4192	4142	4142	4093	4093	4093	4093	4093	4093	4093	4093	4093	4093	3440	3440	3406	3406	3373	3373	3341	3341	3309	3309	3309	3309	3309	3309	3309	3309	3309	3309	3309	3309	3309	3341	3373	3373	3373	3373	3373	3373	3373	3373	3373	3373	3373	3373	3373	3373	3373	3373	3373	3341	3373	3373	3373	3373	3373	3406	3406	3373	4142	4142	4142	4093	4093	4093	4093	4093	4093	4093	4142	4093	4093	4093	4093	4093	4093	4093	4093	4093	4045	4045	4045	4045	4045	4045	4045	4045	4045	4045	4093	4093	4093	4093	4093	4093	4093	4093	4045	4045	4093	4093	4093	4093	4093	4093	4093	4093	4093	4093	4093	4093	4093	4093	4093	4045	4045	4045	4045	4045	4045	4045	4045	4045	4045	4045	4045	4045	4045	4045	4045	4045	4045	4045	4045	4045	4045	3998	3998	3952	3952	3952	3952	3952	3907	3907	3907	3907	3907	3952	3952	3952	3907	3907	3907	3907	3907	3907	3907	3907	3907	3907	3907	3907	3907	3907	3907	3907	3907	3907	3907	3952	3907	3952	3952	3952	3952	3952	3952	3907	3907	3907	3907	3907	3907	3907	3907	3907	3907	3907	3907	3907	3907	3907	3907	3952	3907	3952	3952	3952	3998	3952	3952	3952	3998	3952	3952	3998	3952	3952	3998	4045	4093	4093	4093	4142	4142	4192	4192	4142	4142	4142	4093	4093	4093	5815	5815	5815	5719	5815	5815	5815	5915	5915	6018	5915	6018	6018	6018	6018	6018	6018	6018	6124	6124	6124	6124	6124	6124	6235	6235	6349	6235	6349	6468	6468	6468	6468	6468	6468	6468	6468	0	0	0	0	0	0	0	0	0	0	0	0	0	0	0	0	0	0	0	0	0	0	0	0	0	0	0	0	0	0	0	0	0	0	0	0	0	0	0	0	0	0	0	0	0	0
0	0	0	0	0	0	0	0	0	0	0	0	0	0	0	0	0	0	0	0	0	0	0	0	0	0	0	0	0	0	0	0	2327	2343	2343	2392	1068	1068	1068	1068	1064	1061	1061	1061	0	0	0	0	0	0	2443	2443	2443	2426	2460	2460	2460	2460	2443	2443	2443	2426	2426	2392	2409	2409	2409	2426	2426	2443	2443	2460	2443	2443	2426	2409	2409	2409	0	0	0	0	0	0	1894	1894	1894	1894	1894	1894	1894	1894	1894	1904	1904	1904	1904	1915	1915	2478	2460	2460	2460	2460	2460	2460	2443	2460	2460	2460	2460	2460	2460	2443	2443	2426	2426	2409	2409	2426	2426	2443	2460	2460	2443	2443	0	0	0	0	0	0	0	2478	2460	2460	2443	2443	2443	2443	2426	2426	2426	2426	2426	2426	2443	2443	2443	2443	2460	2443	2443	2426	2426	2426	2426	2443	2426	2426	2409	2409	2409	2409	2409	2409	2426	2426	2426	2443	2460	2460	2478	2478	2496	2514	2532	2551	2570	2609	2629	2629	2649	2669	2711	2733	2777	2799	2822	2822	2799	2799	2799	2799	2799	2799	2799	2799	2799	0	3907	3907	3907	3952	3907	3907	3864	3864	3864	3821	3821	3821	3821	3821	3821	3779	3821	3821	3821	3779	3779	3779	3779	3779	3779	3779	3779	3779	3738	3738	3738	3738	3779	3779	3779	3779	3779	3779	3821	3821	3821	3821	3864	3821	3864	3864	3907	3907	3952	3952	3952	3952	3998	3998	4045	4045	4093	4093	4045	4045	4045	4045	4045	4045	4142	4142	4406	4406	4521	4521	4521	4521	4581	4521	4521	4581	4581	4581	4581	4581	4581	4643	4581	4581	4581	4581	4581	4581	4521	4463	4350	4296	4093	4093	4093	4093	4093	4581	4581	4643	4643	4643	4581	4581	4581	4581	4581	4581	4581	4581	4581	4581	4581	4581	4581	4581	4581	4581	4521	4521	4521	4521	4521	4521	4463	4463	4463	4406	4406	4296	4243	4192	4142	4093	4093	4093	4093	4093	4093	4093	4093	4093	4093	4142	3440	3440	3406	3406	3373	3373	3373	3341	3309	3309	3309	3309	3309	3309	3309	3309	3309	3309	3341	3309	3309	3309	3341	3373	3373	3373	3373	3373	3373	3373	3373	3373	3373	3373	3373	3373	3373	3373	3373	3373	3373	3373	3406	3373	3373	3373	3373	4093	4093	4142	4142	4093	4093	4093	4093	4093	4093	4093	4093	4093	4093	4093	4093	4093	4093	4093	4093	4093	4045	4045	4045	4045	4045	4045	4045	4045	4045	4045	4045	4045	4045	4045	4045	4093	4093	4045	4045	4045	4093	4093	4093	4093	4093	4093	4093	4093	4093	4093	4093	4093	4093	4093	4093	4045	4045	4045	4045	4045	4045	4045	4045	4045	4045	4045	4045	4045	4045	4045	4045	4045	4045	4045	4045	4045	4045	3998	3952	3952	3952	3907	3907	3907	3907	3907	3907	3907	3907	3907	3907	3907	3907	3907	3907	3907	3907	3907	3907	3907	3907	3907	3907	3907	3907	3907	3907	3907	3907	3907	3952	3952	3952	3952	3952	3952	3952	3952	3952	3907	3907	3907	3907	3907	3907	3907	3907	3907	3907	3907	3907	3907	3907	3907	3907	3907	3907	3907	3907	3952	3952	3952	3952	3952	3952	3952	3952	3952	3952	3998	3998	4045	4093	4093	4093	4142	4142	4192	4192	4142	4192	4142	4093	4093	5915	5815	5815	5815	5719	5815	5915	5915	6018	6018	6018	6018	6018	6018	6018	6018	6124	6124	6124	6124	6124	6124	6124	6124	6235	6235	6235	6235	6235	6235	6468	6468	6468	6468	6468	6468	6468	6468	0	0	0	0	0	0	0	0	0	0	0	0	0	0	0	0	0	0	0	0	0	0	0	0	0	0	0	0	0	0	0	0	0	0	0	0	0	0	0	0	0	0	0	0	0	0
0	0	0	0	0	0	0	0	0	0	0	0	0	0	0	0	0	0	0	0	0	0	0	0	0	0	0	0	0	0	0	0	2327	2343	2392	2392	1071	1068	1068	1068	1064	1061	1061	1055	1055	1055	0	0	0	0	2443	2443	2443	2426	2443	2460	2443	2443	2426	2426	2443	2426	2409	2392	2409	2409	2409	2426	2426	2426	2426	2443	2426	2426	2426	2409	2409	2409	0	0	0	0	0	1915	1904	1904	1904	1894	1894	1883	1883	1883	1883	1904	1904	1894	1904	1894	1894	2478	2478	2460	2460	2460	2443	2443	2443	2443	2460	2460	2460	2460	2460	2443	2443	2426	2426	2409	2409	2426	2426	2443	2460	2478	2443	2443	2443	0	0	0	0	0	0	2460	2460	2460	2443	2443	2426	2426	2426	2426	2426	2426	2426	2443	2443	2443	2443	2443	2443	2443	2443	2426	2426	2426	2426	2443	2426	2426	2409	2409	2409	2409	2426	2426	2426	2426	2426	2443	2443	2460	2460	2478	2478	2514	2514	2551	2570	2589	2609	2629	2649	2669	2690	2711	2733	2754	2822	2822	2799	2799	2799	2799	2799	2799	2822	2822	2822	0	3907	3907	3907	3952	3907	3907	3864	3864	3864	3821	3821	3821	3821	3821	3821	3779	3821	3821	3821	3779	3779	3779	3779	3779	3779	3779	3738	3738	3738	3738	3738	3738	3779	3738	3738	3779	3779	3779	3779	3779	3864	3864	3864	3821	3821	3864	3864	3864	3952	3952	3952	3952	3998	3998	4045	4045	4093	4093	4045	4045	4045	4045	4045	4093	4093	4296	4350	4406	4463	4463	4463	4463	4521	4521	4463	4521	4521	4521	4521	4521	4581	4581	4581	4581	4581	4581	4581	4581	4581	4521	4350	4296	4142	4093	4142	4142	4192	4192	4192	4643	4706	4643	4643	4581	4581	4581	4581	4581	4581	4581	4581	4581	4581	4581	4581	4581	4581	4581	4521	4521	4521	4521	4521	4521	4521	4521	4463	4463	4406	4350	4243	4192	4142	4093	4093	4093	4093	4093	4093	4093	4093	4093	4093	4142	3406	3406	3406	3406	3373	3373	3341	3341	3309	3309	3309	3309	3309	3309	3309	3309	3309	3309	3309	3309	3309	3309	3341	3341	3373	3341	3373	3373	3373	3373	3373	3373	3373	3373	3373	3373	3373	3373	3373	3373	3406	3373	3406	3373	3373	3373	3373	4093	4093	4142	4142	4093	4093	4093	4093	4093	4093	4093	4093	4093	4093	4093	4093	4093	4093	4093	4045	4045	4045	4045	4045	4045	4045	4045	4045	4045	4045	4045	4045	4093	4045	4045	4093	4093	4093	4045	4045	4045	4093	4093	4093	4093	4093	4093	4093	4093	4093	4093	4093	4093	4093	4093	4045	4045	4045	4045	4045	4045	4045	4045	4045	4045	4045	4045	4045	4045	4045	4045	4045	4045	4045	4045	4045	4045	3998	3952	3952	3952	3952	3907	3907	3907	3907	3907	3907	3907	3907	3907	3907	3907	3907	3907	3907	3907	3907	3907	3907	3907	3907	3907	3907	3907	3907	3907	3907	3952	3907	3907	3952	3952	3952	3907	3952	3952	3952	3907	3907	3907	3907	3907	3907	3907	3907	3907	3907	3952	3952	3907	3952	3952	3907	3907	3952	3907	3907	3907	3907	3952	3952	3907	3907	3952	3952	3952	3952	3952	3952	3998	4093	4045	4093	4093	4093	4142	4142	4192	4142	4142	4142	4093	4093	6124	6018	5815	5915	5815	5815	5815	5915	5915	5915	6018	6124	6124	6124	6124	6018	6018	6018	6124	6018	6124	6124	6124	6235	6235	6235	6235	6349	6235	6235	6235	6235	6468	6468	6468	6468	6468	6468	6468	0	0	0	0	0	0	0	0	0	0	0	0	0	0	0	0	0	0	0	0	0	0	0	0	0	0	0	0	0	0	0	0	0	0	0	0	0	0	0	0	0	0	0	0	0	0
0	0	0	0	0	0	0	0	0	0	0	0	0	0	0	0	0	0	0	0	0	0	0	0	0	0	0	0	0	0	0	0	0	0	2376	1071	1071	1068	1068	1064	1064	1061	1058	1052	1048	1048	0	0	0	0	0	0	2426	2426	2426	2460	2426	2426	2426	2426	2443	2426	2426	2409	2409	2409	2409	2426	2443	2426	2443	2460	2443	2443	2426	2426	2409	2426	2426	0	0	0	0	1915	1904	1883	1883	1883	1883	1883	1883	1883	1883	1904	1904	1894	1894	1904	1904	0	2460	2460	2460	2443	2460	2443	2426	2426	2460	2460	2460	2443	2443	2443	2426	2426	2426	2426	2409	2426	2443	2460	2443	2460	2460	2443	2443	2443	0	0	0	0	2460	2460	2460	2443	2443	2426	2426	2426	2426	2426	2409	2426	2426	2443	2443	2443	2443	2443	2443	2443	2443	2426	2426	2426	2426	2426	2426	2409	2409	2409	2409	2409	2426	2426	2426	2426	2426	2443	2443	2460	2460	2460	2478	2514	2514	2551	2570	2589	2609	2629	2629	2669	2690	2711	2733	2777	2777	2822	2799	2799	2799	2799	2799	2822	2822	2822	2822	0	3907	3907	3907	3907	3907	3907	3907	3864	3864	3864	3864	3821	3821	3779	3821	3779	3779	3779	3779	3779	3779	3779	3779	3779	3779	3738	3738	3738	3738	3738	3738	3738	3779	3779	3779	3779	3779	3779	3864	3821	3821	3821	3821	3821	3821	3864	3864	3907	3952	3952	3952	3998	3998	3998	4045	4045	4093	4093	4045	4045	4045	4045	4045	4093	4093	4192	4350	4350	4406	4406	4406	4406	4463	4521	4463	4463	4463	4463	4463	4521	4581	4581	4581	4643	4643	4643	4643	4581	4581	4521	4350	4243	4192	4142	4142	4142	4142	4581	4643	4706	4706	4643	4643	4581	4581	4581	4581	4581	4581	4581	4581	4581	4581	4581	4581	4581	4581	4581	4521	4521	4521	4521	4521	4521	4521	4521	4521	4463	4406	4350	4296	4192	4142	4093	4093	4093	4093	4093	4093	4093	4045	4093	4093	4093	3406	3406	3406	3406	3373	3373	3341	3309	3309	3309	3309	3309	3277	3309	3309	3309	3309	3341	3341	3341	3341	3341	3341	3373	3373	3373	3373	3373	3373	3373	3373	3373	3373	3373	3373	3373	3373	3373	3373	3373	3406	3373	3373	3373	3341	3341	4093	4093	4093	4142	4142	4093	4093	4093	4093	4093	4093	4093	4093	4093	4093	4093	4093	4142	4093	4093	4093	4093	4045	4045	4045	4045	4045	4045	4045	4045	4045	4045	4045	4045	4045	4045	4045	4045	4093	4045	4045	4045	4093	4093	4093	4093	4093	4093	4093	4093	4142	4093	4093	4093	4093	4093	4045	4045	4045	4045	4045	4045	4045	4045	4045	4045	4045	4045	4045	4045	4045	4045	4045	4045	4045	4045	4045	3998	3998	3952	3952	3952	3907	3907	3907	3907	3907	3907	3907	3907	3907	3907	3907	3907	3907	3907	3907	3907	3907	3907	3907	3907	3907	3907	3907	3907	3907	3907	3907	3907	3907	3952	3952	3952	3952	3907	3952	3952	3952	3952	3952	3907	3907	3907	3907	3907	3907	3907	3907	3952	3952	3907	3952	3907	3907	3907	3952	3907	3907	3907	3907	3952	3952	3952	3952	3952	3952	3952	3952	3952	3998	4045	4093	4093	4093	4093	4093	4142	4142	4192	4192	4142	4192	4142	4142	6018	5915	5815	5815	5719	5719	5815	5915	5915	6018	6018	6124	6124	6124	6124	6124	6124	6124	6124	6018	6018	6018	6018	6235	6124	6349	6349	6349	6235	6235	6235	6235	6468	6468	6468	6468	6468	6468	6468	0	0	0	0	0	0	0	0	0	0	0	0	0	0	0	0	0	0	0	0	0	0	0	0	0	0	0	0	0	0	0	0	0	0	0	0	0	0	0	0	0	0	0	0	0	0
0	0	0	0	0	0	0	0	0	0	0	0	0	0	0	0	0	0	0	0	0	0	0	0	0	0	0	0	0	0	0	0	2376	2376	2359	1071	1071	1074	1064	1064	1061	1061	1061	1055	1055	1048	0	0	0	0	0	2409	2409	2409	2409	2409	2409	2409	2409	2426	2409	2426	2409	2409	2409	2409	2409	2426	2426	2426	2426	2443	2443	2426	2426	2426	2426	2426	2426	0	0	0	0	1915	1894	1883	1894	1894	1883	1894	1894	1894	1904	1904	1904	1894	1894	1904	1904	0	2478	2460	2460	2443	2443	2443	2426	2426	2460	2460	2460	2460	2443	2443	2443	2426	2426	2426	2409	2409	2443	2460	2443	2443	2443	2426	2426	2426	2426	0	0	0	2443	2443	2460	2443	2443	2426	2426	2426	2426	2426	2426	2426	2426	2443	2443	2443	2443	2443	2443	2443	2443	2426	2426	2426	2426	2443	2426	2409	2409	2409	2409	2409	2409	2443	2426	2426	2426	2443	2443	2460	2460	2460	2478	2514	2514	2532	2570	2589	2609	2609	2649	2669	2669	2711	2711	2777	2777	2822	2799	2799	2822	2822	2822	2822	2822	2822	2845	2845	3907	3907	3952	3907	3907	3907	3864	3864	3864	3864	3821	3821	3821	3779	3779	3779	3779	3821	3821	3779	3779	3779	3779	3779	3738	3738	3738	3738	3738	3738	3738	3738	3779	3779	3779	3779	3821	3821	3821	3779	3821	3821	3821	3821	3821	3864	3864	3864	3907	3952	3952	3952	3998	3998	3998	3998	4045	4093	4093	4045	4045	4045	4093	4093	4142	4243	4296	4350	4350	4350	4350	4350	4350	4463	4406	4406	4463	4463	4463	4463	4581	4581	4581	4581	4643	4643	4643	4581	4581	4521	4142	4192	4142	4142	4142	4142	4142	4643	4706	4706	4706	4706	4643	4581	4581	4581	4581	4581	4581	4581	4581	4581	4581	4581	4581	4581	4581	4581	4521	4521	4521	4521	4521	4521	4521	4521	4521	4463	4406	4350	4243	4192	4093	4093	4093	4093	4093	4093	4093	4093	4045	4093	4093	4093	3406	3406	3406	3406	3373	3373	3341	3309	3309	3309	3277	3277	3277	3309	3309	3309	3309	3341	3341	3341	3341	3341	3373	3373	3373	3373	3373	3373	3373	3373	3373	3373	3373	3373	3373	3373	3373	3373	3373	3373	3373	3373	3373	3373	3341	3341	4093	4093	4142	4093	4093	4093	4093	4093	4093	4093	4045	4045	4093	4093	4045	4093	4093	4093	4093	4093	4093	4093	4045	4045	4045	4045	4045	4045	4045	4045	4045	4045	4045	4045	4045	4045	4045	4045	4045	4045	4045	4045	4093	4093	4093	4093	4093	4093	4093	4093	4093	4093	4093	4093	4045	4045	4045	4045	4045	4045	4045	4045	4045	4045	4045	4045	4045	4045	4045	4045	4045	4045	4045	4045	4045	4045	4045	3998	3998	3952	3952	3907	3907	3907	3907	3907	3907	3907	3952	3907	3907	3907	3907	3907	3907	3907	3907	3907	3907	3907	3907	3907	3907	3907	3907	3907	3907	3907	3907	3907	3907	3907	3952	3952	3907	3907	3952	3952	3952	3907	3907	3907	3907	3907	3864	3864	3907	3907	3907	3907	3907	3952	3907	3907	3907	3907	3907	3907	3907	3907	3907	3952	3952	3952	3907	3952	3952	3952	3952	3952	4045	4093	4093	4093	4142	4093	4093	4142	4192	4192	4192	4192	4192	4192	4192	4192	6018	5815	5815	5815	5815	5915	5915	6018	6018	6018	6124	6124	6124	6124	6124	6124	6124	6124	6124	6124	6124	6124	6124	6124	6124	6235	6235	6235	6235	6124	6124	6124	6124	6349	6349	6468	6468	6468	0	0	0	0	0	0	0	0	0	0	0	0	0	0	0	0	0	0	0	0	0	0	0	0	0	0	0	0	0	0	0	0	0	0	0	0	0	0	0	0	0	0	0	0	0	0
0	0	0	0	0	0	0	0	0	0	0	0	0	0	0	0	0	0	0	0	0	0	0	0	0	0	0	0	0	0	0	0	2376	2376	2359	1071	1068	1071	1064	1061	1061	1061	1061	1061	1061	0	0	0	0	0	0	2409	2409	2409	2409	2409	2409	2409	2426	2426	2409	2426	2426	2409	2409	2409	2409	2426	2426	2426	2426	2443	2443	2443	2426	2426	2426	2443	2443	0	0	0	0	0	1904	1894	1904	1904	1894	1904	1904	1904	1894	1904	1894	1883	1883	1883	1883	0	2478	2460	2460	2443	2443	2426	2426	2460	2460	2460	2460	2460	2443	2460	2443	2443	2443	2443	2426	2426	2443	2460	2460	2460	2426	2426	2426	2409	2409	2426	2426	2443	2443	2460	2443	2443	2443	2426	2426	2426	2409	2426	2426	2426	2443	2443	2443	2443	2443	2443	2443	2443	2443	2443	2426	2443	2443	2443	2426	2426	2426	2409	2409	2443	2443	2443	2426	2426	2443	2443	2443	2443	2443	2460	2478	2514	2514	2532	2551	2570	2570	2609	2649	2669	2711	2711	2711	2754	2799	2799	2822	2822	2822	2822	2822	2822	2822	2822	2822	2845	3864	3864	3952	3907	3907	3907	3864	3864	3864	3864	3821	3821	3821	3821	3821	3779	3821	3821	3821	3779	3779	3779	3738	3738	3738	3738	3738	3738	3738	3738	3779	3779	3779	3779	3779	3821	3821	3821	3821	3821	3821	3821	3821	3821	3864	3907	3907	3907	3952	3952	3952	3952	3998	3998	3998	4045	4045	4045	4093	4045	4045	4045	4093	4093	4142	4296	4350	4350	4350	4350	4296	4296	4296	4296	4350	4350	4350	4350	4350	4350	4463	4521	4521	4521	4581	4581	4581	4581	4581	4463	4243	4192	4142	4142	4142	4142	4142	4706	4706	4706	4706	4706	4643	4581	4581	4581	4581	4581	4581	4581	4581	4581	4581	4581	4581	4581	4581	4581	4521	4521	4521	4521	4521	4521	4521	4521	4521	4463	4406	4350	4243	4142	4142	4093	4093	4093	4045	4045	4093	4093	4045	4093	4045	4093	3406	3406	3373	3373	3373	3341	3341	3309	3309	3309	3277	3277	3277	3309	3309	3309	3309	3341	3341	3341	3341	3341	3341	3373	3373	3373	3373	3373	3373	3373	3373	3341	3373	3373	3373	3373	3373	3406	3406	3373	3373	3373	3373	3341	3341	3309	4093	4142	4142	4093	4093	4093	4093	4093	4093	4093	4093	4093	4093	4093	4093	4093	4093	4093	4093	4093	4093	4093	4093	4045	4045	4045	4045	4045	4045	4045	4045	4045	4045	4045	4045	4045	4045	4045	4045	4045	4045	4045	4045	4045	4045	4045	4093	4093	4093	4093	4093	4093	4093	4093	4045	4045	4045	4045	4045	3998	4045	4045	4045	4045	4045	4045	4045	4045	4045	4045	4045	4045	4045	4045	4045	4045	4045	3998	3998	3952	3952	3952	3907	3907	3907	3907	3907	3907	3907	3907	3907	3907	3907	3907	3907	3907	3907	3907	3907	3907	3907	3907	3907	3907	3907	3907	3907	3907	3907	3907	3907	3907	3907	3907	3907	3907	3952	3952	3907	3907	3907	3907	3907	3907	3907	3864	3864	3907	3907	3907	3907	3907	3952	3952	3952	3907	3952	3907	3907	3907	3952	3952	3952	3907	3907	3952	3907	3952	3952	3952	3998	4045	4093	4093	4142	4142	4142	4142	4192	4192	4192	4192	4192	4192	4243	4243	4243	5815	5815	5815	5815	5915	6018	6018	6018	6124	6124	6124	6124	6124	6124	6124	6124	6124	6124	6124	6124	6124	6124	6124	6235	6235	6349	6349	6124	6124	6124	6349	6124	6349	6349	0	0	0	0	0	0	0	0	0	0	0	0	0	0	0	0	0	0	0	0	0	0	0	0	0	0	0	0	0	0	0	0	0	0	0	0	0	0	0	0	0	0	0	0	0	0	0	0	0
0	0	0	0	0	0	0	0	0	0	0	0	0	0	0	0	0	0	0	0	0	0	0	0	0	0	0	0	0	0	0	0	0	0	2266	2266	1068	1074	1061	1061	1058	1061	1061	1061	1061	0	0	0	0	0	2409	2409	2409	2409	2409	2409	2409	2409	2409	2426	2409	2426	2409	2409	2409	2409	2409	2426	2426	2409	2426	2443	2443	2426	2426	2426	2426	2426	2426	0	0	0	0	1904	1904	1904	1904	1904	1904	1904	1915	1904	1894	1904	1894	1883	1904	1894	1894	0	2478	2443	2460	2443	2443	2443	2426	2443	2460	2460	2460	2460	2460	2460	2460	2443	2443	2443	2443	2460	2496	2551	2532	2460	2460	2426	2426	2409	2426	2409	2409	2426	2443	2443	2426	2443	2426	2426	2426	2426	2426	2443	2443	2443	2443	2443	2460	2460	2443	2443	2443	2443	2443	2443	2443	2443	2460	2443	2443	2443	2443	2409	2409	2409	2443	2443	2426	2409	2443	2443	2443	2443	2460	2460	2478	2478	2532	2551	2551	2570	2609	2609	2649	2669	2690	2711	2690	2754	2799	2799	2822	2822	2822	2822	2822	2799	2822	2822	2822	0	3864	3907	3907	3907	3907	3864	3864	3864	3864	3864	3821	3821	3821	3821	3821	3779	3821	3821	3821	3779	3779	3779	3779	3779	3738	3738	3738	3738	3738	3779	3779	3779	3779	3779	3779	3779	3779	3821	3821	3779	3864	3821	3864	3864	3864	3907	3907	3907	3907	3952	3952	3998	3998	3998	3998	4045	4093	4093	4093	4045	4045	4045	4093	4093	4142	4243	4350	4350	4350	4296	4243	4243	4243	4243	4296	4296	4296	4296	4296	4296	4350	4350	4350	4463	4463	4581	4643	4581	4521	4463	4192	4192	4142	4142	4142	4142	4142	4706	4706	4706	4706	4706	4643	4581	4581	4581	4581	4581	4581	4581	4581	4581	4581	4581	4581	4581	4581	4581	4521	4521	4521	4521	4521	4521	4521	4521	4521	4463	4406	4350	4243	4243	4142	4093	4093	4093	4093	4045	4045	4093	4045	4045	4045	4093	3406	3406	3406	3373	3373	3341	3341	3309	3277	3277	3277	3277	3277	3309	3309	3309	3309	3341	3341	3341	3341	3341	3341	3341	3373	3373	3373	3373	3373	3373	3373	3341	3373	3373	3373	3373	3373	3373	3373	3373	3373	3341	3341	3341	3309	3309	3309	4093	4093	4093	4093	4093	4093	4093	4093	4093	4093	4093	4093	4093	4093	4093	4093	4093	4093	4093	4093	4093	4045	4045	4045	4045	4045	4045	4045	4093	4045	4045	4045	4093	4045	4093	4045	4045	4045	4045	4045	4045	4045	4045	4045	4045	4093	4093	4093	4093	4093	4093	4093	4093	4045	4045	4045	4045	4045	4045	4045	4045	4045	4045	4045	4045	4045	4045	4045	4045	4045	4045	4045	4045	4045	4045	4045	4045	3998	3952	3952	3952	3907	3907	3907	3907	3907	3907	3907	3907	3907	3907	3907	3907	3907	3907	3907	3907	3907	3907	3907	3907	3907	3907	3907	3907	3907	3907	3907	3907	3907	3907	3907	3907	3907	3907	3907	3907	3907	3907	3907	3907	3907	3907	3864	3864	3907	3907	3907	3952	3952	3952	3952	3952	3952	3907	3907	3907	3907	3907	3907	3952	3907	3907	3907	3907	3907	3907	3952	3952	4045	4045	4093	4142	4142	4142	4142	4192	4192	4192	4192	4192	4243	4192	4243	4243	4243	5815	5915	5815	5815	5915	6018	6018	6018	6124	6124	6124	6124	6124	6124	6124	6124	6124	6124	6124	6124	6124	6124	6124	6235	6349	6349	6235	6235	6235	6124	6349	6349	6349	6349	0	0	0	0	0	0	0	0	0	0	0	0	0	0	0	0	0	0	0	0	0	0	0	0	0	0	0	0	0	0	0	0	0	0	0	0	0	0	0	0	0	0	0	0	0	0	0	0	0
0	0	0	0	0	0	0	0	0	0	0	0	0	0	0	0	0	0	0	0	0	0	0	0	0	0	0	0	0	0	0	0	0	0	2266	1071	1068	1064	1064	1061	1061	1064	1064	1064	1064	0	0	0	0	0	2409	2409	2409	2426	2460	2460	2409	2409	2409	2426	2409	2409	2409	2409	2409	2409	2409	2409	2409	2409	2409	2426	2426	2426	2426	2426	2426	2426	2426	0	0	1915	1904	1904	1904	1904	1904	1904	1904	1915	1915	1915	1894	1894	1894	1883	1873	1873	1873	0	2460	2443	2443	2443	2443	2443	2426	2443	2443	2460	2460	2460	2460	2460	2460	2460	2460	2443	2443	2409	2409	2551	2551	2551	2460	2426	2426	2409	2409	2409	2409	2426	2409	2426	2409	2443	2443	2426	2426	2426	2426	2443	2443	2443	2426	2443	2443	2443	2443	2443	2443	2443	2443	2443	2443	2460	2460	2443	2443	2443	2443	2409	2409	2409	2426	2426	2426	2409	2426	2426	2426	2426	2426	2460	2478	2532	2532	2532	2551	2570	2589	2609	2609	2669	2690	2690	2690	2733	2754	2799	2799	2799	2822	2822	2799	2799	2799	2799	2799	3864	3907	3907	3907	3907	3907	3864	3864	3864	3864	3864	3821	3864	3821	3821	3821	3821	3821	3821	3821	3821	3779	3779	3779	3779	3779	3779	3738	3779	3779	3779	3779	3779	3779	3779	3779	3779	3779	3821	3821	3779	3821	3821	3864	3864	3864	3907	3907	3907	3907	3952	3952	3952	3998	3952	3952	3998	4045	4045	4045	4045	4045	4045	4093	4093	4093	4192	4350	4350	4350	4350	4296	4296	4296	4243	4243	4243	4243	4243	4296	4350	4350	4350	4350	4350	4350	4643	4643	4643	4643	4192	4192	4192	4142	4142	4142	4142	4142	4706	4706	4706	4706	4643	4643	4581	4581	4581	4581	4581	4581	4581	4581	4581	4581	4581	4581	4581	4581	4581	4521	4521	4521	4521	4521	4521	4521	4581	4521	4521	4463	4350	4243	4192	4142	4093	4093	4093	4093	4093	4093	4093	4045	4045	4045	4045	4093	4093	3373	3373	3341	3341	3309	3309	3277	3277	3277	3277	3277	3277	3309	3309	3309	3341	3341	3341	3341	3341	3341	3341	3341	3373	3373	3373	3373	3373	3373	3341	3341	3373	3373	3373	3373	3373	3373	3373	3373	3341	3341	3309	3309	3309	4093	4093	4093	4093	4093	4093	4093	4093	4045	4093	4093	4093	4045	4045	4045	4093	4045	4093	4093	4093	4093	4093	4045	4045	4045	4045	4045	4045	4045	4093	4045	4045	4093	4093	4093	4093	4045	4045	4045	4045	4045	4045	4045	4093	4045	4093	4093	4093	4093	4093	4093	4093	4093	4093	4093	4045	4045	4045	4045	4045	4045	4045	4045	4045	4045	4045	4045	4045	4045	4045	4045	4045	4045	4045	4093	4045	4045	4045	3998	3998	3952	3952	3907	3907	3907	3907	3907	3907	3907	3907	3907	3907	3907	3907	3907	3907	3907	3907	3907	3907	3907	3907	3907	3907	3907	3907	3907	3907	3907	3907	3907	3907	3907	3907	3907	3907	3952	3952	3907	3907	3907	3907	3907	3907	3864	3864	3864	3907	3907	3907	3907	3907	3952	3952	3907	3907	3907	3907	3907	3952	3907	3907	3907	3907	3907	3907	3907	3907	3907	3952	4045	4093	4093	4142	4142	4142	4142	4142	4142	4192	4192	4192	4192	4192	4192	4243	4243	5915	5915	5815	5915	5915	6018	6018	6018	6124	6124	6124	6124	6018	6124	6124	6124	6124	6124	6124	6124	6124	6124	6018	6124	6235	6349	6235	6235	6349	6349	6468	6349	6349	0	0	0	0	0	0	0	0	0	0	0	0	0	0	0	0	0	0	0	0	0	0	0	0	0	0	0	0	0	0	0	0	0	0	0	0	0	0	0	0	0	0	0	0	0	0	0	0	0	0
0	0	0	0	0	0	0	0	0	0	0	0	0	0	0	0	0	0	0	0	0	0	0	0	0	0	0	0	0	0	0	0	0	0	2266	2281	1068	1064	1064	1061	1064	1064	1064	1064	1064	0	0	0	0	0	0	2392	2392	2443	2460	2460	2443	2443	2409	2426	2409	2409	2409	2409	2409	2409	2409	2409	2409	2409	2409	2426	2426	2426	2426	2426	2426	2443	2443	0	0	1915	1894	1904	1904	1894	1904	1904	1904	1904	1904	1904	1894	1894	1894	1883	1873	1873	1873	2443	2443	2443	2443	2443	2443	2443	2426	2443	2443	2460	2460	2460	2460	2460	2460	2460	2443	2443	2426	2426	2426	2551	2551	2551	0	2426	2426	2409	2409	2409	2409	2426	2409	2426	2409	2426	2426	2409	2409	2409	2409	2426	2426	2426	2426	2443	2443	2443	2443	2443	2443	2443	2443	2443	2426	2443	2443	2426	2426	2426	2426	2426	2426	2409	2426	2409	2409	2409	2443	2443	2426	2443	2460	2460	2478	2532	2532	2551	2551	2570	2609	2609	2649	2669	2690	2690	2690	2733	2777	2799	2799	2799	2822	2822	2822	2799	2822	2799	2799	3864	3907	3907	3907	3907	3907	3907	3907	3907	3864	3864	3864	3864	3821	3821	3821	3821	3821	3821	3821	3779	3779	3779	3779	3779	3779	3779	3738	3779	3779	3779	3779	3779	3779	3779	3779	3779	3779	3779	3821	3821	3821	3821	3864	3864	3864	3864	3864	3864	3907	3907	3907	3952	3952	3952	3952	3998	4045	4045	4045	4045	4045	4093	4093	4093	4093	4296	4350	4350	4350	4350	4296	4296	4296	4243	4243	4243	4243	4296	4296	4296	4296	4296	4296	4296	4296	4296	4296	4350	4350	4243	4142	4142	4142	4142	4142	4142	4142	4706	4706	4706	4643	4643	4643	4581	4581	4581	4581	4581	4581	4581	4581	4581	4581	4581	4581	4643	4643	4581	4521	4581	4581	4521	4521	4521	4521	4581	4521	4521	4521	4463	4243	4243	4142	4093	4093	4093	4093	4093	4045	4093	4045	4045	4045	4045	4093	4093	4093	3341	3341	3341	3309	3309	3277	3277	3277	3277	3277	3277	3309	3309	3309	3309	3309	3341	3341	3341	3341	3341	3341	3341	3373	3373	3373	3373	3373	3341	3341	3341	3373	3373	3373	3373	3373	3373	3341	3341	3341	3309	3309	3309	4093	4093	4093	4093	4093	4093	4045	4093	4045	4093	4093	4093	4045	4045	4045	4093	4045	4093	4093	4093	4093	4093	4093	4045	4045	4045	4045	4045	4093	4093	4093	4093	4093	4093	4093	4093	4045	4045	4045	4045	4045	4045	4045	4093	4093	4093	4093	4093	4093	4093	4093	4093	4093	4093	4093	4093	4045	4093	4045	4045	4045	4045	4045	4045	4045	4045	4045	4045	4045	4045	4045	4045	4045	4045	4045	4045	4045	4045	3998	3998	3952	3952	3907	3907	3907	3907	3907	3907	3907	3907	3907	3907	3907	3907	3907	3907	3907	3907	3907	3907	3907	3907	3907	3907	3952	3952	3907	3907	3907	3907	3907	3907	3907	3907	3907	3907	3952	3907	3907	3907	3907	3907	3907	3907	3864	3864	3864	3907	3907	3907	3907	3907	3952	3907	3907	3907	3907	3907	3907	3952	3952	3952	3952	3952	3952	3952	3952	3952	3952	3952	3998	4045	4093	4093	4093	4093	4142	4142	4142	4192	4192	4192	4243	4192	4243	4243	4243	5915	5915	5915	5915	5915	5915	6018	6018	6018	6018	6124	6018	6124	6018	6018	6018	6018	6018	6018	6124	6018	6124	6018	6124	6235	6235	6235	6235	6349	6468	6468	6349	6349	0	0	0	0	0	0	0	0	0	0	0	0	0	0	0	0	0	0	0	0	0	0	0	0	0	0	0	0	0	0	0	0	0	0	0	0	0	0	0	0	0	0	0	0	0	0	0	0	0	0
0	0	0	0	0	0	0	0	0	0	0	0	0	0	0	0	0	0	0	0	0	0	0	0	0	0	0	0	0	0	0	0	0	0	0	1068	1068	1064	1064	1064	1064	1064	1068	1068	1064	0	0	0	0	0	0	2392	2392	2443	2460	2443	2409	2409	2426	2426	2409	2409	2409	2409	2409	2409	2409	2426	2426	2409	2426	2426	2443	2426	2426	2426	2426	2426	2426	0	0	1904	1894	1894	1883	1894	1894	1894	1894	1904	1915	1904	1894	1894	1894	1883	1873	1873	0	2409	2443	2443	2443	2443	2443	2443	2443	2443	2443	2460	2460	2460	2460	2460	2460	2443	2443	2443	2426	2443	2460	2460	0	0	0	0	0	2409	2409	2409	2409	0	2409	2409	2409	2426	2426	2426	2426	2426	2426	2443	2443	2443	2443	2443	2443	2460	2443	2443	2443	2443	2443	2426	2426	2426	2443	2426	2426	2426	2426	2426	2409	2426	2443	2443	2443	2409	2443	2443	2426	2443	2443	2460	2478	2532	2532	2551	2551	2570	2609	2609	2629	2669	2690	2690	2711	2733	2777	2799	2799	2799	2822	2822	2822	2799	2799	2799	2799	3864	3907	3907	3907	3907	3907	3907	3907	3907	3864	3864	3864	3821	3821	3821	3821	3821	3821	3821	3821	3779	3779	3779	3779	3779	3779	3738	3738	3779	3779	3779	3779	3779	3779	3779	3779	3779	3779	3779	3779	3779	3821	3821	3821	3821	3864	3864	3864	3864	3907	3907	3907	3952	3952	3952	3952	3998	4093	4093	4045	4045	4045	4093	4093	4142	4142	4142	4406	4406	4406	4350	4350	4296	4296	4296	4296	4243	4296	4296	4296	4296	4296	4296	4296	4296	4296	4296	4296	4350	4350	4350	4192	4142	4142	4142	4093	4093	4643	4643	4643	4706	4643	4643	4581	4581	4581	4581	4581	4581	4581	4581	4581	4581	4581	4581	4581	4643	4643	4581	4521	4521	4521	4521	4521	4521	4581	4581	4521	4521	4521	4463	4243	4243	4142	4093	4093	4093	4093	4093	4045	4093	4093	4045	4045	4045	4093	4093	3373	3309	3309	3309	3309	3277	3277	3277	3277	3277	3277	3277	3309	3309	3309	3309	3309	3309	3341	3341	3341	3341	3373	3341	3373	3373	3373	3373	3341	3341	3341	3341	3341	3373	3373	3373	3373	3373	3341	3341	3309	3309	3309	4093	4093	4093	4093	4093	4093	4093	4045	4093	4045	4093	4093	4045	4045	4045	4045	4045	4045	4093	4093	4093	4093	4093	4045	4045	4045	4045	4045	4045	4093	4093	4093	4093	4093	4093	4093	4093	4045	4045	4045	4045	4045	4045	4045	4045	4093	4093	4093	4093	4045	4093	4093	4093	4045	4093	4093	4093	4093	4093	4045	4045	4045	4045	4045	4045	4045	4045	4045	4045	4045	4045	4045	4045	4093	4045	4045	4045	4045	4045	3998	3952	3952	3907	3907	3907	3907	3907	3907	3907	3907	3907	3907	3907	3907	3907	3907	3907	3907	3907	3907	3907	3907	3907	3907	3907	3952	3952	3907	3907	3907	3907	3907	3907	3907	3907	3907	3907	3907	3907	3907	3907	3907	3907	3907	3907	3864	3864	3864	3907	3907	3907	3907	3907	3907	3907	3907	3907	3907	3907	3907	3952	3952	3952	3952	3952	3952	3952	3952	3952	3952	3952	3998	4045	4045	4093	4093	4093	4142	4142	4142	4192	4192	4192	4243	4243	4243	4243	4243	5915	5915	5915	5915	5815	5815	5815	5719	5719	5719	6018	6018	6124	6124	6124	6124	6018	6018	6018	6018	6018	6018	6018	6018	6124	6235	6235	6235	6235	6349	6468	6468	6349	0	0	0	0	0	0	0	0	0	0	0	0	0	0	0	0	0	0	0	0	0	0	0	0	0	0	0	0	0	0	0	0	0	0	0	0	0	0	0	0	0	0	0	0	0	0	0	0	0	0
0	0	0	0	0	0	0	0	0	0	0	0	0	0	0	0	0	0	0	0	0	0	0	0	0	0	0	0	0	0	0	0	0	0	2799	1068	1064	1064	1061	1061	1061	1064	1064	1068	0	0	0	0	0	0	0	0	0	2443	2460	2426	2426	2426	2426	2426	2426	2409	2409	2409	2409	2409	2409	2409	2409	2409	2426	2426	2426	2426	2426	2426	2426	2426	2426	0	0	1883	1883	1894	1883	1894	1894	1894	1894	1904	1904	1894	1883	1883	1883	1873	1863	1863	0	2409	2443	2443	2443	2443	2443	2443	2443	2443	2443	2443	2460	2460	2460	2460	2460	2460	2443	2443	2443	2443	2443	2443	0	0	0	0	0	0	2409	2409	0	0	0	2409	2409	2443	2443	2426	2426	2426	2426	2443	2443	2443	2443	2443	2443	2460	2443	2443	2443	2443	2443	2426	2426	2426	2426	2426	2426	2426	2426	2426	2426	2426	2443	2409	2409	2409	2443	2426	2426	2443	2443	2460	2478	2514	2532	2532	2551	2570	2589	2609	2629	2669	2690	2690	2711	2733	2754	2754	2799	2799	2822	2822	2822	2799	2799	2799	2799	2799	3907	3907	3907	3907	3907	3907	3907	3907	3864	3864	3821	3821	3821	3821	3821	3779	3779	3821	3779	3779	3779	3779	3779	3779	3738	3738	3738	3779	3779	3779	3738	3779	3779	3779	3779	3779	3779	3779	3779	3821	3821	3821	3821	3821	3864	3864	3864	3864	3907	3907	3907	3952	3952	3952	3998	4093	4093	4045	4045	4045	4045	4045	4045	4045	4045	4463	4463	4463	4406	4406	4350	4350	4296	4296	4296	4296	4296	4296	4296	4296	4296	4296	4296	4296	4296	4296	4296	4350	4350	4350	4192	4142	4142	4142	4093	4093	4643	4643	4643	4643	4643	4581	4581	4581	4581	4581	4581	4581	4581	4581	4581	4581	4581	4581	4581	4581	4643	4643	4581	4581	4581	4521	4521	4581	4581	4581	4521	4521	4521	4521	4243	4192	4142	4093	4093	4093	4093	4093	4093	4093	4093	4093	4093	4093	4093	4093	3341	3309	3309	3309	3309	3277	3277	3277	3277	3277	3277	3277	3309	3309	3309	3309	3309	3309	3341	3309	3309	3341	3341	3341	3373	3373	3373	3373	3341	3309	3309	3341	3341	3341	3373	3341	3373	3373	3341	3341	3309	3309	3309	4093	4093	4093	4093	4093	4045	4093	4045	4093	4093	4093	4093	4093	4093	4093	4045	4093	4093	4093	4045	4045	4045	4093	4045	4045	4045	4093	4093	4093	4093	4093	4093	4093	4093	4093	4093	4093	4045	4045	4093	4093	4093	4093	4045	4093	4093	4093	4093	4045	4045	4045	4045	4045	4045	4093	4093	4093	4093	4093	4093	4045	4045	4045	4045	4045	4045	4045	4093	4093	4093	4093	4045	4093	4093	4093	4045	4045	4045	4045	3998	3952	3952	3952	3907	3907	3907	3907	3907	3907	3907	3907	3907	3907	3907	3907	3907	3907	3907	3907	3907	3907	3907	3907	3907	3907	3952	3907	3907	3907	3907	3907	3907	3907	3907	3907	3907	3907	3907	3907	3907	3864	3864	3907	3907	3907	3864	3864	3864	3907	3907	3907	3907	3907	3907	3907	3907	3907	3907	3907	3907	3907	3952	3907	3952	3998	3952	3952	3952	3952	3952	3952	3998	4045	4045	4093	4093	4093	4142	4142	4142	4192	4192	4192	4192	4192	4243	4243	4243	5915	5915	6018	5815	5815	5815	5815	5719	5719	5719	5815	5815	6018	6018	6018	6018	6018	6018	6124	6018	6018	6018	6018	6018	6124	6124	6124	6124	6235	6349	6349	6468	0	0	0	0	0	0	0	0	0	0	0	0	0	0	0	0	0	0	0	0	0	0	0	0	0	0	0	0	0	0	0	0	0	0	0	0	0	0	0	0	0	0	0	0	0	0	0	0	0	0	0
0	0	0	0	0	0	0	0	0	0	0	0	0	0	0	0	0	0	0	0	0	0	0	0	0	0	0	0	0	0	0	0	2777	2799	2799	1064	1064	1064	1064	1061	1064	1068	1068	2392	0	0	0	0	0	0	0	0	0	0	2460	2426	2426	2426	2426	2426	2426	2409	2409	2409	2409	2409	2409	2409	2409	2426	2426	2426	2426	2426	2426	2426	2426	2426	0	0	0	1883	1883	1883	1883	1883	1883	1883	1894	1904	1894	1894	1883	1883	1883	1883	1863	1863	0	2409	2426	2426	2443	2426	2426	2426	2426	2443	2443	2460	2460	2460	2460	2460	2460	2460	2443	2443	2443	2443	2460	2460	0	0	0	0	0	0	0	0	0	0	0	0	2409	2460	2460	2443	2443	2426	2443	2443	2443	2443	2443	2443	2443	2460	2443	2443	2443	2426	2426	2426	2426	2426	2426	2426	2426	2426	2426	2426	2426	2409	2426	2409	2409	2409	2426	2426	2426	2426	2443	2460	2478	2478	2514	2532	2551	2551	2589	2609	2629	2669	2690	2690	2711	2733	2754	2799	2822	2822	2822	2822	2822	2799	2799	2799	2799	2799	3907	3907	3907	3907	3907	3907	3907	3907	3864	3864	3821	3821	3821	3779	3779	3779	3779	3821	3779	3779	3779	3779	3779	3779	3779	3779	3738	3779	3779	3779	3738	3738	3738	3738	3779	3779	3779	3779	3779	3779	3864	3821	3864	3864	3864	3864	3907	3907	3907	3907	3907	3952	3952	3952	3998	3998	4093	4093	4093	4045	4045	4045	4045	4045	4045	4463	4463	4463	4463	4406	4350	4350	4350	4350	4296	4296	4350	4350	4350	4296	4296	4296	4296	4296	4296	4296	4350	4350	4350	4350	4243	4142	4142	4142	4093	4093	4521	4521	4581	4581	4581	4581	4581	4581	4581	4581	4581	4581	4581	4581	4581	4581	4581	4581	4581	4581	4643	4643	4581	4581	4581	4521	4521	4581	4581	4581	4521	4521	4463	4463	4243	4192	4142	4142	4093	4093	4093	4093	4093	4093	4093	4093	4093	4093	4093	4142	3341	3309	3309	3309	3309	3277	3277	3277	3277	3277	3277	3277	3277	3309	3309	3309	3309	3309	3309	3309	3341	3341	3373	3373	3373	3373	3373	3373	3341	3309	3309	3309	3341	3341	3341	3341	3373	3341	3341	3341	3309	3309	3309	4142	4093	4093	4093	4093	4093	4093	4093	4093	4093	4093	4093	4093	4093	4093	4045	4045	4093	4093	4045	4045	4045	4045	4045	4093	4093	4093	4093	4093	4045	4045	4093	4045	4045	4093	4093	4093	4093	4045	4093	4045	4045	4045	4045	4093	4093	4093	4045	4045	4045	4045	4045	4045	4045	4093	4093	4093	4093	4093	4093	4093	4045	4045	4045	4045	4045	4045	4093	4093	4093	4093	4093	4093	4093	4093	4093	4045	4045	4045	3998	3952	3952	3907	3907	3907	3907	3907	3907	3907	3907	3907	3907	3907	3907	3907	3907	3907	3907	3907	3907	3907	3907	3907	3907	3907	3907	3907	3907	3907	3907	3907	3907	3907	3907	3907	3907	3907	3907	3907	3907	3907	3864	3907	3907	3907	3907	3907	3907	3907	3907	3907	3907	3907	3907	3907	3907	3907	3907	3907	3907	3907	3952	3907	3952	3952	3952	3952	3952	3952	3907	3952	3998	4045	4045	4045	4045	4093	4093	4093	4142	4192	4192	4192	4192	4243	4243	4243	6018	6018	5915	6018	5815	5719	5719	5815	5719	5719	5719	5815	5915	6018	6018	6018	6018	6018	6018	6018	6018	6018	6018	6018	6018	6124	6124	6124	6124	6124	6468	6468	0	0	0	0	0	0	0	0	0	0	0	0	0	0	0	0	0	0	0	0	0	0	0	0	0	0	0	0	0	0	0	0	0	0	0	0	0	0	0	0	0	0	0	0	0	0	0	0	0	0	0	0
0	0	0	0	0	0	0	0	0	0	0	0	0	0	0	0	0	0	0	0	0	0	0	0	0	0	0	0	0	0	0	0	2799	2799	2822	1064	1064	1061	1064	1064	1064	1068	1068	2845	2845	0	0	0	0	0	0	0	0	0	0	2426	2426	2460	2443	2426	2426	2426	2426	2409	2409	2409	2409	2426	2409	2426	2426	2426	2426	2426	2426	2426	2426	2426	0	0	0	0	1883	1883	1883	1883	1883	1883	1883	1894	1894	1894	1883	1883	1883	1883	1873	1873	1873	2392	2409	2409	2409	2426	2426	2426	2426	2443	2443	2460	2460	2460	2460	2460	2460	2443	2443	2443	2443	2426	2443	2443	0	0	0	0	0	0	0	0	0	0	0	0	0	2460	2443	2443	2443	2426	2443	2443	2426	2443	2443	2443	2443	2443	2443	2443	2443	2426	2426	2426	2426	2426	2426	2426	2426	2426	2426	2426	2409	2409	2426	2409	2409	2426	2426	2426	2426	2443	2443	2460	2478	2478	2532	2532	2551	2570	2589	2609	2629	2669	2690	2690	2711	2733	2754	2799	2799	2822	2822	2822	2799	2799	2799	2777	2799	2799	3907	3907	3907	3907	3907	3952	3907	3907	3864	3864	3821	3821	3821	3779	3821	3779	3779	3779	3779	3779	3779	3779	3779	3779	3779	3738	3738	3738	3738	3738	3738	3738	3738	3738	3779	3779	3779	3779	3779	3821	3864	3821	3821	3864	3864	3864	3907	3907	3907	3907	3907	3907	3952	3952	3998	3998	4093	4045	4093	4045	4045	4045	4045	4045	4045	4463	4521	4521	4581	4581	4406	4350	4406	4350	4350	4350	4350	4350	4350	4296	4296	4296	4350	4296	4350	4350	4350	4406	4350	4350	4243	4142	4142	4142	4142	4093	4521	4521	4521	4581	4581	4581	4581	4581	4581	4581	4581	4581	4581	4581	4581	4581	4581	4581	4581	4581	4643	4643	4581	4581	4581	4521	4521	4581	4581	4581	4521	4463	4463	4406	4350	4243	4142	4093	4093	4093	4093	4093	4045	4093	4093	4093	4093	4045	4093	4093	3341	3309	3309	3309	3309	3277	3277	3277	3277	3277	3277	3277	3277	3277	3277	3277	3277	3277	3277	3309	3309	3341	3341	3341	3341	3341	3373	3341	3341	3309	3309	3309	3309	3341	3341	3341	3341	3341	3341	3341	3309	3309	4142	4142	4093	4093	4093	4093	4093	4093	4093	4093	4093	4093	4093	4093	4093	4093	4045	4045	4045	4093	4045	4045	4045	4045	4045	4045	4045	4093	4093	4093	4045	4045	4045	4045	4045	4093	4093	4093	4093	4045	4045	4045	4045	4045	4045	4045	4093	4045	4045	4045	4045	4045	4045	4045	4045	4045	4093	4093	4093	4093	4093	4093	4093	4045	4045	4045	4045	4045	4093	4093	4093	4093	4093	4093	4093	4093	4093	4045	4045	4045	4045	3998	3952	3952	3952	3907	3907	3907	3907	3907	3907	3907	3907	3907	3907	3907	3907	3907	3907	3907	3907	3907	3907	3907	3907	3907	3907	3907	3907	3864	3864	3864	3864	3864	3864	3907	3907	3907	3907	3907	3907	3907	3864	3907	3864	3907	3907	3907	3907	3907	3907	3907	3907	3907	3907	3907	3907	3907	3907	3907	3907	3907	3907	3907	3907	3952	3952	3952	3952	3952	3907	3952	3952	3998	3998	4045	4093	4093	4093	4093	4142	4142	4192	4192	4192	4192	4192	4192	4192	6018	6018	6018	5719	5719	5719	5815	5719	5719	5719	5815	5815	6018	6018	6018	6018	6018	6018	6124	6124	6018	6018	6018	6018	6124	6124	6124	6124	6018	6018	6468	0	0	0	0	0	0	0	0	0	0	0	0	0	0	0	0	0	0	0	0	0	0	0	0	0	0	0	0	0	0	0	0	0	0	0	0	0	0	0	0	0	0	0	0	0	0	0	0	0	0	0	0
0	0	0	0	0	0	0	0	0	0	0	0	0	0	0	0	0	0	0	0	0	0	0	0	0	0	0	0	0	0	0	2799	2822	2822	1064	1064	1064	1064	1064	1064	1068	1068	1068	2822	2845	0	0	0	0	0	0	0	0	0	0	0	0	2460	2443	2443	2443	2426	2426	2426	2426	2426	2409	2426	2426	2426	2426	2426	2426	2426	2426	2409	2409	2409	0	0	0	1883	1883	1883	1883	1873	1873	1883	1883	1894	1894	1883	1883	1883	1883	1873	1863	1863	1873	2409	2409	2426	2426	2426	2426	2426	2426	2426	2426	2426	2426	2426	2426	2426	2426	2426	2426	2426	2409	2409	2409	2409	2409	0	0	0	0	0	0	0	0	0	0	0	0	2443	2443	2443	2443	2426	2426	2426	2426	2426	2426	2426	2443	2443	2443	2443	2426	2426	2426	2426	2426	2426	2426	2426	2426	2409	2426	2426	2426	2426	2426	2426	2426	2426	2426	2426	2426	2426	2443	2460	2478	2478	2514	2532	2551	2570	2589	2609	2629	2669	2690	2690	2711	2733	2754	2777	2799	2822	2822	2822	2822	2799	2799	2777	2777	2777	3952	3952	3907	3952	3907	3952	3907	3907	3907	3864	3821	3821	3821	3821	3779	3779	3779	3821	3779	3779	3779	3779	3779	3779	3738	3738	3738	3738	3738	3738	3738	3779	3779	3779	3779	3779	3779	3779	3779	3779	3864	3864	3864	3864	3907	3864	3864	3907	3907	3907	3907	3907	3952	3952	3952	3952	4045	4045	4045	4045	3952	3952	3952	4045	0	0	4581	4521	4521	4521	4463	4406	4406	4406	4350	4350	4350	4350	4350	4296	4296	4296	4296	4296	4350	4350	4350	4350	4350	4192	4192	4093	4093	4093	4093	4093	4521	4521	4521	4521	4581	4581	4581	4581	4581	4581	4581	4581	4581	4581	4581	4581	4581	4581	4643	4581	4581	4581	4521	4521	4521	4521	4521	4521	4581	4581	4581	4521	4463	4406	4296	4243	4142	4142	4093	4093	4093	4045	4045	4045	4045	4093	4093	4045	4093	4093	3341	3309	3309	3309	3309	3277	3277	3277	3277	3277	3277	3277	3277	3277	3277	3277	3277	3277	3277	3309	3309	3309	3341	3341	3341	3341	3373	3341	3341	3309	3309	3309	3309	3309	3341	3341	3341	3373	3373	3373	3373	3373	4192	4142	4093	4093	4093	4093	4045	4093	4093	4093	4093	4093	4093	4093	4093	4045	4045	4045	4045	4045	4045	4045	4045	4045	4045	4045	4093	4093	4093	4045	4045	4045	4045	4045	4045	4093	4093	4093	4045	4045	4045	4045	4045	4045	4045	4045	4045	4045	4045	4045	4045	4045	4045	4045	4045	4045	4093	4093	4093	4093	4093	4093	4093	4045	4045	4045	4045	4045	4045	4045	4093	4093	4093	4093	4093	4093	4093	4045	4045	4045	4045	3998	3952	3952	3907	3907	3907	3907	3907	3907	3864	3907	3907	3907	3907	3907	3907	3907	3907	3907	3907	3907	3864	3907	3907	3907	3907	3864	3864	3864	3864	3864	3864	3864	3864	3907	3907	3907	3907	3907	3907	3907	3864	3907	3907	3907	3907	3907	3907	3907	3907	3907	3907	3907	3907	3907	3907	3907	3907	3907	3907	3952	3952	3952	3907	3952	3952	3952	3952	3952	3907	3952	3952	4045	4045	4045	4045	4093	4093	4093	4142	4192	4192	4192	4142	4142	4192	4192	4192	6124	6124	5719	5719	5719	5719	5815	5719	5719	5719	5719	5815	6018	6124	6124	6124	6124	6124	6124	6124	6124	6018	6018	6018	6018	6018	6018	6018	5915	5915	0	0	0	0	0	0	0	0	0	0	0	0	0	0	0	0	0	0	0	0	0	0	0	0	0	0	0	0	0	0	0	0	0	0	0	0	0	0	0	0	0	0	0	0	0	0	0	0	0	0	0	0	0
0	0	0	0	0	0	0	0	0	0	0	0	0	0	0	0	0	0	0	0	0	0	0	0	0	0	0	0	0	0	2777	2799	2799	2799	2822	1064	1064	1068	1068	1068	1071	1071	1078	1078	1078	0	0	0	0	0	0	0	0	0	0	0	0	2460	2443	2443	2443	2426	2426	2426	2426	2426	2426	2426	2426	2426	2426	2426	2426	2426	2426	2409	2409	2409	0	0	0	1883	1883	1883	1883	1873	1883	1883	1883	1883	1873	1873	1873	1883	1883	1883	1873	1873	2409	2409	2426	2409	2409	2426	2426	2426	2426	2426	2426	2426	2426	2426	2409	2426	2426	2426	2426	2426	2426	2409	2426	2409	2409	0	0	0	0	0	0	0	0	0	0	0	0	2460	2460	2443	2443	2443	2426	2426	2426	2426	2443	2443	2443	2443	2460	2460	2443	2443	2409	2409	2426	2426	2426	2426	2426	2409	2426	2426	2426	2426	2443	2426	2426	2426	2443	2426	2426	2460	2460	2460	2478	2496	2514	2532	2551	2570	2589	2609	2649	2669	2690	2711	2711	2733	2777	2777	2822	2822	2822	2845	2822	2822	2799	2799	2799	2799	3952	3907	3907	3907	3907	3907	3907	3907	3907	3864	3821	3821	3821	3821	3821	3779	3821	3821	3779	3821	3779	3779	3779	3779	3738	3738	3738	3738	3738	3738	3738	3779	3779	3779	3779	3779	3779	3779	3821	3821	3821	3821	3821	3864	3864	3864	3864	3907	3907	3907	3907	3907	3952	3952	3952	3907	3907	3998	3998	3907	3864	3821	3779	3779	3779	3779	4581	4581	4581	4521	4521	4463	4463	4406	4406	4350	4350	4350	4350	4296	4296	4296	4296	4296	4296	4296	4296	4296	4243	4243	4192	4142	4093	4093	4045	4093	4093	4463	4521	4581	4581	4581	4581	4581	4581	4581	4581	4581	4581	4581	4581	4581	4581	4581	4581	4581	4581	4581	4521	4521	4521	4521	4521	4521	4581	4581	4521	4463	4406	4406	4243	4192	4142	4093	4093	4093	4045	4045	4045	4045	4093	4093	4093	4093	4093	4093	3309	3309	3309	3309	3309	3277	3277	3277	3277	3277	3277	3277	3277	3277	3277	3277	3277	3277	3277	3309	3309	3309	3341	3341	3341	3341	3341	3341	3341	3309	3309	3309	3309	3309	3309	3341	3341	3373	3373	3406	3406	3406	4192	4192	4142	4093	4093	4093	4093	4093	4093	4093	4093	4093	4093	4093	4093	4045	4045	4045	4045	4045	4045	4045	4045	4045	4045	4093	4093	4093	4093	4045	4045	4045	4045	4045	4045	4045	4045	4045	4045	4045	4045	4045	4045	4045	4045	4045	4045	4045	4045	4045	4045	4045	4045	4045	4045	4045	4093	4093	4093	4093	4093	4093	4093	4045	4045	4045	4045	4045	4093	4093	4093	4093	4093	4093	4093	4045	4045	4045	4045	4045	3998	3952	3952	3952	3907	3907	3907	3907	3907	3907	3907	3907	3907	3907	3907	3907	3907	3907	3907	3907	3907	3907	3864	3907	3907	3907	3907	3907	3907	3907	3907	3864	3864	3907	3907	3907	3907	3907	3907	3907	3907	3907	3821	3907	3907	3907	3907	3907	3907	3907	3907	3907	3864	3864	3864	3864	3907	3907	3907	3907	3907	3907	3907	3907	3907	3907	3907	3952	3952	3952	3952	3952	3952	3998	4045	4045	4045	4093	4093	4093	4142	4192	4192	4192	4142	4192	4192	4192	0	5719	5719	5719	5719	5719	5719	5815	5719	5719	5719	5719	5815	5915	6018	6018	6124	6124	6124	6124	6124	6124	6018	6018	6018	6018	6018	6018	6018	6018	5915	0	0	0	0	0	0	0	0	0	0	0	0	0	0	0	0	0	0	0	0	0	0	0	0	0	0	0	0	0	0	0	0	0	0	0	0	0	0	0	0	0	0	0	0	0	0	0	0	0	0	0	0	0
0	0	0	0	0	0	0	0	0	0	0	0	0	0	0	0	0	0	0	0	0	0	0	0	0	0	0	0	0	0	2777	2799	2799	2799	2799	1064	1064	1071	1071	1071	1071	1071	1078	1078	1078	2799	0	0	0	0	0	0	0	0	0	0	0	2443	2426	2426	2426	2426	2426	2426	2426	2426	2426	2426	2426	2426	2426	2426	2426	2426	2426	2409	2409	2409	0	0	0	0	1883	1883	1883	1873	1873	1873	1873	1873	1873	1873	1883	1883	1883	1883	1883	1883	2426	2409	2409	2409	2409	2426	2409	2426	2426	2426	2426	2426	2426	2426	2426	2426	2426	2426	2426	2426	2409	2409	2409	2409	2409	0	0	0	0	0	0	0	0	0	0	0	0	2460	2460	2460	2443	2443	2426	2426	2426	2443	2443	2443	2443	2443	2460	2460	2443	2443	2426	2426	2426	2426	2426	2426	2426	2426	2426	2426	2443	2426	2426	2426	2443	2426	2426	2426	2426	2460	2460	2460	2478	2496	2514	2551	2570	2570	2589	2609	2629	2649	2690	2690	2711	2711	2777	2822	2822	2845	2845	2845	2822	2822	2799	2799	2799	2799	3952	3907	3907	3907	3907	3907	3907	3907	3864	3864	3821	3821	3821	3821	3821	3821	3821	3821	3821	3821	3779	3779	3779	3779	3779	3738	3738	3738	3738	3738	3738	3738	3779	3779	3779	3779	3779	3779	3779	3821	3821	3821	3864	3864	3864	3864	3907	3907	3907	3907	3907	3907	3907	3952	3907	3864	3864	3907	3952	3864	3821	3821	3779	3779	3779	3779	3738	3738	4521	4521	4521	4521	4463	4463	4406	4406	4350	4296	4296	4296	4296	4296	4296	4296	4296	4296	4296	4296	4243	4192	4142	4142	4142	4093	4093	4142	4093	4093	4521	4581	4581	4581	4581	4581	4581	4581	4521	4521	4521	4581	4521	4581	4581	4581	4581	4581	4581	4581	4521	4521	4521	4521	4521	4521	4521	4521	4463	4463	4406	4406	4192	4192	4142	4093	4093	4093	4093	4093	4045	4045	4093	4093	4093	4093	4093	4142	3309	3309	3309	3309	3309	3277	3277	3277	3277	3277	3277	3277	3277	3277	3277	3277	3277	3277	3277	3277	3309	3309	3309	3341	3341	3341	3341	3341	3309	3309	3309	3309	3309	3309	3309	3309	3341	3373	3406	3406	3406	3406	4192	4192	4192	4142	4142	4093	4093	4093	4093	4093	4093	4093	4093	4093	4093	4093	4045	4045	4045	4045	4045	4045	4045	4045	4093	4093	4093	4093	4093	4045	4045	4045	4045	4045	4045	4045	4045	4045	4045	4045	4045	4045	4045	4045	4045	4045	4045	4045	4045	4045	4045	4045	4045	4045	4045	4045	4093	4093	4093	4093	4093	4093	4045	4045	4045	4045	4045	4045	4093	4093	4093	4045	4045	4045	4045	4045	4045	4045	4045	3998	3998	3952	3952	3952	3907	3907	3907	3907	3907	3907	3907	3907	3907	3907	3907	3907	3907	3907	3907	3907	3907	3907	3864	3907	3907	3907	3907	3864	3907	3907	3907	3907	3907	3907	3907	3907	3907	3907	3907	3907	3907	3907	3907	3907	3907	3907	3907	3907	3952	3907	3907	3907	3907	3864	3907	3907	3907	3907	3907	3864	3907	3907	3907	3907	3907	3907	3907	3952	3907	3952	3952	3952	3952	3998	4045	4045	4093	4093	4093	4142	4142	4192	4192	4192	4142	4142	4142	4142	0	5719	5719	5719	5719	5719	5719	5815	5719	5719	5719	5719	5815	5915	5915	6018	6018	6018	6124	6124	6124	6124	6124	6018	6018	6018	6018	6124	6018	6018	6018	0	0	0	0	0	0	0	0	0	0	0	0	0	0	0	0	0	0	0	0	0	0	0	0	0	0	0	0	0	0	0	0	0	0	0	0	0	0	0	0	0	0	0	0	0	0	0	0	0	0	0	0	0
0	0	0	0	0	0	0	0	0	0	0	0	0	0	0	0	0	0	0	0	0	0	0	0	0	0	0	0	0	0	0	2799	2799	2799	2799	2799	2799	1071	1071	1071	1071	1074	1074	1078	1078	1078	2799	2799	0	0	0	0	0	0	0	0	0	2443	2426	2426	2426	2426	2426	2426	2409	2409	2409	2426	2409	2426	2426	2426	2426	2426	2426	2409	2409	2392	2392	0	0	0	1883	1883	1873	1873	1873	1873	1873	1873	1873	1873	1883	1883	1894	1904	1904	1904	2409	2409	2409	2409	2409	2409	2426	2409	2409	2426	2426	2426	2426	2426	2443	2426	2443	2426	2426	2426	2409	2409	2409	2409	2409	2409	0	0	0	2443	2443	0	0	0	0	0	0	0	2460	2460	2460	2443	2443	2426	2426	2443	2443	2443	2443	2443	2460	2460	2460	2443	2426	2426	2426	2426	2426	2426	2426	2426	2426	2426	2426	2426	2426	2426	2426	2426	2426	2426	2426	2443	2443	2460	2478	2496	2514	2551	2570	2589	2589	2609	2609	2649	2690	2690	2711	2754	2777	2799	2822	2822	2845	2845	2845	2822	2799	2799	2799	3952	3952	3952	3907	3907	3907	3907	3907	3907	3864	3864	3821	3821	3821	3821	3821	3821	3821	3821	3821	3821	3779	3779	3779	3779	3779	3738	3738	3738	3738	3738	3738	3738	3738	3779	3779	3779	3821	3821	3821	3821	3821	3821	3864	3864	3864	3907	3907	3907	3907	3907	3907	3907	3907	3907	3864	3821	3779	3779	3821	3821	3779	3779	3738	3738	3738	3738	3738	3698	3698	3698	3659	4463	4463	4463	4463	4463	4406	4350	4350	4296	4296	4296	4296	4296	4296	4296	4296	4296	4296	4296	4243	4142	4142	4093	4093	4142	4142	4142	4192	4521	4581	4581	4581	4581	4581	4581	4521	4581	4581	4581	4581	4581	4581	4581	4581	4581	4581	4581	4521	4521	4521	4463	4463	4463	4521	4463	4463	4406	4296	4296	4192	4142	4093	4093	4093	4093	4093	4093	4093	4093	4093	4093	4093	4093	4093	4142	3309	3309	3309	3309	3309	3277	3277	3277	3277	3277	3309	3309	3277	3277	3277	3277	3277	3277	3277	3277	3309	3309	3309	3341	3341	3341	3341	3341	3309	3309	3309	3309	3309	3309	3309	3309	3341	3341	3406	3406	3406	3406	4243	4192	4192	4142	4142	4142	4093	4093	4093	4093	4093	4093	4093	4093	4093	4093	4093	4093	4045	4093	4093	4093	4093	4093	4093	4093	4093	4093	4093	4045	4045	4045	4045	4045	4045	4045	4045	4045	4045	4045	4045	4045	4045	4045	4045	4045	4045	4045	4045	4045	4045	4045	4045	4045	4045	4045	4045	4093	4093	4093	4093	4045	4045	4045	4045	4045	4045	4045	4093	4093	4093	4093	4045	4045	4045	4045	4045	4045	4045	4045	3998	3998	3952	3952	3907	3907	3907	3907	3907	3907	3864	3907	3864	3907	3907	3907	3907	3907	3907	3907	3907	3907	3864	3864	3864	3864	3907	3864	3907	3907	3907	3907	3907	3907	3907	3907	3907	3907	3907	3907	3907	3907	3907	3907	3907	3907	3907	3907	3907	3907	3907	3907	3907	3907	3907	3907	3907	3907	3907	3907	3907	3907	3907	3907	3907	3907	3907	3952	3907	3952	3907	3952	3952	4045	4045	4045	4093	4093	4142	4142	4142	4243	4192	4192	4142	4142	4142	4093	4093	0	0	0	5719	5719	5719	5815	5719	5719	5719	5719	5815	5915	5915	6018	6018	6124	6124	6124	6124	6018	6018	6018	6018	6018	6018	6124	6018	6018	6018	0	0	0	0	0	0	0	0	0	0	0	0	0	0	0	0	0	0	0	0	0	0	0	0	0	0	0	0	0	0	0	0	0	0	0	0	0	0	0	0	0	0	0	0	0	0	0	0	0	0	0	0	0
0	0	0	0	0	0	0	0	0	0	0	0	0	0	0	0	0	0	0	0	0	0	0	0	0	0	0	0	0	0	0	2799	2799	2799	2799	2799	2799	2799	1078	1074	1074	1074	1078	1078	1078	1078	1078	2799	0	0	0	0	0	0	0	0	0	0	2426	2426	2426	2426	2426	2426	2426	2426	2426	2409	2409	2426	2409	2426	2426	2409	2426	2409	2409	2409	2392	0	0	0	1883	1883	1883	1883	1883	1873	1873	1873	1873	1873	1883	1883	1894	1904	1904	1904	2426	2426	2409	2409	2409	2409	2409	2409	2409	2426	2426	2426	2426	2443	2443	2443	2443	2426	2426	2426	2409	2409	2392	2409	2409	2409	0	0	2460	2443	2443	2409	2426	2426	0	0	0	0	2460	2460	2460	2443	2426	2426	2426	2443	2443	2443	2426	2426	2443	2443	2443	2443	2409	2409	2426	2409	2426	2426	2426	2426	2426	2426	2426	2426	2426	2426	2426	2426	2426	2426	2426	2443	2443	2460	2478	2496	2514	2532	2570	2570	2609	2609	2629	2629	2669	2711	2733	2754	2777	2799	2799	2822	2822	2822	2822	2799	2799	2777	2777	3952	3952	3952	3907	3907	3907	3907	3907	3864	3864	3821	3821	3821	3821	3821	3821	3821	3821	3821	3821	3779	3779	3779	3779	3779	3779	3779	3738	3738	3738	3738	3738	3738	3779	3779	3779	3779	3779	3779	3779	3779	3821	3821	3821	3821	3821	3864	3864	3907	3907	3907	3907	3864	3821	3738	3738	3698	3698	3698	3738	3779	3738	3738	3738	3698	3738	3738	3698	3738	3698	3698	3659	3659	4463	4463	4463	4463	4350	4350	4350	4296	4296	4296	4296	4296	4296	4296	4296	4296	4296	4296	4192	4192	4142	4093	4093	4142	4093	4142	4142	4521	4521	4521	4581	4581	4581	4521	4521	4521	4521	4521	4521	4521	4521	4521	4521	4521	4521	4521	4463	4463	4463	4463	4406	4406	4406	4406	4350	4350	4296	4243	4192	4142	4093	4093	4093	4093	4093	4093	4093	4093	4093	4093	4093	4045	4093	4093	3309	3309	3277	3309	3309	3277	3277	3277	3277	3277	3309	3309	3309	3277	3277	3277	3277	3277	3277	3277	3277	3309	3309	3341	3341	3341	3341	3341	3341	3309	3309	3309	3309	3309	3309	3309	3341	3341	3373	3406	3406	3406	3406	4192	4192	4142	4142	4142	4093	4093	4093	4093	4093	4093	4093	4093	4093	4093	4093	4093	4045	4093	4093	4093	4093	4093	4093	4093	4093	4093	4093	4045	4045	4045	4045	4045	4045	4045	4045	4045	4045	4045	4045	4045	4045	4045	4045	4045	4045	4045	4045	4045	4045	4045	4045	4045	4045	4045	4045	4045	4093	4045	4045	4045	4045	4045	4045	4045	4093	4093	4093	4093	4093	4045	4045	4045	4045	4045	4045	4045	4045	3998	3998	3952	3952	3907	3907	3907	3907	3907	3907	3907	3864	3907	3864	3907	3907	3907	3907	3907	3907	3864	3864	3864	3864	3864	3864	3864	3864	3864	3907	3907	3907	3907	3907	3907	3907	3907	3907	3907	3907	3907	3907	3907	3907	3907	3907	3907	3907	3907	3907	3907	3907	3907	3907	3907	3907	3907	3907	3907	3907	3907	3907	3907	3907	3864	3864	3907	3907	3907	3907	3907	3907	3952	3952	4045	4045	4045	4093	4093	4142	4142	4192	4243	4192	4192	4142	4142	4093	4093	4093	4093	0	0	0	5815	5719	5815	5815	5719	5719	5815	5915	5915	5915	6018	6018	6018	6124	6124	6124	6018	6018	6018	6124	6018	6018	6018	6018	6018	6018	0	0	0	0	0	0	0	0	0	0	0	0	0	0	0	0	0	0	0	0	0	0	0	0	0	0	0	0	0	0	0	0	0	0	0	0	0	0	0	0	0	0	0	0	0	0	0	0	0	0	0	0	0
0	0	0	0	0	0	0	0	0	0	0	0	0	0	0	0	0	0	0	0	0	0	0	0	0	0	0	0	0	0	0	2799	2799	2799	2799	2822	2799	2799	2799	1078	1074	1074	1074	1078	1078	1078	1078	1078	0	0	0	0	0	0	0	0	0	0	0	2426	2426	2426	2426	2426	2426	2426	2426	2426	2409	2426	2409	2426	2426	2409	2426	2409	2409	2426	2426	0	0	0	0	1883	1883	1883	1883	1873	1873	1873	1873	1873	1883	1883	1894	1915	1915	1915	2409	2409	2409	2409	2409	2409	2409	2409	2409	2426	2443	2426	2443	2443	2443	2443	2443	2426	2426	2426	2409	2409	2409	2409	2409	2409	2409	2460	2460	2443	2443	2426	2426	2426	0	0	0	0	2460	2460	2460	2443	2426	2426	2426	2443	2443	2443	2443	2443	2460	2460	2443	2426	2409	2409	2426	2409	2409	2426	2426	2409	2426	2426	2426	2426	2426	2426	2426	2426	2426	2426	2426	2443	2443	2460	2460	2496	2514	2551	2570	2589	2609	2609	2629	2629	2669	2690	2733	2754	2777	2799	2799	2799	2799	2822	2799	2799	2799	2777	2777	3952	3952	3952	3952	3907	3907	3907	3907	3864	3864	3821	3821	3821	3821	3821	3821	3821	3821	3779	3821	3779	3779	3779	3779	3779	3738	3738	3738	3738	3738	3738	3738	3738	3779	3779	3779	3779	3779	3779	3779	3821	3779	3821	3821	3821	3821	3864	3864	3864	3821	3864	3779	3659	3659	3659	3738	3738	3659	3738	3738	3738	3738	3738	3738	3698	3698	3738	3698	3698	3698	3698	3698	3698	3698	3698	3698	4296	4296	4296	4296	4296	4296	4296	4296	4296	4296	4296	4296	4296	4243	4296	4142	4192	4142	4093	4142	4142	4093	4142	4142	4142	4521	4521	4521	4521	4521	4521	4521	4521	4521	4521	4521	4521	4521	4521	4521	4521	4521	4521	4463	4463	4463	4406	4350	4350	4350	4350	4296	4296	4192	4192	4192	4142	4142	4142	4142	4142	4093	4093	4093	4093	4093	4093	4093	4045	4093	4093	3277	3277	3277	3309	3309	3309	3309	3277	3309	3309	3309	3309	3309	3277	3277	3277	3277	3277	3277	3277	3277	3309	3309	3309	3341	3341	3341	3341	3341	3309	3309	3309	3309	3309	3309	3341	3341	3341	3373	3373	3373	3406	3406	4192	4192	4142	4142	4093	4093	4093	4093	4093	4093	4093	4093	4093	4093	4093	4093	4093	4093	4093	4093	4093	4093	4093	4093	4093	4093	4093	4093	4093	4045	4045	4045	4045	4045	4045	4045	4045	4045	4045	4045	4045	4045	4045	4045	4045	4045	4045	4045	4045	4045	4045	4045	4045	4045	4045	4045	4045	4045	4045	4045	4045	4045	4045	4045	4045	4093	4093	4093	4093	4093	4045	4045	4045	4045	4045	4045	4045	3998	3998	3998	3952	3952	3907	3907	3907	3907	3907	3907	3907	3907	3907	3864	3907	3864	3907	3864	3864	3864	3864	3864	3864	3864	3864	3864	3864	3864	3864	3907	3907	3907	3907	3907	3907	3907	3907	3907	3907	3907	3907	3907	3907	3907	3907	3907	3907	3907	3907	3907	3907	3864	3864	3864	3864	3864	3864	3907	3907	3907	3907	3907	3907	3864	3864	3864	3907	3907	3907	3907	3952	3952	3952	3952	3998	4045	4045	4093	4093	4093	4142	4142	4243	4192	4192	4142	4093	4093	4093	4045	4045	4045	0	0	5815	5815	5815	5915	5815	5815	5915	5915	5915	5915	6018	6018	6018	6018	6018	6018	6018	6018	6124	6124	6124	6124	6235	6124	6124	6018	0	0	0	0	0	0	0	0	0	0	0	0	0	0	0	0	0	0	0	0	0	0	0	0	0	0	0	0	0	0	0	0	0	0	0	0	0	0	0	0	0	0	0	0	0	0	0	0	0	0	0	0	0
0	0	0	0	0	0	0	0	0	0	0	0	0	0	0	0	0	0	0	0	0	0	0	0	0	0	0	0	0	0	0	2799	2799	2799	2799	2799	2777	2799	2777	1078	1071	1071	1071	1074	1074	1074	1078	1078	0	0	0	0	0	0	0	0	0	0	0	2426	2426	2426	2426	2426	2426	2426	2426	2409	2409	2426	2409	2409	2426	2409	2409	2409	2409	2426	2426	0	0	0	0	1894	1883	1883	1883	1873	1873	1863	1863	1873	1873	1883	1894	1894	1894	2443	2443	2443	2409	2409	2426	2426	2426	2409	2426	2426	2443	2426	2426	2443	2443	2443	2443	2426	2426	2426	2409	2409	2409	2409	2409	2409	2409	2460	2460	2443	2443	2426	2426	0	0	0	0	0	0	2460	2443	2443	2426	2426	2426	2443	2443	2443	2443	2443	2460	2460	2460	2426	2409	2409	2409	2409	2409	2426	2426	2426	2426	2409	2426	2409	2426	2426	2409	2409	2409	2409	2409	2443	2443	2460	2478	2496	2514	2551	2570	2589	2609	2609	2629	2629	2629	2690	2733	2754	2777	2777	2799	2799	2799	2799	2799	2799	2799	2777	2777	2777	2777	3907	3907	3907	3907	3864	3864	3864	3821	3821	3821	3821	3821	3821	3821	3821	3821	3779	3779	3779	3779	3779	3779	3779	3738	3738	3738	3738	3738	3738	3738	3738	3779	3779	3779	3779	3779	3779	3779	3779	3779	3821	3821	3821	3821	3821	3821	3821	3821	3821	3659	3621	3621	3621	3659	3659	3659	3659	3659	3738	3698	3698	3698	3698	3698	3738	3698	3698	3698	3698	3698	3698	3698	3738	3738	3738	4296	4296	4296	4296	4296	4296	4296	4243	4243	4243	4093	4142	4093	4142	4093	4093	4093	4093	4093	4093	4093	4093	4093	4093	4521	4521	4521	4581	4521	4521	4521	4521	4521	4521	4463	4521	4463	4463	4463	4521	4521	4521	4463	4463	4463	4406	4350	4296	4296	4296	4243	4243	4192	4192	4142	4142	4142	4142	4142	4142	4093	4093	4093	4093	4093	4093	4093	4093	4093	4093	3246	3277	3277	3309	3309	3309	3309	3277	3309	3309	3309	3309	3309	3277	3277	3277	3277	3277	3277	3277	3309	3309	3309	3341	3341	3341	3309	3309	3341	3341	3309	3309	3309	3309	3309	3309	3341	3341	3341	3373	3373	3373	4243	4142	4192	4142	4142	4093	4093	4093	4093	4093	4093	4142	4093	4093	4093	4093	4093	4093	4093	4093	4093	4093	4093	4093	4093	4093	4093	4093	4093	4093	4093	4045	4045	4045	4045	4045	4045	4093	4093	4093	4093	4045	4045	4045	4045	4045	4045	4045	4045	4045	4045	4045	4045	4045	4093	4093	4093	4093	4093	4045	4045	4045	4045	4045	4045	4045	4045	4093	4093	4093	4093	4093	4045	4045	4045	4045	4045	4045	3998	3952	3952	3907	3907	3907	3907	3907	3864	3907	3907	3907	3864	3907	3864	3907	3864	3864	3864	3864	3864	3864	3864	3864	3864	3864	3864	3864	3907	3907	3907	3907	3907	3907	3907	3907	3907	3907	3907	3907	3907	3907	3907	3907	3907	3907	3907	3907	3907	3907	3907	3864	3864	3864	3864	3864	3907	3907	3907	3864	3907	3907	3864	3864	3864	3864	3864	3864	3864	3907	3907	3907	3952	3952	3952	3998	4045	4045	4093	4142	4192	4192	4243	4243	4243	4243	4192	4142	4093	4093	4045	4045	4045	0	0	0	5815	5815	5915	5915	5915	5915	5915	5915	5915	5915	5915	5915	6018	6018	6018	6018	6124	6124	6124	6018	6124	6235	6235	6235	0	0	0	0	0	0	0	0	0	0	0	0	0	0	0	0	0	0	0	0	0	0	0	0	0	0	0	0	0	0	0	0	0	0	0	0	0	0	0	0	0	0	0	0	0	0	0	0	0	0	0	0	0	0
0	0	0	0	0	0	0	0	0	0	0	0	0	0	0	0	0	0	0	0	0	0	0	0	0	0	0	0	0	0	0	0	2799	2777	2799	2799	2777	2777	1091	1074	1071	1071	1071	1074	1074	1074	1078	1078	0	0	0	0	0	0	0	0	0	0	0	2409	2409	2426	2409	2409	2409	2426	2409	2409	2409	2426	2409	2409	2409	2409	2426	2426	2426	2426	2426	0	0	0	0	1883	1883	1883	1883	1873	1873	1863	1863	1873	1873	1883	1904	1904	1904	2443	2426	2426	2426	2426	2426	2426	2426	2426	2426	2426	2443	2443	2443	2443	2443	2443	2443	2409	2409	2409	2409	2409	2409	2409	2409	2409	2409	2460	2460	2460	2443	2426	2409	2409	2409	0	0	0	0	2443	2443	2443	2443	2426	2409	2443	2426	2409	2443	2426	2443	2426	2426	2409	2409	2426	2426	2426	2426	2426	2426	2409	2409	2409	2409	2409	2409	2409	2409	2409	2409	2409	2426	2443	2443	2460	2478	2496	2514	2551	2570	2589	2609	2629	2629	2629	2629	2690	2733	2754	2777	2777	2777	2799	2799	2799	2799	2799	2777	2777	2777	2777	2777	3907	3907	3907	3907	3907	3864	3864	3821	3821	3821	3821	3821	3821	3821	3821	3821	3779	3779	3779	3779	3779	3779	3779	3738	3738	3738	3738	3738	3779	3738	3779	3779	3779	3779	3779	3779	3779	3779	3821	3779	3821	3821	3821	3779	3779	3779	3779	3779	3738	3659	3621	3621	3621	3621	3659	3659	3659	3659	3698	3698	3698	3698	3659	3659	3659	3659	3698	3698	3738	3738	3738	3738	3779	3779	3779	4243	4243	4243	4243	4296	4243	4243	4192	4093	4093	4093	4093	4093	4093	4093	4243	4142	4093	4142	4093	4093	4093	4093	4093	4093	4142	4406	4406	4521	4463	4463	4463	4463	4406	4406	4296	4192	4192	4192	4463	4463	4045	3998	4296	4296	4296	4243	4192	4192	4243	4243	4243	4192	4192	4142	4142	4142	4142	4142	4142	4093	4142	4093	4093	4093	4093	4093	4093	4142	4142	3277	3277	3277	3309	3309	3309	3309	3309	3309	3309	3309	3309	3309	3309	3309	3309	3309	3309	3309	3309	3309	3309	3341	3341	3341	3341	3341	3341	3341	3341	3309	3341	3341	3341	3341	3341	3341	3341	3341	3373	3341	3373	3373	4142	4192	4142	4142	4142	4142	4093	4142	4142	4142	4142	4142	4093	4142	4142	4093	4093	4093	4093	4093	4093	4093	4093	4093	4142	4093	4093	4093	4093	4045	4045	4045	4045	4045	4045	4045	4045	4093	4093	4093	4093	4093	4045	4045	4045	4045	4045	4045	4045	4045	4045	4045	4093	4093	4093	4093	4093	4093	4045	4045	4045	4045	4045	4045	4045	4045	4093	4093	4093	4045	4045	4045	4045	3998	3998	3998	3998	3998	3952	3952	3907	3907	3907	3907	3907	3864	3864	3907	3907	3907	3907	3864	3907	3864	3907	3864	3864	3864	3864	3864	3864	3864	3864	3864	3864	3907	3907	3907	3907	3907	3907	3907	3907	3907	3907	3907	3907	3907	3907	3907	3907	3907	3907	3907	3907	3907	3907	3907	3864	3864	3864	3864	3864	3907	3907	3907	3907	3907	3907	3907	3907	3864	3864	3864	3864	3864	3907	3907	3907	3907	3907	3907	3998	4045	4045	4093	4142	4192	4243	4243	4243	4243	4243	4192	4142	4142	4093	4093	4093	4045	4045	0	0	0	0	5915	5815	5815	5815	5915	5915	5915	5915	5815	5815	5915	6018	6018	6018	6124	6124	6124	6124	6124	6349	6349	6235	0	0	0	0	0	0	0	0	0	0	0	0	0	0	0	0	0	0	0	0	0	0	0	0	0	0	0	0	0	0	0	0	0	0	0	0	0	0	0	0	0	0	0	0	0	0	0	0	0	0	0	0	0	0
0	0	0	0	0	0	0	0	0	0	0	0	0	0	0	0	0	0	0	0	0	0	0	0	0	0	0	0	0	0	0	2822	2799	2777	2777	2777	2777	2777	1088	1071	1068	1068	1071	1074	1071	1071	0	0	0	0	0	0	0	0	0	0	0	0	2409	2409	2409	2409	2409	2409	2409	2409	2409	2409	2409	2409	2409	2409	2409	2409	2409	2409	2409	2409	2409	0	0	0	0	1883	1883	1883	1873	1873	1873	1863	1863	1863	1873	1883	1883	1883	1883	2443	2443	2426	2426	2426	2426	2426	2426	2426	2426	2443	2443	2443	2443	2426	2426	2426	2426	2409	2426	2409	2409	2409	2392	2392	2392	2392	2392	0	2409	2409	0	2409	2426	2409	2409	2409	2460	2460	2460	2460	2426	2409	2426	2409	2409	2409	2426	2426	2426	2426	2426	2426	2426	2426	2409	2426	2426	2426	2426	2409	2409	2409	2409	2409	2409	2409	2409	2409	2409	2409	2409	2409	2409	2426	2443	2460	2478	2496	2514	2551	2551	2589	2609	2629	2629	2629	2629	2690	2754	2754	2777	2777	2777	2799	2799	2799	2799	2799	2777	2777	2799	2799	2799	3907	3907	3907	3864	3864	3864	3864	3821	3821	3821	3821	3821	3821	3821	3821	3779	3779	3779	3779	3779	3779	3738	3738	3738	3738	3738	3738	3738	3779	3779	3779	3779	3779	3779	3779	3779	3779	3821	3821	3779	3821	3821	3779	3779	3779	3779	3738	3738	3698	3621	3621	3621	3621	3621	3621	3621	3659	3621	3659	3659	3659	3659	3659	3659	3698	3698	3738	3698	3738	3698	3698	3738	3738	3779	3779	3779	4243	4142	4192	4243	4243	4192	4142	4093	4045	4045	4045	3998	4045	4045	4093	4093	4093	4093	4093	4093	4093	4045	4045	4142	4142	4142	4142	4350	4463	4350	4463	4296	4350	4296	4296	4192	4192	4093	4093	4045	4045	3998	3998	4192	4192	4192	4192	4192	4243	4243	4243	4192	4243	4192	4142	4142	4142	4142	4142	4093	4142	4093	4093	4093	4093	4093	4093	4142	4142	3277	3277	3277	3309	3309	3309	3309	3309	3309	3309	3309	3309	3309	3309	3309	3309	3309	3309	3309	3309	3309	3309	3341	3341	3341	3341	3373	3341	3341	3341	3341	3341	3341	3341	3341	3341	3341	3341	3341	3341	3341	3341	3341	4142	4142	4142	4142	4093	4093	4093	4142	4142	4142	4142	4142	4142	4142	4142	4093	4093	4093	4142	4142	4093	4142	4142	4142	4142	4093	4093	4093	4093	4045	4045	4045	4045	4045	4045	4045	4045	4093	4093	4093	4093	4093	4093	4093	4093	4045	4045	4093	4093	4045	4045	4045	4093	4093	4093	4093	4093	4093	4045	4045	4045	4045	4045	4045	4045	4045	4093	4093	4093	4045	4045	4045	4045	3998	3998	3998	3998	3952	3952	3907	3907	3907	3907	3864	3864	3864	3864	3864	3907	3907	3907	3907	3907	3907	3907	3864	3864	3864	3864	3864	3864	3864	3864	3864	3864	3864	3864	3907	3907	3864	3907	3907	3907	3907	3907	3907	3864	3864	3864	3907	3907	3907	3907	3907	3907	3907	3907	3907	3907	3864	3907	3864	3907	3907	3907	3907	3907	3907	3907	3907	3864	3864	3864	3864	3864	3864	3907	3864	3864	3907	3907	3864	3907	3998	3998	3998	4243	4296	4296	4243	4296	4296	4243	4192	4142	4142	4142	4142	4093	4093	4045	0	0	0	0	5915	5815	5815	5915	5915	5915	5915	0	5815	5815	5915	5915	5915	6018	6124	6124	6235	6124	6124	6349	6349	0	0	0	0	0	0	0	0	0	0	0	0	0	0	0	0	0	0	0	0	0	0	0	0	0	0	0	0	0	0	0	0	0	0	0	0	0	0	0	0	0	0	0	0	0	0	0	0	0	0	0	0	0	0	0
0	0	0	0	0	0	0	0	0	0	0	0	0	0	0	0	0	0	0	0	0	0	0	0	0	0	0	0	0	0	0	2893	2869	2777	2777	2777	2754	2754	2754	2777	1068	1068	1068	1071	1071	1071	2799	2799	2799	0	0	0	0	0	0	0	0	0	2409	2409	2409	2409	2409	2409	2409	2409	2409	2409	2409	2409	2409	2409	2409	2409	2409	2409	2409	2409	2409	0	0	0	0	1883	1883	1883	1883	1873	1873	1863	1863	1863	1873	1883	1883	1883	1883	2426	2426	2409	2409	2426	2426	2426	2426	2426	2426	2443	2460	2426	2426	2426	2426	2426	2426	2409	2426	2426	2426	2409	2409	2409	2409	2409	2409	0	2409	2409	0	2409	2443	2443	2426	2460	2460	2478	2478	2443	2426	2426	2426	2426	2409	2409	2409	2409	2426	2426	2426	2426	2426	2426	2426	2426	2426	2426	2426	2409	2426	2426	2409	2409	2409	2409	2409	2409	2409	2409	2409	2409	2409	2426	2443	2460	2478	2496	2514	2532	2551	2589	2589	2609	2629	2629	2649	2690	2733	2754	2777	2777	2777	2777	2777	2799	2799	2799	2799	2799	2799	2799	3907	3907	3907	3907	3864	3907	3864	3864	3821	3821	3821	3821	3821	3821	3821	3821	3821	3779	3779	3779	3779	3779	3779	3779	3779	3738	3779	3779	3779	3779	3779	3779	3779	3779	3779	3779	3821	3779	3821	3821	3821	3821	3821	3821	3779	3779	3779	3738	3738	3698	3659	3621	3621	3621	3621	3621	3621	3621	3621	3621	3659	3659	3659	3659	3659	3659	3698	3738	3698	3738	3738	3738	3738	3738	3779	3779	3779	4093	4093	4093	4142	4142	4142	4093	4045	4045	3998	3998	3998	3998	3998	3998	4093	4093	4093	4093	4045	4045	4045	4045	4142	4142	4093	4093	4192	4192	4142	4142	4142	4142	4142	4142	4142	4093	4093	4093	4093	4045	3998	3998	3998	4093	4142	4142	4142	4142	4192	4192	4142	4192	4192	4142	4142	4142	4142	4142	4093	4093	4093	4093	4093	4093	4142	4093	4142	3246	3277	3277	3277	3309	3309	3309	3309	3309	3309	3309	3309	3309	3309	3309	3309	3309	3309	3309	3309	3309	3341	3341	3373	3373	3373	3341	3341	3341	3341	3341	3341	3341	3341	3341	3341	3341	3341	3341	3341	3341	3309	3341	3341	4142	4142	4093	4093	4093	4093	4093	4142	4142	4142	4142	4142	4142	4142	4142	4142	4142	4142	4142	4142	4093	4142	4142	4142	4142	4093	4093	4093	4045	4045	4045	4045	4045	4045	4045	4045	4045	4093	4093	4093	4093	4093	4093	4093	4093	4093	4045	4093	4045	4045	4045	4045	4045	4045	4093	4093	4093	4093	4045	4045	4045	4045	4045	4045	4045	4045	4093	4093	4045	4045	4045	3998	3998	3998	3998	3998	3998	3952	3907	3907	3907	3864	3907	3864	3864	3864	3864	3864	3907	3907	3907	3907	3907	3907	3907	3864	3864	3864	3864	3864	3864	3864	3864	3864	3864	3864	3864	3864	3864	3864	3864	3864	3864	3907	3907	3907	3864	3864	3864	3907	3907	3907	3907	3907	3907	3907	3907	3907	3907	3864	3864	3864	3907	3907	3907	3907	3907	3864	3864	3907	3864	3864	3864	3864	3864	3864	3907	3907	3864	3907	3907	3907	3907	3998	3998	3998	4243	4243	4296	4243	4243	4243	4192	4142	4142	4142	4142	4142	4142	4142	0	0	0	0	0	0	5815	5815	5915	5915	0	0	0	0	0	5915	5915	5915	6018	6124	6124	6235	6124	6124	6349	6349	0	0	0	0	0	0	0	0	0	0	0	0	0	0	0	0	0	0	0	0	0	0	0	0	0	0	0	0	0	0	0	0	0	0	0	0	0	0	0	0	0	0	0	0	0	0	0	0	0	0	0	0	0	0	0
0	0	0	0	0	0	0	0	0	0	0	0	0	0	0	0	0	0	0	0	0	0	0	0	0	0	0	0	0	0	0	2893	2869	2777	2754	2754	2733	2733	2733	1068	1068	1068	1068	1068	1068	2777	2777	2777	2799	0	0	0	0	0	0	0	0	0	0	2409	2409	2409	2409	2409	2409	2409	2409	2409	2409	2409	2409	2409	2409	2409	2409	2409	2409	2409	0	0	0	0	1883	1883	1883	1873	1883	1873	1873	1863	1863	1863	1863	1873	1873	1883	1883	2409	2409	2409	2392	2409	2409	2409	2426	2426	2426	2426	2443	2443	2443	2426	2426	2426	2426	2426	2426	2426	2426	2409	2409	2409	2409	2392	2392	0	0	0	0	2409	2460	2460	2443	2460	2460	2478	2478	2443	2426	2426	2443	2426	2409	2409	2409	2409	2409	2409	2409	2426	2426	2409	2409	2426	2426	2409	2426	2409	2426	2426	2409	2409	2426	2409	2409	2409	2409	2409	2409	2409	2426	2443	2460	2460	2478	2478	2496	2532	2551	2570	2589	2609	2629	2649	2649	2711	2754	2754	2777	2777	2777	2799	2777	2799	2799	2799	2799	2799	2799	2799	3907	3907	3907	3907	3864	3907	3864	3864	3821	3821	3821	3821	3821	3821	3821	3821	3821	3779	3779	3779	3779	3779	3779	3779	3779	3738	3779	3738	3779	3738	3779	3779	3779	3779	3779	3779	3821	3821	3821	3821	3821	3821	3821	3821	3779	3779	3738	3738	3698	3698	3621	3621	3583	3583	3583	3621	3621	3621	3621	3659	3659	3659	3659	3659	3659	3659	3659	3738	3698	3698	3698	3738	3738	3738	3779	3779	3821	4045	4045	4093	4093	4093	4093	4045	4045	3998	3998	3998	3998	3998	3952	3952	3998	3952	3952	3952	3998	3998	3998	3998	4045	4093	4093	4093	4093	4093	4142	4142	4142	4142	4142	4142	4142	4093	4093	4093	4093	4045	3998	3998	3998	4093	4093	4093	4093	4093	4192	4192	4142	4192	4192	4192	4142	4142	4142	4142	4142	4142	4093	4093	4142	4142	4142	4142	4192	3246	3277	3277	3277	3309	3309	3309	3309	3309	3309	3309	3309	3309	3309	3309	3309	3309	3309	3309	3341	3341	3341	3341	3341	3373	3341	3341	3341	3341	3309	3341	3309	3341	3341	3341	3341	3341	3341	3341	3341	3341	3309	3341	3341	4142	4142	4142	4093	4093	4093	4093	4093	4142	4142	4142	4142	4142	4142	4142	4142	4142	4142	4142	4093	4093	4093	4093	4093	4093	4093	4093	4093	4045	4045	4045	4045	4045	4045	4045	4093	4093	4093	4093	4093	4093	4093	4045	4093	4093	4045	4045	4045	4045	4045	4045	4045	4045	4093	4093	4093	4093	4093	4093	4093	4045	4093	4045	4045	4045	4045	4093	4093	4045	4045	4045	4045	4045	3998	3998	3998	3998	3998	3907	3907	3907	3864	3907	3864	3864	3864	3864	3864	3864	3907	3864	3864	3864	3907	3907	3864	3864	3864	3864	3864	3864	3864	3864	3864	3864	3864	3864	3864	3864	3864	3864	3864	3864	3907	3864	3907	3864	3864	3864	3864	3907	3907	3907	3907	3907	3907	3907	3907	3907	3907	3907	3907	3907	3907	3907	3907	3864	3864	3864	3864	3864	3864	3864	3864	3864	3864	3864	3864	3864	3907	3907	3907	3907	3952	3952	3998	4192	4243	4243	4243	4243	4192	4142	4142	4142	4093	4142	4142	4142	4142	0	0	0	0	0	0	0	0	0	0	0	0	0	0	0	0	0	0	0	6124	6124	0	0	0	0	0	0	0	0	0	0	0	0	0	0	0	0	0	0	0	0	0	0	0	0	0	0	0	0	0	0	0	0	0	0	0	0	0	0	0	0	0	0	0	0	0	0	0	0	0	0	0	0	0	0	0	0	0	0	0	0
0	0	0	0	0	0	0	0	0	0	0	0	0	0	0	0	0	0	0	0	0	0	0	0	0	0	0	0	0	0	0	0	0	0	2754	2733	2733	2711	2733	1068	1064	1064	1064	1064	1064	2754	2754	2754	0	0	0	0	0	0	0	0	0	0	2409	2409	2409	2409	2409	2409	2409	2409	2409	2409	2409	2409	2409	2409	2409	2409	2409	2409	2409	2409	0	0	0	1883	1883	1883	1883	1883	1883	1873	1873	1873	1873	1863	1863	1873	1883	1883	1883	2409	2409	2409	2392	2392	2409	2409	2426	2426	2426	2426	2426	2426	2426	2409	2426	2426	2426	2443	2426	2443	2426	2409	2409	2409	2409	2392	2392	0	0	0	0	0	2460	2460	2460	2460	2478	2478	2478	2443	2409	2426	2426	2409	2409	2409	2409	2409	2409	2409	2409	2409	2409	2409	2443	2426	2426	2426	2426	2426	2426	2426	2409	2409	2426	2426	2409	2409	2409	2409	2409	2409	2409	2443	2460	2460	2478	2496	2496	2532	2551	2570	2570	2609	2629	2649	2669	2711	2754	2777	2777	2777	2777	2799	2799	2799	2799	2799	2799	2799	2799	2799	3907	3907	3907	3864	3864	3907	3864	3864	3864	3821	3821	3821	3821	3821	3821	3821	3821	3821	3779	3821	3821	3779	3779	3779	3779	3738	3779	3738	3779	3779	3779	3779	3779	3779	3779	3779	3779	3779	3821	3821	3821	3821	3821	3821	3779	3779	3779	3738	3698	3698	3659	3621	3621	3621	3621	3621	3621	3621	3583	3621	3659	3621	3659	3659	3659	3659	3659	3738	3698	3738	3698	3738	3738	3779	3779	3779	3821	3952	3998	3998	4045	4045	4045	4045	4045	3998	3998	3998	3998	3952	3952	3952	3952	3952	3907	3952	3952	3952	3907	3907	3907	3907	4093	4093	4093	4093	4093	4093	4093	4093	4093	4093	4093	4093	4045	4045	4045	4045	3998	4045	3998	4093	4093	4093	4093	4093	4192	4192	4142	4192	4192	4192	4142	4142	4142	4142	4192	4142	4142	4142	4142	4142	4142	4142	4243	3277	3309	3309	3309	3309	3309	3309	3309	3309	3309	3309	3309	3309	3309	3309	3309	3309	3341	3309	3341	3341	3341	3341	3341	3341	3341	3341	3341	3341	3309	3309	3309	3309	3309	3341	3341	3309	3309	3309	3309	3309	3309	3309	3309	4142	4142	4093	4093	4093	4093	4045	4093	4093	4093	4142	4142	4142	4142	4142	4142	4142	4142	4142	4093	4093	4093	4093	4093	4093	4093	4093	4045	4045	4045	4045	4045	4045	4045	4045	4093	4093	4093	4093	4093	4093	4045	4093	4045	4045	4045	4045	4045	4045	4045	4045	4045	4045	4093	4093	4093	4093	4093	4093	4093	4093	4093	4045	4045	4045	4045	4093	4093	4045	4045	4045	4045	4045	4045	3998	3998	3998	3998	3907	3907	3864	3864	3864	3864	3864	3864	3864	3864	3864	3907	3864	3864	3907	3907	3907	3907	3907	3864	3907	3907	3864	3864	3864	3864	3864	3864	3864	3864	3864	3864	3864	3864	3864	3864	3864	3864	3864	3864	3864	3864	3907	3907	3907	3907	3907	3907	3907	3907	3907	3907	3907	3907	3907	3907	3907	3907	3907	3864	3864	3864	3864	3864	3864	3864	3864	3864	3864	3864	3864	3907	3907	3907	3907	3907	3952	3952	4192	4192	4192	4192	4142	4142	4142	4093	4093	4093	4093	4093	4093	4142	0	0	0	0	0	0	0	0	0	0	0	0	0	0	0	0	0	0	0	0	0	0	0	0	0	0	0	0	0	0	0	0	0	0	0	0	0	0	0	0	0	0	0	0	0	0	0	0	0	0	0	0	0	0	0	0	0	0	0	0	0	0	0	0	0	0	0	0	0	0	0	0	0	0	0	0	0	0	0	0	0
0	0	0	0	0	0	0	0	0	0	0	0	0	0	0	0	0	0	0	0	0	0	0	0	0	0	0	0	0	0	0	0	0	0	2754	2711	2711	2711	2711	1064	1061	1061	1064	1064	1064	1068	1071	1071	0	0	0	0	0	0	0	0	0	0	2409	2409	2409	2409	2409	2409	2409	2409	2409	2409	2409	2409	2392	2392	2409	2409	2392	2409	2460	2460	0	0	1894	1883	1883	1883	1883	1883	1883	1883	1883	1873	1873	1873	1863	1873	1883	1883	1883	1883	2426	2409	2392	2409	2409	2426	2426	2426	2426	2443	2443	2426	2426	2426	2443	2426	2426	2443	2443	2443	2426	2409	2409	2392	2392	2392	2376	2376	0	0	0	0	2478	2478	2460	2478	2514	2514	2496	2460	2426	2426	2426	2409	2409	2409	2409	2409	2409	2409	2409	2426	2409	2426	2426	2426	2443	2426	2426	2426	2426	2426	2426	2409	2426	2409	2409	2409	2409	2409	2409	2409	2426	2426	2443	2460	2478	2478	2514	2532	2551	2570	2570	2609	2629	2629	2649	2733	2690	2777	2777	2799	2799	2799	2799	2799	2799	2799	2799	2799	2799	2799	3907	3907	3907	3907	3907	3907	3907	3864	3864	3821	3821	3864	3821	3821	3821	3821	3821	3821	3779	3821	3821	3779	3779	3779	3779	3779	3779	3779	3779	3779	3779	3779	3779	3779	3779	3779	3779	3779	3779	3779	3821	3821	3821	3821	3779	3779	3779	3738	3738	3698	3698	3621	3583	3583	3621	3621	3621	3621	3583	3621	3621	3621	3621	3659	3659	0	0	0	3698	3738	3698	3698	3738	3738	3738	3779	3779	3952	3952	3998	4045	4045	3998	3998	3998	3998	3998	3998	3998	3952	3952	3952	3952	3907	3907	3907	3907	3907	3907	3907	3907	4045	4045	4045	4093	4093	4093	4093	4093	4093	4093	4093	4093	4093	4045	4045	4045	4045	3998	3998	4045	4093	4093	4093	4093	4142	4192	4192	4142	4192	4142	4192	4142	4142	4142	4142	4192	4142	4142	4142	4142	4192	4192	4192	4296	3277	3309	3309	3309	3309	3309	3309	3309	3309	3309	3309	3309	3309	3309	3309	3309	3309	3309	3309	3309	3309	3309	3309	3309	3341	3309	3309	3309	3309	3309	3309	3309	3309	3309	3309	3309	3309	3309	3309	3309	3309	3309	3309	3309	3309	4093	4093	4093	4093	4093	4045	4045	4093	4093	4142	4142	4142	4142	4142	4142	4142	4142	4142	4142	4093	4093	4093	4093	4093	4045	4093	4045	4045	4045	4045	4045	4045	4045	4045	4093	4093	4093	4093	4093	4093	4093	4093	4093	4045	4045	4045	4045	4045	4045	4045	4045	4045	4045	4093	4093	4093	4093	4093	4093	4093	4093	4045	4045	4045	4045	4045	4045	4045	4045	4045	4045	4045	4045	3998	3998	3998	3907	3907	3907	3864	3864	3864	3864	3864	3864	3864	3864	3864	3864	3864	3864	3864	3907	3907	3907	3907	3907	3907	3907	3907	3907	3864	3907	3864	3864	3864	3864	3864	3864	3864	3864	3864	3907	3864	3864	3864	3907	3864	3907	3907	3907	3907	3907	3907	3907	3907	3907	3907	3907	3907	3907	3907	3907	3907	3864	3864	3864	3864	3864	3864	3864	3864	3864	3864	3864	3864	3864	3864	3864	3864	3907	3907	3907	3907	3952	0	4192	4192	4243	4243	4093	4093	4093	4093	4093	4093	4093	4093	0	0	0	0	0	0	0	0	0	0	0	0	0	0	0	0	0	0	0	0	0	0	0	0	0	0	0	0	0	0	0	0	0	0	0	0	0	0	0	0	0	0	0	0	0	0	0	0	0	0	0	0	0	0	0	0	0	0	0	0	0	0	0	0	0	0	0	0	0	0	0	0	0	0	0	0	0	0	0	0	0	0
0	0	0	0	0	0	0	0	0	0	0	0	0	0	0	0	0	0	0	0	0	0	0	0	0	0	0	0	0	0	0	0	0	0	0	2690	2711	2711	1064	1064	1061	1061	1064	1064	1064	1068	1071	1071	0	0	0	0	0	0	0	0	0	2409	2409	2409	2409	2409	2409	2409	2409	2392	2409	2392	2409	2392	2392	2392	2409	2426	2409	2426	2426	2460	0	0	1883	1883	1883	1883	1873	1883	1883	1883	1883	1873	1873	1873	1873	1873	1873	1883	1883	1883	2426	2409	2392	2409	2426	2426	2426	2426	2426	2443	2443	2443	2443	2426	2426	2426	2426	2443	2426	2443	2443	2443	2426	2392	2426	2409	2409	2409	0	0	0	2426	2460	2460	2460	2460	2514	2514	2496	2496	2409	2409	2426	2409	2409	2409	2426	2426	2426	2426	2426	2426	2426	2426	2426	2426	2443	2426	2426	2426	2426	2426	2426	2409	2426	2426	2426	2409	2409	2426	2426	2409	2426	2426	2443	2460	2478	2478	2532	2532	2551	2589	2589	2609	2629	2649	2649	2669	2669	2777	2777	2777	2799	2799	2799	2799	2799	2777	2799	2799	2799	2799	3952	3952	3952	3907	3907	3907	3907	3864	3864	3864	3864	3864	3864	3821	3821	3821	3821	3821	3821	3821	3821	3779	3779	3779	3779	3779	3779	3779	3779	3738	3738	3738	3738	3779	3779	3779	3779	3779	3779	3779	3779	3821	3864	3864	3821	3779	3779	3779	3738	3698	3698	3698	3621	3621	3621	3621	3621	3621	3583	3621	3621	3621	3621	3621	3659	0	0	0	0	0	0	3698	3738	3698	3738	3738	3779	3864	3952	3952	3998	3998	3998	3998	3998	3998	3998	3998	3998	3998	3952	3998	3998	3952	3952	3952	3952	3907	3907	3907	3998	3998	4045	4045	4093	4093	4045	4045	4045	4045	4093	4093	4093	4045	4045	4045	4045	4045	3998	4045	4045	4093	4093	4093	4142	4142	4142	4192	4142	4192	4192	4142	4142	4142	4093	4142	4142	4142	4142	4142	4142	4192	4192	4192	4192	3309	3309	3309	3309	3309	3309	3309	3309	3309	3309	3309	3309	3277	3309	3309	3309	3309	3309	3309	3309	3309	3309	3341	3341	3341	3309	3309	3309	3309	3309	3309	3309	3309	3309	3309	3309	3309	3309	3309	3309	3309	3309	3309	3309	3309	4093	4093	4093	4093	4045	4045	4045	4093	4093	4093	4093	4093	4093	4093	4142	4142	4142	4142	4093	4093	4093	4093	4093	4045	4045	4045	4045	4045	4045	4045	4045	4045	4045	4045	4093	4093	4045	4045	4045	4093	4093	4093	4045	4045	4045	4045	4045	4045	4045	4045	4045	4045	4045	4045	4093	4093	4045	4045	4093	4045	4045	4045	4045	4045	4045	4045	4045	4045	4045	4045	4045	4045	3998	3998	3998	4045	3907	3907	3864	3864	3864	3864	3864	3864	3864	3864	3864	3864	3864	3864	3864	3864	3907	3907	3907	3907	3864	3907	3907	3907	3864	3864	3864	3864	3864	3864	3864	3864	3864	3864	3864	3864	3864	3864	3864	3864	3907	3864	3864	3907	3907	3907	3907	3907	3907	3907	3907	3907	3907	3907	3907	3907	3907	3907	3864	3864	3864	3864	3864	3864	3864	3864	3864	3864	3864	3907	3864	3907	3907	3907	3907	3907	3907	3907	0	0	0	0	4243	4142	4142	4093	4093	4093	4093	4093	4142	4142	0	0	0	0	0	0	0	0	0	0	0	0	0	0	0	0	0	0	0	0	0	0	0	0	0	0	0	0	0	0	0	0	0	0	0	0	0	0	0	0	0	0	0	0	0	0	0	0	0	0	0	0	0	0	0	0	0	0	0	0	0	0	0	0	0	0	0	0	0	0	0	0	0	0	0	0	0	0	0	0	0	0
0	0	0	0	0	0	0	0	0	0	0	0	0	0	0	0	0	0	0	0	0	0	0	0	0	0	0	0	0	0	0	0	0	0	0	2690	2690	2690	1061	1064	1061	1061	1064	1061	1061	1064	1064	1064	0	0	0	0	0	0	0	0	0	2409	2409	2409	2409	2409	2409	2409	2409	2392	2392	2376	2392	2392	2392	2426	2426	2426	2409	2409	2409	0	1873	1873	1873	1873	1873	1873	1873	1873	1873	1873	1873	1873	1873	1873	1873	1873	1883	1883	1883	1883	1883	2443	2409	2426	2443	2426	2443	2426	2426	2443	2426	2443	2426	2443	2443	2426	2443	2443	2443	2460	2443	2443	2426	2426	2426	2409	2409	2409	0	0	0	2426	2460	2478	2460	2460	2496	2514	2514	2460	2426	2409	2426	2426	2426	2409	2426	2426	2426	2426	2426	2426	2426	2426	2426	2426	2443	2426	2426	2426	2426	2426	2409	2409	2409	2409	2426	2426	2409	2426	2409	2409	2426	2426	2443	2460	2478	2496	2532	2532	2551	2589	2589	2609	2629	2649	2669	2669	2690	2777	2777	2799	2799	2822	2799	2799	2799	2799	2799	2799	2799	3907	3952	3952	3952	3907	3907	3907	3907	3864	3864	3821	3821	3864	3821	3821	3821	3821	3821	3779	3779	3779	3779	3779	3779	3779	3779	3779	3779	3779	3779	3779	3779	3779	3779	3779	3779	3779	3779	3779	3779	3779	3821	3821	3864	3864	3821	3821	3779	3779	3738	3738	3698	3698	3621	3621	3621	3621	3621	3621	3583	3621	3621	3621	3621	3659	3659	0	0	0	0	0	0	0	0	3698	3738	3738	3779	3864	3907	3952	3998	3998	3998	3998	3998	3998	3998	3998	3998	4045	3998	3998	3998	3998	3952	3952	3952	3907	3907	3907	4045	4045	4045	4045	4093	4093	4093	4093	4093	4093	4093	4093	4045	4045	4045	3998	4045	4045	3998	4045	4045	4093	4093	4093	4093	4142	4142	4192	4142	4192	4192	4192	4142	4142	4093	4142	4142	4093	4142	4142	4142	4142	4142	4142	4192	3341	3341	3309	3341	3309	3309	3309	3309	3309	3309	3309	3309	3277	3277	3277	3277	3309	3309	3309	3309	3309	3309	3309	3309	3309	3309	3309	3309	3277	3277	3277	3277	3277	3277	3277	3277	3277	3277	3277	3309	3309	3309	3309	3309	3341	3341	4093	4093	4093	4093	4045	4045	4093	4093	4093	4093	4093	4093	4093	4093	4142	4093	4093	4093	4093	4093	4093	4045	4045	4045	4045	4045	4045	4045	4045	4045	4045	4045	4045	4045	4045	4045	4045	4045	4045	4045	4045	4045	4045	4045	4045	4045	4045	4045	4045	4045	4045	4045	4045	4093	4045	4045	4045	4045	4045	4045	4045	4045	4045	4045	4045	4045	4045	4045	4045	4045	4045	4045	3998	4045	4045	3998	3907	3864	3864	3864	3864	3864	3864	3864	3864	3864	3864	3864	3864	3864	3864	3864	3907	3864	3864	3864	3907	3907	3907	3907	3864	3907	3907	3864	3864	3864	3864	3864	3864	3864	3864	3864	3864	3864	3907	3907	3907	3907	3907	3907	3907	3907	3907	3907	3907	3907	3907	3952	3907	3952	3907	3907	3907	3907	3864	3864	3864	3864	3864	3864	3864	3864	3907	3864	3907	3907	3864	3907	3907	3907	3907	3907	3907	3907	0	0	0	0	4142	4093	4093	4093	4093	4142	4093	4093	4142	0	0	0	0	0	0	0	0	0	0	0	0	0	0	0	0	0	0	0	0	0	0	0	0	0	0	0	0	0	0	0	0	0	0	0	0	0	0	0	0	0	0	0	0	0	0	0	0	0	0	0	0	0	0	0	0	0	0	0	0	0	0	0	0	0	0	0	0	0	0	0	0	0	0	0	0	0	0	0	0	0	0
0	0	0	0	0	0	0	0	0	0	0	0	0	0	0	0	0	0	0	0	0	0	0	0	0	0	0	0	0	0	0	0	0	0	0	0	2690	2690	2690	1064	1061	1058	1061	1061	1061	1064	1068	1068	1068	0	0	0	0	0	0	0	2409	2409	2409	2409	2409	2409	2409	2409	2409	2392	2392	2376	2392	2392	2392	2409	2426	2426	2409	2409	2409	1873	1863	1863	1853	1863	1863	1863	1873	1873	1873	1873	1873	1873	1873	1873	1873	1873	1873	1873	1883	1883	1883	1883	2460	2460	2443	2426	2426	2426	2409	2443	2426	2426	2426	2426	2426	2426	2392	2443	2409	2443	2443	2443	2426	2426	2409	2409	2392	2392	0	0	0	2443	2460	2460	2460	2460	2460	2514	2514	2514	2426	2426	2426	2426	2426	2409	2426	2426	2426	2426	2426	2426	2426	2426	2426	2426	2426	2426	2426	2426	2426	2426	2409	2409	2409	2409	2409	2409	2409	2426	2409	2426	2426	2426	2443	2460	2478	2496	2514	2551	2570	2570	2589	2609	2609	2669	2690	2711	2690	2777	2777	2799	2822	2822	2822	2799	2799	2777	2777	2799	2799	3907	3952	3952	3952	3907	3907	3907	3907	3864	3864	3821	3821	3821	3821	3821	3821	3821	3821	3821	3779	3779	3779	3779	3779	3779	3779	3779	3779	3738	3779	3779	3779	3738	3738	3779	3779	3779	3779	3779	3779	3779	3821	3821	3864	3864	3864	3821	3821	3821	3779	3779	3779	3779	3779	3621	3621	3621	3621	3621	3621	3621	3621	3621	3659	3659	3659	0	0	0	0	0	0	0	0	3698	3738	3738	3738	3738	3907	3952	3998	3998	3952	3952	3998	3998	3998	4045	4045	4045	4045	4045	4045	3998	3952	3952	3907	3864	3864	3907	3907	4093	4045	4045	4045	4093	4093	4045	4045	4045	4045	4045	4045	4045	4045	4045	4045	4045	3998	4045	4045	4045	4093	4093	4093	4093	4142	4192	4142	4192	4192	4192	4142	4142	4142	4142	4142	4142	4142	4142	4142	4142	4142	4142	4142	3309	3309	3309	3309	3309	3309	3309	3309	3309	3277	3277	3277	3277	3277	3277	3277	3277	3309	3309	3309	3309	3309	3309	3309	3309	3309	3277	3277	3277	3277	3277	3277	3277	3277	3277	3246	3277	3277	3277	3277	3309	3309	3309	3309	3309	3309	4093	4093	4093	4093	4093	4093	4093	4093	4093	4093	4093	4093	4093	4093	4142	4093	4093	4093	4093	4093	4045	4045	4045	4045	4045	4045	4045	4045	4045	4045	4045	4045	4045	4045	4045	4045	4045	4045	4093	4093	4045	4045	4045	4045	4045	4045	4045	4045	4045	4045	4045	4045	4093	4093	4045	4045	4045	4045	4045	4045	4045	4045	4045	4045	4045	4045	4045	4045	4045	4093	4093	4045	4045	3998	3998	3998	3907	3864	3864	3864	3864	3864	3864	3864	3864	3864	3864	3864	3864	3864	3864	3864	3907	3864	3864	3864	3907	3907	3907	3864	3864	3907	3907	3864	3864	3864	3864	3864	3864	3864	3864	3907	3864	3907	3907	3907	3907	3907	3907	3907	3907	3907	3907	3907	3907	3907	3907	3907	3907	3907	3907	3907	3907	3907	3864	3864	3864	3864	3864	3864	3864	3864	3907	3864	3907	3907	3907	3907	3907	3907	3907	3907	3907	3907	3907	0	0	0	4142	4093	4045	4093	4093	4093	4093	4093	0	0	0	0	0	0	0	0	0	0	0	0	0	0	0	0	0	0	0	0	0	0	0	0	0	0	0	0	0	0	0	0	0	0	0	0	0	0	0	0	0	0	0	0	0	0	0	0	0	0	0	0	0	0	0	0	0	0	0	0	0	0	0	0	0	0	0	0	0	0	0	0	0	0	0	0	0	0	0	0	0	0	0
0	0	0	0	0	0	0	0	0	0	0	0	0	0	0	0	0	0	0	0	0	0	0	0	0	0	0	0	0	0	0	0	0	0	0	0	0	2669	2669	1055	1055	1055	1058	1058	1061	1064	1068	1068	1068	1068	0	0	0	0	0	0	2409	2426	2426	2426	2426	2409	2409	2426	2392	2392	2392	2376	2376	2376	2376	2409	2409	2409	2409	2409	2409	1873	1873	1853	1853	1833	1833	1833	1843	1873	1863	1873	1873	1873	1873	1883	1873	1873	1883	1883	1883	1883	1883	1883	1883	2460	2460	2460	2443	2443	2426	2426	2409	2409	2426	2426	2426	2409	2409	2460	2409	2426	2443	2409	2426	2409	2409	2392	2376	2376	0	0	0	2426	2460	2460	2460	2443	2443	2514	2496	2496	2460	2409	2426	2426	2426	2409	2426	2426	2426	2426	2426	2426	2426	2426	2426	2426	2443	2426	2426	2426	2426	2426	2426	2409	2409	2409	2409	2409	2409	2409	2409	2426	2426	2426	2460	2478	2496	2514	2514	2551	2570	2609	2629	2629	2669	2690	2690	2711	2733	2754	2777	2799	2799	2822	2799	2799	2799	2777	2777	2777	2777	3907	3907	3952	3952	3907	3907	3907	3907	3907	3864	3821	3821	3821	3821	3821	3821	3821	3821	3821	3779	3779	3779	3779	3779	3779	3779	3779	3779	3738	3738	3738	3738	3738	3738	3738	3738	3738	3779	3779	3779	3779	3821	3821	3864	3864	3864	3864	3864	3864	3864	3864	3864	3779	3779	3621	3621	3621	3621	3621	3621	3621	3621	3621	3621	3621	3621	0	0	0	0	0	0	0	0	0	0	3738	3738	3738	3952	3952	3952	3952	3952	3952	3952	3998	3998	3998	3998	3998	4045	4045	4045	3998	3952	3952	3952	3907	3907	3907	3907	4093	4045	4045	4045	4093	4045	4045	4045	4045	4045	4045	4045	4045	4045	4045	3998	3998	3998	4045	4045	4045	4093	4093	4093	4093	4142	4142	4142	4192	4192	4192	4142	4142	4142	4142	4142	4142	4142	4142	4142	4142	4142	4142	4142	3309	3309	3341	3341	3341	3341	3309	3277	3277	3277	3277	3277	3277	3246	3246	3277	3277	3277	3277	3309	3309	3309	3309	3309	3309	3309	3277	3277	3277	3277	3277	3277	3277	3246	3246	3246	3246	3277	3277	3277	3277	3277	3277	3277	3277	3277	4093	4093	4093	4093	4093	4093	4093	4093	4142	4142	4142	4093	4093	4093	4093	4093	4093	4093	4093	4093	4045	4045	4045	4045	4045	4045	4045	4045	4045	4045	4045	4045	4045	4093	4093	4093	4093	4093	4093	4093	4045	4045	4045	4045	4045	4045	4045	4045	4045	4045	4045	4045	4093	4045	4045	4045	4045	4045	4045	4045	4045	4045	4045	4045	4045	4045	4045	4045	4093	4093	4045	4045	4093	4045	4045	4045	3998	3864	3864	3864	3864	3864	3864	3864	3864	3864	3864	3864	3864	3821	3864	3864	3864	3864	3864	3864	3907	3907	3907	3864	3864	3864	3864	3864	3864	3864	3864	3864	3864	3864	3864	3907	3907	3907	3907	3907	3907	3907	3907	3907	3907	3907	3907	3907	3907	3907	3907	3952	3907	3907	3952	3907	3907	3864	3864	3864	3864	3864	3864	3864	3864	3864	3907	3907	3907	3907	3907	3907	3907	3907	3907	3907	3864	3864	3864	0	0	0	0	4093	4045	4045	4045	4093	4093	4093	0	0	0	0	0	0	0	0	0	0	0	0	0	0	0	0	0	0	0	0	0	0	0	0	0	0	0	0	0	0	0	0	0	0	0	0	0	0	0	0	0	0	0	0	0	0	0	0	0	0	0	0	0	0	0	0	0	0	0	0	0	0	0	0	0	0	0	0	0	0	0	0	0	0	0	0	0	0	0	0	0	0	0
0	0	0	0	0	0	0	0	0	0	0	0	0	0	0	0	0	0	0	0	0	0	0	0	0	0	0	0	0	0	0	0	0	0	0	0	0	2669	2609	1052	1052	1055	1061	1061	1061	1064	1068	1068	1068	1068	0	0	0	0	0	0	0	2409	2409	2409	2426	2409	2409	2409	2409	2297	2343	2343	2376	2376	2376	2392	2409	1863	1873	1873	2409	1853	1853	1833	1833	1833	1833	1833	1833	1843	1853	1863	1873	1873	1873	1883	1873	1873	1883	1883	1883	1873	1883	1883	1883	1883	1883	1883	2443	1883	1883	1883	1883	1883	1883	1883	1883	1883	1873	1873	1873	1873	1873	2409	2426	2426	2409	2409	2409	2409	0	0	0	2426	2460	2460	0	2443	2443	0	2496	2496	2460	2409	2409	2426	2426	2409	2426	2426	2426	2409	2426	2426	2426	2426	2426	2426	2443	2426	2426	2426	2426	2426	2426	2409	2409	2409	2409	2409	2409	2409	2409	2409	2426	2426	2460	2460	2496	2532	2551	2551	2570	2609	2629	2649	2669	2690	2690	2711	2733	2754	2777	2799	2799	2799	2799	2799	2799	2777	2777	2777	2799	2799	3952	3952	3952	3952	3907	3907	3907	3864	3821	3821	3821	3821	3821	3779	3821	3779	3821	3779	3779	3779	3779	3779	3779	3779	3779	3779	3738	3738	3738	3738	3738	3738	3738	3738	3738	3738	3779	3779	3779	3821	3821	3821	3821	3864	3864	3864	3864	3864	3864	3864	3821	3821	0	3621	3659	3659	3659	3621	3621	3621	3621	3621	3621	3621	3621	3621	0	0	0	0	0	0	0	0	0	0	0	0	3907	3907	3952	3952	3952	3952	3952	3952	3998	3998	4045	4045	4045	4045	4093	4045	3998	3998	3998	3998	3907	3907	0	0	4093	4045	4045	4093	4045	4045	4045	4045	4045	4045	4045	3998	4045	3998	3998	4045	3998	3998	4045	4045	4045	4093	4093	4093	4093	4192	4192	4192	4192	4192	4142	4142	4142	4142	4142	4142	4093	4093	4093	4093	4093	4093	4093	3309	3309	3341	3341	3341	3309	3309	3277	3277	3277	3277	3277	3246	3246	3246	3246	3277	3277	3277	3309	3309	3309	3309	3309	3309	3309	3277	3277	3277	3277	3277	3246	3246	3246	3246	3246	3246	3246	3246	3277	3277	3277	3277	3277	3277	3277	4093	4093	4093	4093	4142	4093	4093	4142	4142	4093	4142	4093	4093	4093	4093	4093	4093	4093	4093	4093	4045	4045	4045	4045	4045	4045	4045	4045	4045	4045	4045	4045	4045	4045	4045	4045	4093	4093	4093	4045	4045	4045	4045	4045	4045	4045	4045	4045	4093	4045	4045	4045	4045	4045	4045	4045	4045	4045	4045	4045	4045	4045	4045	4045	4045	4045	4045	3952	4093	4045	4045	4045	4093	4093	4045	4045	3998	3864	3864	3864	3864	3864	3864	3864	3864	3864	3864	3864	3864	3821	3821	3864	3864	3864	3864	3864	3907	3907	3907	3864	3864	3864	3864	3864	3864	3864	3864	3864	3864	3864	3864	3864	3864	3864	3907	3907	3907	3864	3864	3864	3907	3907	3907	3907	3907	3907	3907	3952	3907	3907	3907	3907	3907	3907	3864	3864	3864	3864	3864	3821	3864	3864	3907	3907	3907	3907	3907	3907	3864	3864	3864	3864	3864	3864	3864	0	0	0	0	0	4045	4045	4045	0	0	0	0	0	0	0	0	0	0	0	0	0	0	0	0	0	0	0	0	0	0	0	0	0	0	0	0	0	0	0	0	0	0	0	0	0	0	0	0	0	0	0	0	0	0	0	0	0	0	0	0	0	0	0	0	0	0	0	0	0	0	0	0	0	0	0	0	0	0	0	0	0	0	0	0	0	0	0	0	0	0	0	0	0	0
0	0	0	0	0	0	0	0	0	0	0	0	0	0	0	0	0	0	0	0	0	0	0	0	0	0	0	0	0	0	0	0	0	0	0	0	0	0	2589	1055	1055	1055	1061	1061	1064	1064	1064	1064	1064	1064	1064	0	0	0	0	0	0	2409	2426	2426	2426	1853	1853	1863	1863	2297	2297	2312	1863	1863	1853	1853	1863	1863	1863	1853	1853	1853	1833	1824	1824	1824	1824	1824	1824	1833	1843	1843	1863	1873	1873	1883	1873	1883	1883	1883	1883	1873	1883	1883	1883	1883	1883	1883	1883	1883	1883	1883	1883	1883	1883	1883	1873	1883	1873	1873	1883	1883	1873	1883	1883	1883	1873	1873	2409	2409	0	0	0	0	0	0	0	2443	2443	0	0	0	2460	2426	2409	2426	2426	2409	2426	2426	2426	2426	2426	2426	2426	2443	2426	2426	2426	2426	2426	2426	2426	2409	2409	2409	2409	2409	2409	2409	2409	2409	2409	2426	2426	2426	2460	2478	2496	2532	2551	2551	2570	2609	2629	2649	2669	2690	2711	2711	2733	2754	2777	2777	2777	2777	2799	2799	2799	2799	2799	2777	2777	2777	2777	3952	3952	3952	3952	3907	3907	3821	3821	3779	3779	3779	3779	3779	3821	3779	3779	3779	3779	3779	3779	3779	3779	3779	3779	3779	3779	3779	3779	3779	3779	3738	3779	3738	3779	3779	3779	3779	3779	3821	3779	3779	3821	3821	3864	3864	3864	3864	3864	3821	3821	3738	3738	3698	3659	3659	3659	3659	3621	3621	3621	3621	3621	3621	3621	3621	3621	3621	0	0	0	0	0	0	0	0	0	0	3907	3907	3907	3907	3907	3952	3952	3998	3998	3998	4045	4045	4045	4045	4093	4045	3998	4045	4093	4093	0	0	0	0	4093	4045	4045	4045	4045	3998	3998	3998	4045	3998	4045	3998	3998	3998	3998	3998	3998	3998	3998	4045	4045	4045	4093	4093	4093	4192	4192	4093	4093	4093	4142	4093	4093	4093	4093	4093	4045	4093	4045	4045	4045	4093	4093	3309	3309	3309	3309	3309	3277	3277	3246	3246	3246	3246	3246	3216	3216	3216	3216	3246	3246	3277	3309	3309	3309	3341	3341	3341	3341	3309	3309	3277	3277	3277	3277	3246	3246	3277	3246	3246	3277	3246	3246	3277	3277	3277	3246	3246	3246	4142	4093	4093	4093	4142	4093	4093	4093	4093	4093	4093	4093	4093	4093	4093	4093	4093	4093	4093	4093	4045	4045	4045	4045	4045	4045	4045	4045	4045	4045	4045	4045	4045	4045	4045	4045	4045	4093	4093	4045	4045	4045	4045	4045	3998	3998	3998	3998	4045	4045	4045	4045	3998	4045	4045	3998	4045	4045	4045	4045	4045	4045	3998	4045	3998	3952	3952	3952	3952	4045	4045	3998	4045	4045	0	0	0	0	3864	3864	3864	3864	3864	3864	3864	3864	3864	3864	3864	3821	3821	3821	3864	3864	3864	3864	3907	3907	3907	3864	3864	3864	3864	3864	3864	3864	3864	3864	3864	3864	3864	3864	3864	3864	3864	3907	3907	3864	3864	3907	3907	3907	3907	3907	3907	3952	3952	3952	3952	3952	3952	3907	3907	3864	3864	3864	3864	3864	3864	3821	3864	3864	3907	3907	3907	3907	3864	3864	3864	3864	3864	3864	3864	3864	3864	0	0	0	0	0	0	0	0	0	0	0	0	0	0	0	0	0	0	0	0	0	0	0	0	0	0	0	0	0	0	0	0	0	0	0	0	0	0	0	0	0	0	0	0	0	0	0	0	0	0	0	0	0	0	0	0	0	0	0	0	0	0	0	0	0	0	0	0	0	0	0	0	0	0	0	0	0	0	0	0	0	0	0	0	0	0	0	0	0	0	0	0	0	0
0	0	0	0	0	0	0	0	0	0	0	0	0	0	0	0	0	0	0	0	0	0	0	0	0	0	0	0	0	0	0	0	0	0	0	0	0	0	2589	1061	1061	1058	1061	1061	1064	1064	1064	1064	1061	1061	1061	1061	0	0	0	0	0	0	1833	1833	2426	1853	1853	1863	1863	1873	1863	1863	1853	1853	1853	1853	1863	1863	1863	1863	1853	0	1833	1814	1804	1804	1814	1824	1824	1833	1843	1843	1843	1873	1873	1883	1883	1883	1883	1883	1883	1894	1883	1883	1883	1883	1883	1883	1894	1883	1883	1883	1883	1883	1883	1883	1873	1883	1873	1873	1883	1883	1883	1883	1883	1883	1873	1863	1863	0	0	0	0	0	0	0	0	0	0	0	0	0	0	2409	2409	2409	2409	2409	2426	2426	2426	2426	2426	2426	2426	2443	2426	2426	2426	2426	2426	2426	2426	2409	2409	2409	2409	2409	2409	2409	2409	2409	2409	2426	2426	2443	2478	2478	2496	2514	2551	2551	2570	2609	2629	2669	2669	2690	2690	2711	2733	2754	2754	2777	2777	2799	2799	2799	2799	2777	2799	2777	2777	2777	2777	3952	3952	3952	3907	3907	3907	3821	3779	3779	3779	3779	3779	3779	3779	3779	3779	3779	3779	3779	3779	3779	3779	3779	3779	3779	3779	3779	3779	3738	3738	3738	3779	3779	3779	3779	3779	3779	3779	3821	3779	3821	3821	3821	3864	3864	3864	3864	3907	3864	3864	3738	3659	3698	3659	3659	3659	3659	3659	3659	3659	3621	3621	3621	3621	3621	3621	3621	0	0	0	0	0	0	0	0	0	0	3907	3864	3907	3907	3907	3907	3907	3952	3998	3998	3998	3998	4045	4045	4045	4045	3998	3998	4093	4093	0	0	0	0	0	4045	4045	4045	4045	3998	3998	3998	4045	4045	4045	4045	3998	3998	3998	3998	3998	3998	3998	4045	4045	4045	4093	4093	0	0	4192	4192	4045	4142	4142	4093	4093	4093	4045	4045	3998	3998	3998	3998	3998	0	0	3341	3309	3309	3277	3277	3277	3246	3246	3216	3216	3216	3216	3216	3216	3216	3216	3246	3246	3277	3309	3309	3341	3341	3341	3341	3341	3341	3309	3309	3277	3277	3246	3246	3246	3246	3216	3216	3246	3246	3186	3216	3216	3216	3216	3216	3246	4093	4093	4093	4093	4142	4093	4093	4093	4093	4093	4093	4045	4045	4093	4093	4093	4045	4045	4045	4045	4045	3998	4045	4045	4045	4045	4045	4045	4045	4045	4045	4045	4045	4045	4045	4093	4093	4093	4093	4045	4045	3998	3998	3998	3998	3998	3998	4045	4045	4045	3998	4045	4045	3998	4045	4045	4045	4045	4045	4045	4045	4045	4045	4045	3998	3952	3952	3952	3952	4045	4045	3998	4045	4045	0	0	0	0	0	0	0	3864	3864	3864	3864	3821	3821	3821	3821	3821	3821	3821	3864	3864	3864	3864	3907	3907	3907	3864	3864	3864	3864	3864	3864	3864	3864	3864	3864	3864	3864	3864	3864	3864	3864	3907	3864	3864	3864	3864	3907	3907	3907	3907	3952	3952	3907	3998	3998	3952	3952	3907	3907	3864	3864	3864	3864	3864	3864	3864	3864	3864	3907	3864	3907	3907	3907	3864	3864	3864	3864	3864	3864	3864	0	0	0	0	0	0	0	0	0	0	0	0	0	0	0	0	0	0	0	0	0	0	0	0	0	0	0	0	0	0	0	0	0	0	0	0	0	0	0	0	0	0	0	0	0	0	0	0	0	0	0	0	0	0	0	0	0	0	0	0	0	0	0	0	0	0	0	0	0	0	0	0	0	0	0	0	0	0	0	0	0	0	0	0	0	0	0	0	0	0	0	0	0	0	0
