0	0	0	0	0	0	0	0	0	0	0	0	2237	2237	2252	2266	2281	2281	2327	2297	2312	2312	2312	2281	2281	2281	2266	2266	2266	2281	2281	2297	2297	2312	2327	2327	2343	2343	2343	2343	2359	2376	2392	2409	2409	2426	2443	2460	2460	2460	2460	2460	2478	2478	2460	2460	2460	2478	2478	2532	2551	2551	2532	2532	2532	2532	2532	2532	2532	2496	2514	2514	2514	2514	2514	2532	2532	2532	2532	2532	2532	2532	2711	2777	2822	2845	2822	2845	2869	2893	2893	2917	2967	2967	2967	2967	2967	2967	2993	2993	2993	3019	3046	3046	0	4771	4771	4771	4771	4771	4838	4838	4771	4771	4771	4771	4771	4771	4771	4706	4771	4771	4838	4706	4643	4706	4706	4771	4706	4771	4771	4771	4771	4771	4771	4838	4838	4838	4838	4838	4838	4771	4838	4838	4838	4838	4771	4771	4771	4771	4771	4771	4771	4771	4771	4771	4706	4706	4643	4581	4643	4706	4706	4706	4771	4771	4771	4771	4838	4838	4838	4771	4771	4771	4838	4838	4771	4771	4771	4771	4771	4771	4771	4771	4771	4771	4771	4771	4771	4771	4771	4771	4771	4771	4838	4771	4771	4771	4838	4838	4838	4771	4771	4771	4771	4771	4771	4771	4771	4838	4838	4838	4838	4838	4838	4838	4771	4771	4771	4771	4771	4771	4771	4771	4771	4771	4771	4771	4771	4771	4838	4771	4771	4771	4706	4706	4706	4706	4706	4706	4706	4706	4706	4706	4706	4706	4706	4771	4771	4771	4771	4771	4771	4771	4771	4771	4771	4771	4771	4771	4771	4771	4771	4771	4771	4771	4771	4838	4838	4838	4838	4838	4838	4838	4838	4838	4771	4771	4771	4771	4771	4771	4771	4771	4771	4771	4838	4838	4838	4771	4838	4838	4838	4838	4838	4838	4838	4838	4838	4771	4771	4771	4838	4838	4838	4838	4838	4838	4838	4771	4771	4838	4771	4771	4706	4706	4771	4771	4771	4771	4771	4771	4771	4771	4706	4643	4643	4581	4463	4350	4350	4350	4350	4350	4350	4406	4463	4463	4463	4463	4463	4463	4463	4521	4463	4463	4463	4463	4521	4463	4463	4463	4463	4463	4463	4463	4463	4463	4463	4463	4463	4463	4463	4406	4406	4406	4406	4463	4521	4521	4521	4521	4521	4521	4463	4463	4463	4463	4463	4463	4463	4463	4463	4463	4463	4463	4463	4463	4463	4463	4463	4463	4463	4463	4463	4463	4463	4463	4463	4406	4463	4463	4463	4463	4521	4521	4521	4521	4521	4521	4521	4521	4521	4521	4521	4521	4521	4463	4463	4463	4463	4521	4521	4521	4463	4463	4463	4521	4463	4463	4521	4521	4463	4521	4463	4521	4521	4463	4463	4463	4463	4463	4463	4463	4463	4463	4406	4406	4406	4406	4406	4406	4406	4406	4406	4350	4350	4296	4350	4350	4296	4243	4243	4243	4243	4243	4243	4243	4243	4296	4296	4243	4243	4243	4243	4243	4243	4243	4243	4243	4243	4243	4243	4296	4296	4243	4243	4296	4243	4243	4243	4243	4243	4243	4243	4243	4243	4243	4243	4192	4192	4192	4192	4192	4192	4243	4192	4243	4192	4142	4142	4142	4142	4142	4192	4142	4142	4192	4142	4142	4142	4142	4142	4192	4192	4192	4192	4243	4243	4296	4296	4406	4406	4463	4463	4521	4521	4643	4706	4706	4706	4706	4838	4771	4771	4771	4771	4771	4771	4706	4771	4771	4706	4706	4706	4706	4706	4706	4706	4706	4706	4706	4706	4706	4706	4706	4706	4706	4706	4706	4706	0	0	0	0	0	0	0	0	0	0	0	0	0	0	0	0	0	0	0	0	0	0	0	0	0	0	0	0	0	0	0	0	0	0	0	0	0	0	0	0	0	0	0	0	0	0	0	0	0	0	0	0	0	0	0	0	0	0	0	0	0	0	0	0	0	0	0	0	0
0	0	0	0	0	0	0	0	0	0	0	0	0	2237	2252	2281	2297	2297	2327	2297	2327	2312	2312	2281	2281	2281	2266	2266	2266	2281	2281	2297	2297	2312	2327	2327	2343	2343	2343	2392	2359	2376	2392	2409	2426	2443	2443	2460	2460	2460	2460	2478	2478	2478	2478	2478	2532	2532	2532	2532	2551	2532	2532	2532	2532	2532	2532	2532	2532	2496	2532	2532	2532	2532	2514	2514	2514	2514	2514	2532	2532	2589	2669	2754	2822	2845	2822	2845	2869	2893	2893	2942	2942	2967	2967	2967	2967	2993	2993	2993	3019	3019	3019	3019	0	4771	4771	4771	4771	4771	4771	4838	4771	4771	4771	4771	4771	4771	4771	4771	4771	4771	4771	4771	4706	4706	4706	4706	4706	4771	4771	4771	4838	4771	4838	4838	4838	4838	4838	4838	4838	4771	4838	4838	4838	4838	4838	4771	4771	4771	4771	4838	4771	4771	4771	4771	4706	4706	4643	4643	4771	4771	4771	4771	4771	4771	4771	4771	4771	4838	4838	4838	4838	4771	4771	4771	4771	4771	4771	4771	4771	4771	4771	4771	4771	4771	4771	4771	4771	4771	4771	4771	4838	4838	4838	4771	4838	4771	4771	4771	4838	4838	4838	4838	4771	4771	4838	4838	4771	4838	4838	4838	4838	4838	4838	4838	4838	4838	4838	4771	4771	4771	4771	4771	4771	4771	4771	4771	4771	4771	4771	4771	4771	4706	4706	4706	4706	4706	4706	4771	4771	4771	4771	4771	4771	4771	4771	4771	4771	4771	4771	4771	4771	4838	4771	4771	4771	4771	4771	4771	4771	4771	4838	4771	4771	4771	4838	4838	4838	4838	4838	4838	4838	4838	4838	4838	4771	4838	4771	4838	4838	4838	4838	4838	4838	4838	4838	4838	4838	4838	4838	4838	4838	4838	4838	4838	4838	4838	4838	4838	4838	4838	4838	4838	4838	4838	4838	4838	4838	4838	4838	4838	4771	4771	4771	4771	4771	4771	4771	4771	4771	4771	4771	4771	4706	4581	4521	4521	4463	4350	4296	4350	4350	4406	4406	4406	4463	4463	4463	4463	4463	4463	4463	4463	4463	4463	4463	4463	4521	4463	4463	4463	4463	4463	4521	4521	4463	4463	4463	4463	4463	4463	4463	4406	4406	4406	4463	4521	4521	4521	4521	4521	4521	4521	4463	4463	4521	4521	4521	4521	4521	4463	4463	4463	4463	4463	4463	4463	4463	4463	4463	4463	4463	4463	4463	4463	4521	4521	4463	4463	4521	4521	4521	4521	4521	4521	4521	4521	4521	4521	4521	4521	4521	4521	4521	4521	4521	4521	4521	4521	4521	4521	4581	4581	4521	4521	4521	4521	4521	4521	4521	4521	4521	4521	4521	4521	4521	4521	4463	4463	4463	4463	4463	4463	4463	4463	4406	4406	4406	4406	4406	4406	4406	4406	4406	4350	4296	4296	4350	4350	4296	4243	4243	4243	4243	4243	4243	4243	4243	4296	4243	4243	4243	4243	4243	4192	4243	4243	4243	4243	4243	4243	4243	4243	4243	4243	4243	4243	4243	4243	4243	4243	4243	4243	4243	4243	4243	4243	4243	4192	4192	4192	4192	4192	4192	4192	4243	4243	4192	4142	4142	4142	4142	4142	4192	4142	4192	4192	4192	4142	4142	4192	4142	4192	4192	4192	4192	4243	4296	4296	4350	4406	4406	4463	4463	4521	4521	4581	4706	4706	4706	4706	4838	4771	4771	4771	4771	4771	4771	4771	4771	4771	4771	4771	4771	4771	4771	4771	4706	4706	4706	4706	4706	4706	4706	4706	4706	4771	4706	4706	4706	4706	0	0	0	0	0	0	0	0	0	0	0	0	0	0	0	0	0	0	0	0	0	0	0	0	0	0	0	0	0	0	0	0	0	0	0	0	0	0	0	0	0	0	0	0	0	0	0	0	0	0	0	0	0	0	0	0	0	0	0	0	0	0	0	0	0	0	0	0
0	0	0	0	0	0	0	0	0	0	0	0	0	0	2281	2281	2281	2297	2297	2297	2297	2297	2312	2281	2281	2281	2266	2266	2281	2281	2281	2297	2297	2312	2327	2327	2327	2343	2343	2359	2376	2376	2392	2409	2426	2443	2460	2460	2478	2478	2478	2478	2478	2496	2478	2478	2532	2532	2532	2532	2532	2532	2532	2532	2532	2532	2532	2532	2532	2514	2532	2532	2532	2532	2514	2514	2514	2514	2514	2532	2532	2532	2532	2822	2822	2822	2822	2845	2869	2893	2893	2942	2967	2967	2967	2993	2993	2993	2993	2993	3019	3019	3019	3019	0	4771	4771	4771	4771	4771	4838	4838	4771	4771	4771	4771	4771	4771	4771	4771	4771	4771	4838	4771	4838	4838	4771	4838	4771	4771	4771	4838	4838	4838	4838	4838	4838	4838	4838	4838	4838	4838	4838	4838	4838	4838	4838	4838	4771	4838	4838	4838	4771	4771	4771	4771	4771	4771	4771	4771	4771	4771	4771	4771	4771	4838	4838	4838	4838	4906	4838	4838	4838	4838	4838	4838	4771	4771	4771	4838	4771	4771	4771	4838	4771	4838	4838	4838	4838	4838	4838	4838	4838	4838	4838	4838	4838	4838	4838	4838	4838	4838	4838	4838	4838	4771	4838	4838	4838	4838	4838	4838	4838	4838	4838	4838	4838	4838	4838	4771	4838	4771	4771	4771	4771	4771	4771	4771	4771	4771	4838	4838	4838	4771	4771	4771	4771	4771	4771	4771	4838	4838	4838	4838	4838	4838	4771	4771	4771	4771	4771	4838	4771	4838	4838	4838	4838	4838	4838	4771	4771	4771	4838	4771	4771	4838	4771	4838	4838	4838	4838	4838	4838	4838	4838	4838	4838	4838	4838	4838	4838	4771	4838	4838	4838	4838	4838	4838	4838	4838	4838	4838	4838	4838	4838	4838	4838	4838	4838	4838	4838	4838	4838	4838	4838	4838	4838	4838	4838	4838	4838	4838	4771	4771	4771	4771	4771	4771	4771	4771	4771	4771	4771	4771	4643	4643	4581	4521	4463	4406	4463	4463	4406	4406	4406	4463	4463	4463	4463	4463	4463	4463	4463	4521	4463	4521	4463	4521	4521	4463	4463	4463	4463	4463	4521	4521	4521	4463	4463	4463	4463	4463	4463	4406	4406	4406	4463	4521	4521	4521	4521	4521	4521	4521	4521	4521	4521	4521	4521	4521	4521	4463	4463	4463	4463	4463	4463	4463	4463	4463	4463	4463	4463	4463	4463	4521	4521	4521	4521	4521	4521	4521	4521	4521	4521	4521	4521	4521	4521	4521	4521	4521	4521	4521	4521	4521	4521	4521	4521	4521	4521	4521	4581	4521	4581	4521	4521	4521	4521	4521	4521	4521	4521	4521	4521	4521	4521	4521	4521	4521	4521	4521	4463	4463	4463	4463	4463	4463	4463	4463	4463	4406	4406	4406	4406	4350	4296	4296	4350	4296	4296	4296	4243	4243	4243	4243	4243	4243	4243	4296	4243	4243	4243	4243	4243	4192	4192	4243	4192	4192	4243	4243	4243	4243	4243	4243	4243	4243	4243	4243	4296	4243	4243	4243	4243	4243	4192	4192	4192	4192	4142	4142	4192	4243	4243	4243	4243	4243	4192	4142	4142	4142	4142	4142	4192	4192	4192	4192	4192	4142	4142	4192	4192	4192	4192	4192	4243	4243	4296	4296	4350	4406	4406	4463	4463	4521	4521	4581	4581	4581	4771	4771	0	0	0	0	0	4771	4771	4771	4771	4771	4771	4771	4771	4771	4771	4771	4771	4771	4771	4706	4706	4706	4706	4706	4706	4771	4771	4771	4771	4706	0	0	0	0	0	0	0	0	0	0	0	0	0	0	0	0	0	0	0	0	0	0	0	0	0	0	0	0	0	0	0	0	0	0	0	0	0	0	0	0	0	0	0	0	0	0	0	0	0	0	0	0	0	0	0	0	0	0	0	0	0	0	0	0	0	0	0	0
0	0	0	0	0	0	0	0	0	0	0	0	0	2297	2281	2281	2281	2281	2297	2297	2297	2297	2297	2281	2281	2281	2266	2266	2266	2281	2281	2281	2297	2312	2327	2327	2327	2343	2392	2392	2392	2376	2392	2409	2426	2426	2460	2460	2478	2478	2478	2478	2532	2532	2532	2532	2532	2532	2532	2532	2532	2532	2532	2532	2532	2532	2532	2532	2514	2532	2532	2532	2551	2532	2514	2514	2514	2514	2514	2532	2532	2532	2551	2551	2845	2845	2822	2845	2869	2893	2893	2917	2967	2967	2967	2967	2993	2993	2993	2993	3019	3019	3019	3019	0	4706	4771	4771	4771	4838	4838	4838	4771	4771	4771	4771	4838	4838	4838	4838	4838	4838	4838	4771	4771	4771	4771	4771	4771	4771	4838	4838	4838	4838	4838	4838	4838	4838	4838	4838	4838	4838	4838	4838	4838	4838	4838	4838	4771	4771	4771	4771	4771	4771	4771	4771	4771	4771	4771	4771	4771	4838	4838	4838	4771	4838	4838	4838	4838	4838	4838	4838	4838	4838	4838	4838	4838	4838	4838	4838	4838	4838	4838	4838	4838	4838	4838	4838	4838	4838	4838	4838	4838	4906	4838	4838	4838	4838	4838	4838	4838	4838	4838	4838	4838	4838	4838	4838	4838	4838	4838	4838	4838	4838	4838	4838	4838	4838	4838	4838	4838	4838	4771	4771	4771	4771	4771	4771	4771	4771	4838	4838	4838	4838	4771	4838	4838	4838	4838	4838	4838	4838	4838	4838	4838	4838	4838	4838	4838	4771	4771	4838	4838	4838	4838	4838	4838	4838	4838	4838	4771	4771	4771	4771	4771	4838	4771	4771	4771	4771	4838	4838	4838	4838	4838	4838	4838	4838	4838	4838	4838	4838	4838	4838	4838	4838	4838	4838	4838	4838	4838	4838	4838	4838	4838	4838	4838	4906	4906	4906	4838	4838	4838	4838	4838	4838	4838	4838	4838	4838	4838	4906	4771	4771	4771	4771	4771	4838	4838	4838	4838	4838	4771	4771	4706	4581	4581	4521	4521	4463	4463	4463	4463	4463	4463	4463	4463	4463	4463	4463	4463	4463	4521	4521	4521	4521	4463	4463	4521	4463	4463	4463	4463	4521	4463	4521	4521	4521	4463	4463	4521	4521	4463	4463	4463	4463	4463	4463	4463	4521	4521	4521	4521	4521	4521	4521	4521	4521	4521	4521	4521	4521	4521	4521	4521	4521	4521	4521	4521	4521	4521	4463	4463	4463	4521	4521	4521	4521	4521	4521	4521	4521	4521	4521	4521	4521	4521	4521	4521	4581	4521	4521	4521	4521	4521	4521	4521	4521	4521	4521	4521	4521	4521	4521	4521	4521	4521	4521	4521	4521	4521	4521	4521	4521	4521	4581	4521	4521	4521	4521	4521	4521	4463	4463	4521	4463	4463	4463	4463	4463	4463	4406	4406	4406	4406	4350	4296	4296	4296	4296	4296	4243	4243	4243	4243	4243	4243	4243	4243	4296	4296	4243	4243	4243	4243	4243	4243	4243	4192	4243	4192	4192	4243	4243	4243	4243	4243	4243	4243	4243	4243	4243	4243	4243	4243	4243	4192	4192	4192	4142	4142	4142	4192	4243	4243	4243	4243	4192	4243	4142	4142	4142	4142	4142	4192	4192	4192	4192	4192	4192	4142	4192	4192	4192	4192	4192	4243	4243	4296	4350	4350	4406	4406	4463	4463	4521	4521	4521	4706	4771	4771	4771	0	0	0	0	4771	4771	4771	4771	4771	4771	4771	4771	4771	4771	4771	4771	4771	4771	4771	4706	4706	4706	4706	4706	4706	4706	4771	4771	4771	0	0	0	0	0	0	0	0	0	0	0	0	0	0	0	0	0	0	0	0	0	0	0	0	0	0	0	0	0	0	0	0	0	0	0	0	0	0	0	0	0	0	0	0	0	0	0	0	0	0	0	0	0	0	0	0	0	0	0	0	0	0	0	0	0	0	0	0	0
0	0	0	0	0	0	0	0	0	0	0	0	0	2297	2312	2297	2312	2312	2297	2312	2297	2297	2297	2281	2281	2281	2281	2266	2281	2281	2281	2281	2297	2359	2327	2327	2327	2343	2392	2392	2392	2376	2392	2409	2426	2426	2443	2460	2478	2478	2514	2532	2532	2532	2532	2532	2532	2532	2532	2532	2532	2532	2532	2532	2532	2532	2532	2514	2532	2532	2532	2532	2551	2551	2496	2589	2514	2514	2532	2532	2532	2551	2551	2551	2822	2822	2822	2845	2869	2893	2893	2917	2967	2967	2967	2967	2967	2993	2993	2993	2993	2993	2993	2993	0	4706	4771	4771	4771	4838	4838	4838	4771	4771	4771	4838	4838	4838	4838	4838	4838	4906	4906	4838	4838	4838	4771	4771	4771	4771	4838	4838	4838	4838	4838	4838	4838	4838	4838	4838	4838	4838	4838	4838	4838	4838	4838	4771	4771	4771	4771	4771	4771	4771	4771	4838	4771	4838	4771	4838	4838	4838	4906	4838	4838	4838	4838	4838	4838	4838	4838	4838	4838	4838	4838	4838	4838	4838	4838	4838	4838	4838	4838	4838	4838	4838	4838	4906	4906	4906	4906	4906	4906	4906	4838	4838	4838	4838	4838	4838	4838	4838	4838	4838	4838	4838	4838	4838	4838	4838	4906	4906	4906	4838	4838	4838	4838	4838	4838	4838	4838	4838	4838	4771	4771	4771	4771	4771	4838	4838	4838	4838	4838	4838	4838	4838	4838	4838	4838	4906	4906	4906	4906	4906	4838	4838	4838	4906	4838	4838	4838	4838	4838	4838	4838	4838	4906	4906	4906	4906	4838	4838	4838	4771	4838	4838	4838	4838	4838	4838	4838	4838	4838	4838	4838	4838	4838	4838	4838	4838	4906	4906	4906	4906	4906	4838	4838	4838	4838	4838	4838	4838	4838	4838	4838	4906	4906	4906	4906	4977	4838	4906	4906	4906	4838	4906	4906	4838	4906	4838	4838	4906	4838	4771	4838	4771	4838	4838	4838	4838	4838	4838	4771	4771	4706	4706	4643	4643	4521	4521	4463	4463	4521	4463	4463	4521	4521	4463	4521	4521	4521	4521	4521	4521	4521	4521	4463	4463	4463	4463	4463	4463	4463	4463	4463	4521	4521	4521	4521	4521	4521	4521	4521	4463	4463	4463	4463	4463	4463	4521	4521	4521	4521	4521	4521	4521	4521	4521	4521	4521	4521	4521	4521	4521	4521	4521	4521	4521	4521	4521	4463	4521	4521	4521	4521	4521	4521	4521	4581	4581	4581	4581	4521	4521	4521	4521	4521	4521	4521	4521	4521	4521	4521	4521	4521	4521	4521	4521	4521	4521	4581	4581	4581	4521	4581	4581	4521	4521	4521	4521	4521	4521	4521	4521	4521	4521	4521	4521	4521	4521	4521	4521	4521	4521	4521	4463	4463	4406	4463	4463	4463	4406	4350	4406	4406	4350	4296	4296	4296	4296	4296	4296	4243	4243	4243	4243	4243	4243	4243	4296	4296	4296	4296	4243	4243	4192	4192	4192	4192	4192	4192	4192	4243	4243	4243	4243	4243	4243	4243	4243	4243	4243	4243	4243	4243	4243	4243	4243	4243	4192	4192	4192	4243	4243	4243	4243	4243	4243	4243	4192	4142	4142	4192	4142	4192	4192	4192	4192	4142	4142	4142	4142	4142	4142	4192	4192	4243	4243	4296	4350	4406	4463	4463	4463	4521	4521	4521	4581	4706	4771	4771	0	0	0	4838	4838	4771	4771	4771	4771	4771	4771	4838	4838	4838	4838	4838	4838	4771	4771	4771	4771	4771	4771	4771	4771	4771	4771	4771	4771	4771	0	0	0	0	0	0	0	0	0	0	0	0	0	0	0	0	0	0	0	0	0	0	0	0	0	0	0	0	0	0	0	0	0	0	0	0	0	0	0	0	0	0	0	0	0	0	0	0	0	0	0	0	0	0	0	0	0	0	0	0	0	0	0	0	0	0	0	0	0
0	0	0	0	0	0	0	0	0	0	0	0	0	2343	2327	2312	2312	2312	2297	2297	2297	2297	2297	2297	2281	2281	2281	2281	2281	2281	2297	2281	2281	2359	2359	2327	2327	2343	2376	2392	2376	2392	2392	2409	2426	2426	2443	2460	2478	2478	2514	2532	2532	2532	2532	2532	2532	2532	2532	2532	2532	2532	2532	2532	2532	2532	2532	2532	2532	2532	2532	2532	2551	2551	2514	2589	2514	2532	2532	2532	2532	2629	2629	2777	2822	2822	2822	2845	2845	2869	2893	2893	2967	2967	2967	2993	2993	2993	2993	2993	2993	3019	3019	3019	0	4643	4706	4771	4771	4838	4838	4838	4771	4771	4771	4771	4838	4838	4838	4906	4906	4906	4906	4906	4906	4906	4838	4771	4838	4838	4838	4838	4838	4838	4838	4838	4838	4838	4838	4838	4838	4838	4838	4838	4838	4838	4838	4838	4771	4771	4771	4838	4771	4771	4838	4838	4838	4838	4838	4838	4838	4838	4838	4838	4838	4838	4838	4838	4838	4838	4838	4838	4838	4838	4838	4838	4838	4838	4838	4838	4838	4838	4838	4838	4838	4838	4838	4906	4906	4906	4906	4906	4906	4906	4906	4906	4838	4838	4838	4838	4838	4838	4838	4771	4838	4838	4838	4838	4838	4838	4838	4838	4906	4838	4838	4838	4838	4838	4838	4838	4838	4906	4838	4838	4838	4771	4771	4771	4838	4838	4838	4838	4838	4838	4838	4838	4838	4906	4906	4906	4906	4906	4906	4906	4906	4906	4838	4906	4838	4838	4838	4838	4838	4906	4838	4906	4906	4906	4906	4906	4838	4838	4838	4838	4838	4838	4838	4771	4771	4838	4838	4838	4838	4838	4906	4838	4838	4838	4838	4838	4906	4838	4838	4906	4906	4838	4906	4838	4838	4838	4838	4838	4838	4838	4838	4906	4906	4906	4906	4977	4977	4906	4906	4906	4906	4906	4906	4906	4906	4906	4906	4906	4838	4771	4838	4771	4771	4838	4838	4838	4838	4838	4771	4771	4706	4706	4643	4643	4581	4521	4521	4521	4521	4521	4521	4521	4521	4521	4521	4521	4521	4521	4521	4521	4521	4521	4521	4521	4521	4463	4463	4463	4463	4521	4521	4521	4521	4521	4521	4521	4521	4521	4521	4521	4463	4521	4521	4521	4463	4521	4521	4521	4521	4521	4521	4521	4521	4521	4521	4521	4521	4521	4521	4581	4581	4581	4581	4581	4581	4521	4521	4521	4521	4521	4521	4581	4581	4581	4581	4581	4581	4521	4581	4521	4581	4581	4581	4581	4581	4581	4581	4581	4581	4581	4521	4581	4521	4521	4521	4521	4581	4581	4581	4581	4581	4581	4581	4581	4581	4581	4581	4581	4581	4581	4581	4581	4581	4521	4581	4581	4581	4581	4521	4521	4521	4521	4463	4463	4521	4521	4406	4406	4406	4463	4463	4350	4296	4296	4296	4296	4243	4243	4243	4243	4243	4243	4243	4243	4243	4296	4243	4243	4296	4243	4243	4192	4192	4192	4192	4192	4192	4192	4192	4243	4243	4243	4243	4243	4243	4243	4296	4296	4296	4243	4243	4243	4243	4243	4243	4243	4192	4192	4243	4243	4243	4243	4243	4243	4243	4192	4142	4142	4142	4142	4192	4192	4192	4192	4142	4142	4142	4142	4142	4192	4192	4192	4243	4243	4296	4350	4350	4406	4463	4463	4521	4521	4521	4521	4706	4771	4771	0	0	0	4838	4838	4838	4838	4838	4838	4838	4838	4838	4906	4906	4906	4838	4838	4771	4771	4771	4771	4771	4771	4706	4771	4771	4771	4771	4771	4771	0	0	0	0	0	0	0	0	0	0	0	0	0	0	0	0	0	0	0	0	0	0	0	0	0	0	0	0	0	0	0	0	0	0	0	0	0	0	0	0	0	0	0	0	0	0	0	0	0	0	0	0	0	0	0	0	0	0	0	0	0	0	0	0	0	0	0	0	0
0	0	0	0	0	0	0	0	0	0	0	0	0	2343	2327	2312	2312	2312	2297	2297	2312	2297	2297	2297	2297	2281	2281	2281	2281	2297	2297	2297	2297	2359	2343	2327	2327	2343	2359	2376	2376	2392	2392	2409	2409	2426	2443	2443	2460	2478	2478	2532	2532	2532	2532	2496	2532	2532	2532	2478	2532	2532	2532	2532	2532	2532	2532	2532	2532	2532	2551	2551	2551	2532	2514	2532	2532	2532	2532	2532	2532	2551	2551	2845	2845	2845	2845	2869	2869	2893	2893	2893	2942	2967	2967	2967	2967	2967	2993	2993	2993	3019	3019	3019	4581	4643	4706	4771	4771	4771	4838	4838	4838	4771	4771	4838	4838	4838	4838	4838	4838	4838	4838	4838	4838	4838	4838	4838	4838	4838	4838	4838	4838	4838	4838	4838	4838	4838	4838	4838	4838	4838	4838	4838	4838	4838	4838	4838	4838	4838	4838	4838	4838	4838	4838	4838	4838	4838	4838	4838	4838	4838	4838	4838	4838	4838	4838	4838	4838	4838	4838	4838	4906	4906	4838	4838	4838	4838	4838	4838	4838	4838	4838	4838	4838	4838	4906	4906	4906	4977	4906	4977	4906	4906	4906	4906	4838	4838	4838	4838	4838	4838	4838	4838	4838	4838	4838	4838	4838	4906	4838	4906	4906	4838	4838	4838	4838	4838	4838	4838	4838	4838	4838	4838	4838	4838	4838	4838	4838	4838	4838	4838	4838	4838	4838	4906	4838	4906	4906	4906	4906	4906	4906	4906	4906	4906	4906	4906	4838	4838	4838	4838	4838	4906	4906	4906	4906	4906	4906	4906	4838	4838	4838	4838	4838	4838	4838	4838	4838	4838	4838	4838	4838	4838	4838	4906	4838	4838	4838	4838	4906	4838	4838	4906	4906	4906	4906	4906	4906	4838	4838	4838	4838	4838	4838	4906	4906	4906	4977	4977	4977	4906	4906	4906	4906	4906	4906	4906	4906	4906	4906	4906	4838	4771	4771	4771	4771	4838	4838	4838	4838	4838	4771	4706	4706	4706	4643	4581	4521	4521	4521	4521	4521	4521	4521	4521	4521	4521	4521	4521	4521	4521	4521	4581	4581	4581	4521	4581	4581	4521	4521	4521	4463	4521	4521	4521	4521	4521	4521	4581	4521	4521	4521	4521	4521	4521	4521	4521	4521	4521	4521	4521	4521	4521	4521	4581	4581	4581	4581	4581	4581	4581	4581	4581	4581	4581	4581	4581	4581	4581	4581	4521	4521	4521	4521	4581	4581	4581	4581	4581	4581	4581	4581	4581	4581	4581	4581	4581	4581	4581	4581	4581	4581	4521	4521	4521	4521	4521	4521	4581	4581	4581	4581	4581	4581	4581	4643	4581	4643	4581	4581	4581	4521	4581	4581	4581	4581	4581	4643	4643	4643	4643	4581	4643	4521	4521	4521	4463	4521	4521	4406	4406	4463	4463	4463	4350	4350	4296	4296	4296	4243	4243	4243	4243	4243	4243	4243	4243	4243	4243	4243	4243	4296	4243	4243	4192	4142	4192	4192	4192	4192	4192	4243	4243	4243	4243	4243	4243	4243	4243	4243	4243	4243	4243	4243	4243	4243	4243	4243	4243	4243	4243	4243	4243	4243	4243	4243	4192	4192	4192	4142	4142	4192	4142	4192	4192	4192	4142	4142	4142	4142	4142	4142	4192	4192	4192	4243	4243	4296	4350	4350	4406	4406	4463	4463	4521	4463	4463	0	0	0	0	0	4838	4838	4838	4838	4838	4838	4838	4838	4838	4838	4906	4906	4906	4838	4906	4838	4838	4771	4771	4771	4706	4706	4771	4771	4771	4771	4771	4838	4838	0	0	0	0	0	0	0	0	0	0	0	0	0	0	0	0	0	0	0	0	0	0	0	0	0	0	0	0	0	0	0	0	0	0	0	0	0	0	0	0	0	0	0	0	0	0	0	0	0	0	0	0	0	0	0	0	0	0	0	0	0	0	0	0	0	0	0	0
0	0	0	0	0	0	0	0	0	0	0	0	0	0	2327	2312	2312	2312	2297	2297	2312	2312	2312	2312	2297	2297	2281	2281	2297	2297	2312	2312	2297	2376	2376	2343	2343	2376	2376	2376	2392	2392	2409	2409	2409	2409	2426	2443	2460	2478	2478	2532	2532	2532	2532	2514	2532	2532	2532	2496	2532	2478	2532	2532	2532	2532	2532	2532	2532	2551	2551	2551	2532	2532	2514	2532	2532	2532	2551	2532	2551	2551	2845	2845	2845	2845	2869	2869	2869	2869	2869	2893	2942	2967	2967	2967	2967	2993	2993	2993	2993	3019	3019	3019	4581	4581	4706	4771	4771	4838	4838	4838	4838	4838	4771	4838	4838	4906	4838	4838	4838	4838	4838	4838	4838	4838	4838	4838	4838	4838	4906	4838	4838	4838	4838	4838	4838	4838	4838	4838	4838	4838	4838	4838	4838	4838	4838	4838	4838	4838	4838	4838	4838	4838	4838	4838	4838	4838	4838	4838	4838	4838	4838	4838	4838	4838	4838	4838	4838	4838	4906	4838	4906	4838	4906	4906	4838	4838	4838	4838	4838	4838	4838	4838	4838	4906	4838	4906	4977	4977	4977	4977	4906	4906	4906	4906	4838	4838	4838	4838	4838	4838	4838	4838	4838	4838	4838	4838	4906	4906	4906	4906	4906	4906	4838	4838	4838	4838	4838	4838	4906	4906	4838	4838	4838	4838	4838	4838	4838	4838	4838	4838	4838	4838	4838	4906	4838	4838	4906	4906	4906	4906	4906	4906	4906	4906	4906	4977	4838	4906	4906	4906	4906	4906	4906	4906	4906	4906	4906	4977	4838	4838	4838	4838	4838	4838	4838	4838	4838	4906	4838	4906	4838	4838	4838	4906	4838	4838	4906	4906	4906	4906	4906	4906	4906	4977	4906	4838	4838	4838	4838	4838	4838	4838	4838	4838	4906	4906	4906	4977	4977	4977	4977	4977	4906	4906	4906	4906	4906	4906	4906	4906	4838	4838	4838	4771	4771	4838	4838	4838	4838	4771	4706	4706	4706	4643	4643	4643	4581	4581	4521	4581	4521	4521	4521	4521	4581	4581	4521	4521	4581	4521	4521	4581	4581	4581	4581	4581	4581	4581	4521	4521	4521	4581	4581	4581	4581	4581	4581	4581	4521	4521	4521	4521	4521	4521	4581	4581	4581	4521	4521	4581	4521	4581	4581	4581	4581	4581	4581	4581	4581	4581	4581	4581	4643	4643	4643	4643	4581	4643	4581	4581	4521	4581	4581	4581	4581	4581	4581	4581	4643	4581	4581	4581	4581	4581	4581	4581	4581	4581	4581	4581	4581	4521	4581	4581	4581	4581	4581	4581	4643	4643	4643	4581	4643	4581	4643	4643	4643	4643	4581	4581	4581	4581	4581	4581	4581	4581	4643	4643	4706	4643	4581	4643	4521	4581	4521	4521	0	0	0	0	4521	4521	4463	4463	4350	4350	4296	4243	4243	4243	4243	4243	4243	4192	4192	4243	4243	4243	4243	4243	4296	4243	4243	4192	4192	4192	4192	4192	4192	4192	4243	4243	4243	4243	4243	4243	4243	4243	4243	4243	4243	4243	4243	4243	4243	4243	4243	4243	4243	4243	4243	4243	4243	4243	4243	4192	4192	4192	4142	4142	4192	4192	4142	4192	4192	4192	4142	4142	4142	4142	4142	4142	4192	4192	4243	4243	4296	4350	4350	4406	4406	4463	4463	4521	4463	4463	0	0	0	0	0	4906	4838	4838	4838	4838	4838	4906	4838	4906	4906	4906	4906	4906	4906	4906	4838	4838	4838	4771	4771	4771	4771	4771	4771	4771	4838	4838	4838	4838	0	0	0	0	0	0	0	0	0	0	0	0	0	0	0	0	0	0	0	0	0	0	0	0	0	0	0	0	0	0	0	0	0	0	0	0	0	0	0	0	0	0	0	0	0	0	0	0	0	0	0	0	0	0	0	0	0	0	0	0	0	0	0	0	0	0	0	0
0	0	0	0	0	0	0	0	0	0	0	0	0	0	2327	2312	2297	2297	2297	2297	2312	2312	2312	2312	2312	2297	2297	2297	2297	2297	2312	2312	2327	2376	2376	2343	2343	2376	2376	2392	2392	2392	2409	2409	2409	2409	2409	2426	2443	2460	2478	2532	2514	2514	2532	2514	2514	2514	2514	2532	2532	2514	2532	2514	2514	2514	2514	2532	2532	2551	2551	2532	2532	2532	2532	2589	2589	2589	2570	2551	2551	2551	2869	2869	2845	2845	2869	2845	2869	2869	2869	2893	2893	2967	2967	2967	2967	2967	2967	2993	2993	2993	3019	3019	4581	4581	4643	4771	4771	4771	4838	4838	4838	4838	4838	4838	4838	4906	4838	4838	4838	4838	4838	4838	4838	4838	4838	4838	4838	4838	4977	4838	4906	4838	4838	4838	4838	4838	4838	4838	4838	4838	4838	4838	4838	4838	4838	4838	4838	4838	4838	4906	4906	4906	4906	4906	4906	4906	4838	4838	4838	4838	4838	4838	4838	4838	4906	4906	4906	4906	4906	4906	4906	4906	4838	4838	4838	4838	4906	4838	4838	4838	4838	4838	4838	4906	4906	4977	4977	4977	4977	4977	4977	4906	4906	4906	4906	4838	4838	4906	4906	4838	4838	4838	4838	4838	4906	4906	4906	4906	4906	4906	4906	4906	4906	4838	4906	4838	4906	4838	4906	4906	4838	4838	4838	4838	4838	4838	4838	4838	4838	4838	4838	4838	4838	4906	4906	4906	4906	4906	4906	4906	4906	4906	4906	4906	4906	4977	4906	4838	4838	4906	4906	4906	4906	4906	4906	4906	4906	4906	4838	4838	4838	4838	4838	4838	4838	4838	4838	4838	4838	4838	4838	4838	4838	4838	4838	4838	4906	4906	4906	4906	4906	4906	4977	4977	4906	4906	4906	4838	4838	4838	4838	4838	4838	4838	4838	4906	4906	4977	4906	4977	4906	4906	4906	4838	4906	4906	4906	4906	4906	4906	4838	4771	4771	4771	4771	4771	4838	4771	4771	4771	4706	4706	4706	4706	4706	4643	4581	4581	4521	4581	4581	4581	4581	4581	4581	4581	4521	4581	4521	4521	4521	4521	4581	4581	4581	4521	4581	4581	4581	4581	4581	4581	4643	4581	4581	4581	4581	4581	4581	4521	4581	4581	4521	4581	4581	4581	4581	4581	4581	4581	4581	4643	4581	4581	4581	4581	4581	4581	4581	4581	4643	4643	4706	4706	4706	4706	4643	4643	4643	4581	4581	4581	4581	4581	4581	4581	4581	4581	4643	4581	4581	4581	4581	4581	4581	4643	4643	4643	4581	4581	4643	4643	4643	4706	4706	4706	4643	4706	4643	4706	4643	4643	4643	4643	4643	4643	4643	4643	4643	4643	4643	4643	4643	4581	4581	4643	4643	4643	4706	4643	4643	4643	4643	4581	4581	4521	0	0	0	0	4521	4463	4463	4463	4463	4350	4296	4296	4296	4243	4243	4243	4192	4192	4192	4192	4192	4243	4243	4243	4296	4243	4243	4243	4243	4192	4192	4192	4192	4243	4192	4243	4243	4243	4243	4243	4243	4243	4243	4243	4243	4243	4243	4192	4243	4243	4243	4243	4243	4243	4243	4243	4243	4243	4243	4243	4192	4192	4142	4192	4192	4192	4192	4192	4192	4192	4142	4142	4142	4142	4142	4142	4192	4243	4243	4296	4296	4350	4350	4350	4406	4463	4463	4521	4521	4463	0	0	0	0	0	4906	4906	4906	4838	4906	4906	4906	4906	4838	4906	4977	4906	4906	4906	4906	4906	4906	4906	4838	4838	4771	4771	4771	4838	4838	4838	4906	4906	4977	4977	0	0	0	0	0	0	0	0	0	0	0	0	0	0	0	0	0	0	0	0	0	0	0	0	0	0	0	0	0	0	0	0	0	0	0	0	0	0	0	0	0	0	0	0	0	0	0	0	0	0	0	0	0	0	0	0	0	0	0	0	0	0	0	0	0	0	0
0	0	0	0	0	0	0	0	0	0	0	0	0	0	0	2312	2297	2312	2297	2312	2312	2312	2312	2327	2312	2297	2297	2297	2297	0	0	2392	2392	2392	2376	2376	2376	2376	2392	2392	2392	2409	2409	2409	2409	2409	2409	2426	2460	2460	2532	2532	2514	2514	2532	2514	2514	2514	2514	2514	2496	2478	2532	2514	2514	2532	2532	2532	2532	2551	2551	2532	2532	2532	2532	2532	2551	2589	2551	2551	2570	2570	2869	2869	2845	2845	2822	2845	2869	2869	2869	2893	2893	2942	2942	2967	2967	2993	2993	2993	2993	3019	3019	3019	4521	4581	4581	4706	4771	4771	4838	4838	4838	4838	4838	4838	4906	4838	4906	4838	4906	4906	4906	4838	4838	4838	4838	4838	4838	4838	4977	4906	4906	4906	4838	4838	4838	4838	4838	4838	4838	4838	4838	4838	4838	4838	4838	4838	4838	4838	4838	4906	4906	4977	4977	4906	4906	4906	4906	4838	4838	4838	4838	4838	4838	4838	4906	4906	4906	4906	4906	4906	4906	4838	4838	4838	4906	4906	4906	4906	4838	4906	4838	4906	4838	4906	4906	4977	4977	4977	4977	4977	4977	4906	4906	4906	4906	4838	4838	4906	4906	4906	4906	4906	4906	4838	4838	4838	4906	4906	4906	4906	4977	4906	4906	4838	4906	4838	4838	4838	4838	4838	4838	4838	4838	4838	4838	4838	4838	4838	4838	4838	4838	4906	4906	4906	4906	4906	4906	4906	4906	4906	4906	4906	4906	4906	4906	4906	4838	4838	4906	4906	4906	4906	4906	4906	4906	4906	4906	4838	4838	4838	4838	4838	4838	4838	4838	4838	4838	4838	4838	4906	4838	4838	4906	4906	4906	4838	4906	4906	4977	4906	4906	4906	4906	4977	4906	4906	4906	4838	4838	4838	4838	4838	4838	4838	4906	4906	4906	4906	4906	4906	4906	4906	4906	4838	4906	4906	4906	4838	4838	4838	4838	4771	4771	4771	4771	4771	4771	4771	4771	4771	4706	4706	4706	4706	4706	4643	4643	4581	4581	4643	4581	4581	4581	4581	4581	4581	4521	4521	4581	4521	4581	4581	4581	4581	4581	4581	4643	4643	4581	4581	4581	4643	4643	4643	4581	4643	4581	4581	4643	4581	4581	4581	4581	4581	4581	4643	4581	4581	4643	4643	4581	4643	4643	4643	4643	4643	4643	4643	4643	4643	4643	4643	4706	4706	4706	4706	4643	4643	4643	4581	4581	4581	4581	4581	4581	4581	4643	4643	4643	4581	4581	4643	4643	4581	4643	4643	4643	4643	4643	4643	4643	4643	4643	4706	4706	4706	4643	4706	4706	4706	4706	4643	4706	4706	4643	4643	4706	4643	4643	4643	4643	4643	4643	4643	4706	4643	4706	4706	4706	4706	4643	4643	4643	4581	4581	0	0	0	0	4521	4521	4521	4521	4463	4463	4350	4296	4296	4296	4243	4192	4243	4243	4192	4192	4243	4243	4296	4296	4296	4296	4243	4243	4243	4243	4243	4192	4192	4192	4192	4192	4243	4243	4243	4243	4243	4243	4243	4243	4243	4243	4243	4243	4243	4243	4243	4243	4243	4243	4243	4243	4243	4243	4243	4243	4243	4192	4243	4142	4142	4243	4142	4243	4192	4192	4192	4192	4192	4192	4142	4142	4142	4142	4192	4243	4243	4243	4350	4350	4350	4406	4406	4463	4521	4521	0	0	0	0	4977	4977	4977	4977	4906	4906	4906	4906	4977	4906	4906	4906	4977	4906	4906	4906	4906	4906	4906	4906	4838	4838	4838	4838	4838	4838	4838	4838	4906	4906	4906	4906	0	0	0	0	0	0	0	0	0	0	0	0	0	0	0	0	0	0	0	0	0	0	0	0	0	0	0	0	0	0	0	0	0	0	0	0	0	0	0	0	0	0	0	0	0	0	0	0	0	0	0	0	0	0	0	0	0	0	0	0	0	0	0	0	0	0	0
0	0	0	0	0	0	0	0	0	0	1181	1181	0	0	0	2312	2297	2312	2312	2312	2312	2312	2312	2327	2312	2312	2312	2312	2312	0	0	2392	2392	2392	2392	2392	2392	2376	2392	2392	2392	2409	2409	2409	2409	2409	2409	2409	2460	2460	2514	2532	2532	2532	2514	2496	2496	2496	2496	2496	2478	2478	2478	2478	2496	2532	2514	2532	2532	2551	2532	2532	2532	2532	2532	2551	2589	2589	2570	2570	2570	2799	2845	2845	2822	2822	2822	2822	2869	2869	2869	2893	2893	2942	2917	2967	2967	2967	2967	2993	2993	2993	2993	2993	4521	4581	4581	4706	4706	4771	4771	4838	4838	4838	4838	4838	4906	4906	4838	4838	4838	4838	4838	4838	4838	4838	4838	4838	4838	4838	4838	4977	4906	4906	4838	4838	4838	4838	4838	4838	4838	4838	4838	4838	4838	4838	4838	4838	4838	4838	4838	4838	4906	4906	4906	4838	4906	4906	4838	4838	4838	4838	4838	4838	4838	4838	4906	4906	4906	4906	4906	4906	4906	4906	4906	4906	4906	4906	4906	4838	4838	4838	4838	4906	4906	4906	4906	4906	4977	4977	4977	4977	4906	4906	4906	4906	4838	4838	4838	4838	4906	4906	4838	4838	4838	4838	4838	4838	4906	4906	4906	4906	4906	4906	4838	4838	4906	4838	4838	4838	4838	4838	4838	4838	4838	4838	4838	4838	4838	4838	4838	4838	4838	4906	4906	4906	4906	4906	4906	4906	4906	4906	4906	4906	4838	4838	4838	4906	4838	4838	4906	4906	4906	4906	4906	4906	4906	4906	4906	4838	4838	4838	4838	4771	4838	4838	4838	4838	4838	4906	4838	4906	4906	4838	4906	4906	4906	4906	4906	4906	4906	4906	4977	4906	4906	4977	4906	4906	4838	4838	4838	4838	4838	4838	4838	4838	4906	4906	4906	4906	4906	4906	4906	4906	4906	4838	4838	4838	4838	4838	4838	4838	4771	4771	4838	4771	4771	4771	4771	4771	4771	4771	4771	4706	4706	4706	4706	4643	4643	4643	4643	4643	4581	4581	4581	4581	4581	4581	4581	4581	4643	4581	4643	4643	4643	4643	4643	4643	4643	4643	4643	4643	4643	4643	4643	4643	4581	4643	4581	4581	4581	4581	4581	4581	4581	4643	4643	4643	4643	4643	4706	4706	4643	4706	4643	4643	4643	4643	4643	4643	4643	4643	4706	4706	4706	4706	4706	4706	4643	4643	4643	4581	4581	4581	4643	4581	4643	4643	4643	4643	4643	4643	4643	4643	4643	4643	4643	4643	4706	4706	4643	4643	4706	4706	4706	4706	4706	4706	4706	4771	4771	4706	4706	4706	4706	4706	4706	4706	4706	4706	4706	4643	4706	4706	4706	4706	4706	4706	4706	4706	4706	4706	4706	4643	4643	4643	4643	0	0	0	0	4521	4521	4521	4521	4521	4463	4406	4350	4296	4296	4243	4192	4192	4192	4243	4243	4243	4243	4243	4296	4243	4243	4243	4243	4243	4243	4243	4243	4243	4243	4243	4243	4243	4243	4243	4243	4243	4243	4243	4243	4243	4243	4243	4243	4243	4243	4243	4243	4243	4243	4243	4243	4243	4243	4243	4243	4192	4192	4243	4142	4142	4243	4192	4243	4192	4192	4192	4192	4192	4192	4192	4192	4142	4142	4243	4243	4243	4243	4350	4350	4350	4350	4406	4406	4463	4521	4521	0	4906	4906	4977	4977	4977	4977	4977	4977	4977	4977	5050	4977	4977	4977	4977	4977	4977	4906	4906	4906	4906	4977	4906	4906	4906	4906	4906	4906	4906	4906	4906	4906	4977	4977	4977	0	0	0	0	0	0	0	0	0	0	0	0	0	0	0	0	0	0	0	0	0	0	0	0	0	0	0	0	0	0	0	0	0	0	0	0	0	0	0	0	0	0	0	0	0	0	0	0	0	0	0	0	0	0	0	0	0	0	0	0	0	0	0	0	0	0
0	0	0	0	0	0	0	1181	1181	1185	1181	1181	1185	1185	1185	0	0	2312	2312	2312	2343	2343	2343	2343	2343	2343	2343	2312	2312	0	0	0	2409	2409	2409	2392	2392	2392	2392	2392	2392	2409	2409	2409	2409	2409	2409	2409	2460	2443	2514	2532	2532	2514	2496	2496	2496	2496	2496	2478	2478	2478	2496	2478	2496	2532	2514	2532	2532	2551	2551	2532	2532	2551	2551	2551	2589	2570	2570	2570	2570	2799	2799	2822	2822	2822	2822	2822	2869	2869	2869	2893	2893	2942	2917	2967	2967	2967	2967	2993	2993	2993	2993	2993	4521	4706	4706	4706	4706	4771	4771	4771	4838	4838	4838	4838	4838	4838	4838	4838	4838	4838	4838	4838	4838	4838	4838	4838	4838	4838	5050	4977	4977	4906	4906	4838	4838	4838	4838	4838	4838	4838	4838	4771	4771	4838	4838	4838	4838	4838	4906	4906	4906	4906	4906	4838	4906	4906	4838	4906	4838	4838	4838	4838	4838	4906	4906	4906	4906	4906	4906	4906	4906	4906	4906	4838	4906	4906	4838	4838	4838	4838	4906	4906	4906	4906	4977	4906	4977	4977	4977	4977	4906	4906	4906	4838	4838	4838	4838	4838	4838	4838	4838	4838	4838	4838	4838	4906	4906	4906	4906	4906	4906	4906	4838	4838	4906	4906	4838	4838	4838	4838	4838	4838	4838	4838	4838	4838	4838	4838	4838	4838	4838	4906	4906	4906	4977	4906	4906	4906	4906	4906	4838	4838	4838	4838	4838	4906	4838	4838	4838	4906	4906	4906	4906	4906	4838	4838	4838	4838	4838	4838	4838	4771	4838	4838	4838	4838	4838	4838	4838	4906	4906	4838	4906	4906	4906	4838	4906	4906	4906	4906	4906	4906	4906	4906	4906	4906	4838	4838	4838	4838	4838	4838	4838	4838	4838	4906	4906	4906	4906	4906	4906	4906	4838	4838	4838	4838	4838	4838	4838	4838	4771	4771	4771	4771	4771	4771	4771	4771	4771	4771	4771	4706	4706	4706	4706	4643	4643	4581	4581	4643	4581	4581	4581	4643	4581	4643	4643	4643	4706	4643	4643	4643	4643	4643	4643	4643	4643	4706	4643	4706	4706	4706	4706	4643	4643	4643	4581	4581	4581	4581	4581	4581	4581	4643	4643	4706	4706	4643	4706	4706	4706	4706	4643	4643	4643	4643	4643	4643	4643	4643	4643	4706	4706	4706	4643	4706	4643	4706	4643	4643	4643	4643	4643	4643	4643	4643	4643	4643	4706	4706	4643	4706	4706	4706	4706	4706	4706	4706	4706	4706	4706	4706	4706	4771	4771	4771	4706	4771	4771	4771	4771	4706	4706	4706	4706	4706	4706	4706	4706	4706	4706	4771	4771	4706	4706	4706	4706	4706	4706	4706	4706	4706	4643	4643	4643	0	0	0	0	4521	4521	4521	4521	4521	4463	4406	4350	4296	4243	4243	4192	4192	4243	4243	4243	4243	4243	4296	4296	4243	4243	4243	4243	4243	4243	4243	4243	4243	4243	4243	4243	4243	4243	4243	4243	4243	4243	4243	4243	4243	4243	4243	4243	4192	4243	4243	4243	4243	4243	4243	4243	4243	4192	4243	4243	4243	4243	4243	4142	4142	4243	4192	4243	4243	4192	4142	4142	4192	4142	4142	4142	4142	4142	4192	4243	4243	4296	4296	4296	4350	4350	4350	4406	4406	4463	4463	0	4906	4906	4977	4977	5050	5050	4977	5050	5050	5050	5050	5050	4977	4977	4977	4977	4977	4977	4977	4906	4977	4977	4906	4906	4906	4906	4977	4977	4977	4906	4977	4906	4977	4977	4977	0	0	0	0	0	0	0	0	0	0	0	0	0	0	0	0	0	0	0	0	0	0	0	0	0	0	0	0	0	0	0	0	0	0	0	0	0	0	0	0	0	0	0	0	0	0	0	0	0	0	0	0	0	0	0	0	0	0	0	0	0	0	0	0	0	0
0	0	0	0	0	0	1185	1185	1185	1185	1185	1185	1185	1185	1185	0	0	0	0	0	2343	2343	2343	2343	2343	2343	2376	2376	0	0	0	0	2409	2409	2409	2392	2392	2392	2392	2392	2392	2409	2409	2409	2409	2409	2409	2426	2426	2443	2478	2496	2478	2514	2496	2496	2496	2496	2478	2478	2478	2478	2478	2478	2478	2496	2496	2496	2551	2551	2551	2532	2532	2551	2551	2551	2589	2570	2570	2570	2570	2799	2799	2822	2822	2822	2822	2822	2822	2967	2942	2942	2942	2967	2967	2967	2967	2993	2993	2993	2993	2993	2993	2993	0	4706	4706	4706	4706	4706	4771	4771	4771	4771	4838	4838	4838	4771	4771	4838	4838	4838	4838	4838	4838	4838	4838	4977	5050	5050	4906	4838	4838	4906	4838	4838	4838	4838	4838	4838	4838	4838	4838	4838	4838	4838	4838	4906	4906	4906	4906	4906	4906	4906	4906	4906	4906	4906	4906	4906	4906	4838	4838	4838	4906	4906	4906	4906	4906	4906	4977	4906	4906	4906	4906	4906	4838	4838	4906	4838	4906	4906	4906	4906	4906	4906	4977	4906	4977	4977	4977	4977	4906	4906	4906	4906	4906	4838	4838	4906	4906	4906	4906	4906	4906	4906	4906	4906	4906	4906	4906	4906	4906	4906	4838	4838	4906	4906	4838	4838	4838	4838	4838	4838	4838	4838	4838	4838	4838	4838	4838	4838	4838	4906	4906	4906	4906	4906	4906	4906	4838	4906	4838	4838	4838	4838	4838	4838	4838	4838	4906	4906	4838	4906	4906	4838	4838	4838	4838	4838	4838	4838	4838	4838	4838	4838	4838	4838	4838	4906	4906	4838	4906	4838	4906	4906	4906	4838	4838	4838	4838	4838	4906	4906	4906	4906	4906	4906	4838	4838	4838	4838	4838	4838	4838	4838	4838	4838	4906	4906	4906	4906	4906	4838	4838	4838	4838	4838	4838	4838	4838	4838	4771	4771	4771	4771	4771	4771	4771	4771	4771	4771	4771	4706	4706	4706	4706	4643	4581	4581	4581	4581	4581	4581	4581	4643	4643	4643	4643	4643	4706	4643	4643	4643	4643	4643	4643	4643	4643	4706	4643	4643	4643	4706	4643	4643	4643	4643	4581	4581	4581	4581	4581	4581	4581	4581	4706	4706	4706	4643	4643	4706	4643	4706	4643	4706	4706	4706	4706	4706	4706	4706	4706	4706	4706	4706	4706	4706	4706	4706	4706	4706	4706	4643	4643	4643	4643	4706	4706	4706	4706	4706	4706	4706	4706	4706	4706	4706	4706	4706	4706	4706	4706	4706	4706	4706	4771	4771	4771	4771	4771	4771	4771	4706	4706	4706	4706	4706	4706	4706	4706	4706	4771	4771	4771	4771	4771	4706	4706	4706	4706	4706	4706	4706	4706	4706	4706	0	0	0	0	4521	4521	4521	4521	4521	4463	4406	4350	4296	4296	4243	4243	4243	4243	4243	4243	4243	4243	4243	4243	4243	4243	4243	4243	4243	4243	4243	4243	4243	4243	4243	4192	4243	4243	4243	4243	4243	4243	4243	4243	4243	4243	4243	4243	4243	4243	4243	4243	4243	4192	4192	4192	4192	4192	4243	4192	4243	4192	4243	4243	4243	4243	4192	4243	4243	4192	4142	4142	4192	4142	4142	4142	4142	4142	4243	4243	4243	4296	4296	4296	4296	4296	4296	4350	4406	4463	4463	4771	4906	4906	4977	4977	4977	4977	5050	5050	5050	4977	5050	4977	4977	4977	4977	4977	4977	4977	4977	4906	4977	4977	4977	4977	4977	4977	4977	4977	4977	4977	4977	4977	4977	4977	4977	4977	4977	0	0	0	0	0	0	0	0	0	0	0	0	0	0	0	0	0	0	0	0	0	0	0	0	0	0	0	0	0	0	0	0	0	0	0	0	0	0	0	0	0	0	0	0	0	0	0	0	0	0	0	0	0	0	0	0	0	0	0	0	0	0	0	0
0	0	0	0	0	0	1185	1185	1185	1185	1185	1185	1185	1214	1219	1223	1223	0	0	0	0	0	2376	2376	2359	2409	2376	2392	2409	2409	2409	2409	2392	2392	2409	2392	2392	2392	2392	2392	2392	2409	2409	2409	2409	2409	2409	2409	2426	2443	2478	2496	2514	2496	2514	2514	2514	2514	2496	2496	2496	2496	2496	2478	2478	2496	2496	2496	2532	2532	2532	2532	2532	2551	2551	2551	2609	2609	2589	2589	2589	2589	2799	2799	2822	2822	2822	2822	2822	2967	2967	2967	2967	2967	2967	2993	2993	2993	2993	2993	2993	2967	2967	2967	0	0	4706	4706	4706	4706	4771	4771	4771	4771	4771	4838	4838	4771	4838	4838	4838	4838	4771	4838	4838	4838	4838	4838	4838	5050	4838	4838	4977	4906	4906	4906	4906	4906	4906	4838	4838	4838	4838	4838	4838	4838	4838	4838	4838	4838	4838	4838	4906	4906	4906	4906	4906	4906	4906	4906	4977	4906	4906	4838	4906	4906	4906	4906	4906	4906	4977	4906	4906	4906	4906	4906	4838	4838	4838	4906	4906	4906	4906	4906	4906	4977	4977	4977	4977	4977	4977	4977	4906	4906	4906	4906	4906	4838	4838	4906	4906	4906	4906	4906	4906	4906	4906	4977	4977	4906	4906	4906	4906	4906	4838	4838	4906	4838	4906	4838	4838	4838	4838	4838	4838	4838	4906	4906	4906	4906	4906	4838	4838	4906	4906	4906	4906	4906	4906	4906	4906	4906	4838	4838	4838	4838	4906	4838	4906	4906	4906	4838	4838	4838	4838	4838	4838	4838	4838	4838	4838	4838	4838	4838	4838	4838	4838	4906	4906	4906	4906	4906	4906	4906	4906	4906	4906	4906	4838	4838	4838	4838	4906	4906	4906	4906	4906	4906	4838	4838	4838	4838	4838	4838	4838	4838	4838	4838	4906	4906	4906	4838	4906	4838	4838	4838	4838	4838	4838	4838	4838	4838	4771	4771	4771	4771	4771	4771	4771	4771	4771	4771	4771	4706	4706	4643	4643	4581	4581	4521	4521	4581	4581	4581	4643	4643	4643	4643	4643	4643	4706	4706	4706	4643	4643	4643	4643	4643	4643	4706	4706	4706	4706	4706	4706	4706	4706	4643	4643	4643	4643	4643	4643	4643	4643	4643	4706	4706	4706	4706	4643	4706	4706	4706	4706	4706	4706	4706	4706	4706	4706	4706	4706	4706	4706	4706	4643	4706	4706	4706	4706	4706	4706	4706	4643	4643	4706	4706	4706	4706	4706	4706	4706	4706	4706	4706	4771	4706	4706	4706	4706	4706	4706	4771	4771	4771	4771	4771	4771	4771	4771	4771	4771	4706	4706	4706	4706	4706	4706	4771	4706	4706	4771	4771	4771	4771	4771	4771	4706	4706	4706	4706	4706	4706	4706	4706	4706	0	0	0	0	4521	4521	4521	4521	4521	4463	4350	4350	4296	4296	4243	4243	4243	4243	4243	4243	4243	4243	4243	4243	4243	4243	4243	4243	4243	4243	4243	4243	4243	4243	4243	4243	4243	4243	4243	4243	4243	4243	4243	4243	4243	4243	4243	4243	4243	4243	4243	4243	4192	4243	4192	4192	4192	4192	4243	4192	4243	4243	4093	4243	4243	4243	4142	4243	4192	4192	4142	4142	4192	4142	4142	4142	4243	4142	4243	4243	4296	4296	4296	4296	4296	4296	4350	4406	4406	4406	4771	4771	4906	4977	4977	5050	5050	5050	5050	5050	5050	5050	5050	5050	4977	4977	4977	4977	4977	4977	4977	4977	4977	4977	4977	4977	4977	4977	4977	4977	4977	4977	4977	4977	4977	5050	5050	5125	5125	5125	0	0	0	0	0	0	0	0	0	0	0	0	0	0	0	0	0	0	0	0	0	0	0	0	0	0	0	0	0	0	0	0	0	0	0	0	0	0	0	0	0	0	0	0	0	0	0	0	0	0	0	0	0	0	0	0	0	0	0	0	0	0	0
0	0	0	0	0	0	1181	1185	1185	1185	1185	1189	1206	1214	1219	1223	1223	1223	0	0	0	0	2376	2392	2392	2478	2460	2460	2460	2443	2443	2409	2409	2409	2409	2392	2392	2392	2392	2409	2409	2409	2426	2426	2409	2426	2426	2426	2426	2443	2478	2514	2514	2532	2532	2532	2532	2532	2514	2496	2496	2496	2496	2496	2496	2496	2496	2514	2551	2551	2551	2532	2532	2551	2551	2570	2570	2589	2589	2609	2609	2777	2799	2799	2799	2799	2799	2869	2869	2893	2893	2893	2967	2967	2993	2993	2993	2993	2993	2993	2993	2993	2993	2993	4706	4706	4706	4706	4706	4771	4771	4771	4771	4771	4838	4838	4838	4771	4838	4838	4838	4838	4771	4838	4838	4838	4838	4838	4838	4838	4838	4838	4838	4906	4906	4906	4906	4906	4906	4906	4838	4838	4838	4838	4838	4838	4838	4838	4906	4906	4906	4906	4906	4906	4977	4906	4906	4906	4977	4906	4977	4906	4906	4906	4906	4906	4906	4906	4906	4906	4977	4977	4906	4906	4906	4906	4838	4838	4838	4838	4906	4838	4906	4906	4906	4906	4977	4977	4977	4977	4977	4977	4906	4906	4906	4906	4906	4838	4906	4906	4906	4906	4906	4906	4977	4977	4906	4977	4906	4906	4906	4906	4906	4838	4906	4906	4906	4838	4838	4838	4838	4838	4838	4838	4838	4838	4838	4906	4838	4838	4838	4838	4838	4906	4838	4906	4906	4906	4906	4906	4906	4906	4906	4906	4906	4838	4906	4838	4906	4838	4838	4838	4838	4838	4838	4838	4838	4771	4838	4838	4838	4838	4838	4838	4838	4838	4838	4906	4906	4906	4838	4906	4906	4906	4906	4906	4906	4906	4838	4838	4838	4838	4838	4838	4838	4906	4906	4906	4906	4838	4838	4838	4838	4838	4838	4838	4838	4838	4838	4838	4838	4838	4906	4838	4771	4838	4838	4838	4838	4838	4838	4838	4771	4771	4771	4771	4771	4771	4771	4771	4771	4771	4771	4706	4706	4706	4643	4581	4581	4463	4521	4581	4581	4643	4643	4643	4643	4643	4643	4706	4706	4706	4706	4706	4643	4643	4643	4706	4706	4706	4706	4706	4706	4643	4706	4706	4706	4706	4706	4706	4706	4706	4643	4643	4643	4643	0	4706	4706	4706	4643	4706	4706	4706	4706	4771	4771	4771	4706	4706	4706	4706	4706	4706	4706	4706	4706	4706	4643	4643	4643	4643	4706	4706	4706	4706	4706	4771	4771	4706	4706	4706	4706	4706	4706	4771	4771	4771	4771	4771	4706	4706	4771	4771	4771	4771	4771	4771	4771	4771	4771	4771	4771	4771	4771	4771	4771	4771	4771	4771	4771	4771	4771	4838	4771	4771	4771	4771	4706	4706	4706	4706	4643	4643	4706	4706	4706	0	0	0	4521	4521	4521	4521	4521	4521	4463	4350	4350	4296	4296	4296	4243	4243	4296	4243	4243	4243	4243	4243	4243	4243	4243	4243	4243	4243	4243	4243	4243	4243	4243	4243	4243	4243	4243	4243	4243	4243	4243	4243	4243	4243	4243	4243	4243	4243	4192	4192	4243	4192	4243	4192	4243	4192	4192	4243	4192	4243	4243	4093	4093	4093	4093	4142	4142	4142	4142	4142	4192	4192	4142	4192	4192	4192	4142	4243	4296	4296	4296	4296	4296	4296	4296	4350	4350	4406	4406	4406	4706	4906	4977	5050	5050	5050	5050	5050	5050	5050	5050	5050	5050	5050	4977	4977	4977	4977	4977	4977	4977	4977	4977	4977	4977	4977	4977	4977	4977	4977	4977	4977	4977	5050	5050	5050	5125	5125	5202	5202	0	0	0	0	0	0	0	0	0	0	0	0	0	0	0	0	0	0	0	0	0	0	0	0	0	0	0	0	0	0	0	0	0	0	0	0	0	0	0	0	0	0	0	0	0	0	0	0	0	0	0	0	0	0	0	0	0	0	0	0	0	0
0	0	0	0	0	0	1185	1185	1181	1181	1185	1189	1206	1206	1214	1219	1219	1227	1227	1227	0	0	0	2392	2478	2478	2460	2460	2443	2443	2443	2409	2409	2409	2409	2392	2392	2409	2409	2409	2409	2409	2409	2409	2409	2409	2426	2426	2426	2460	2460	2514	2514	2532	2532	2514	2514	2514	2496	2496	2496	2496	2496	2496	2478	2478	2496	2496	2496	2514	2514	2532	2532	2551	2551	2589	2609	2609	2629	2629	2629	2777	2799	2799	2822	2822	2822	2869	2869	2893	2893	2967	2917	2967	2993	2993	3019	3019	3019	3019	2993	2993	2993	2993	4706	4706	4706	4771	4706	4771	4771	4771	4771	4838	4838	4838	4838	4838	4838	4838	4838	4838	4838	4838	4838	4838	4838	4838	4838	4838	4838	4838	4838	4906	4906	4906	4906	4906	4906	4906	4838	4838	4838	4838	4838	4838	4838	4838	4906	4906	4906	4906	4906	4906	4977	4977	4906	4906	4906	4977	4977	4906	4906	4906	4906	4906	4906	4906	4906	4977	4977	4977	4906	4906	4906	4838	4838	4838	4838	4838	4838	4838	4906	4906	4906	4977	4977	4977	4977	4977	4906	4906	4906	4906	4906	4906	4906	4838	4906	4906	4906	4906	4977	4977	4977	4977	4977	4977	4977	4906	4906	4906	4906	4906	4906	4906	4906	4838	4838	4838	4838	4838	4838	4838	4838	4838	4838	4906	4838	4838	4906	4838	4838	4906	4838	4906	4906	4906	4906	4906	4906	4906	4906	4906	4906	4838	4906	4838	4906	4838	4838	4838	4838	4838	4838	4838	4838	4771	4771	4838	4838	4838	4838	4838	4838	4838	4838	4838	4906	4906	4906	4906	4906	4906	4906	4906	4906	4906	4838	4838	4838	4838	4838	4838	4838	4906	4906	4906	4906	4838	4838	4838	4838	4838	4838	4838	4838	4838	4838	4838	4838	4838	4838	4771	4771	4771	4771	4838	4838	4838	4838	4838	4771	4771	4771	4771	4771	4706	4771	4771	4771	4771	4771	4771	4706	4706	4706	4643	4581	4406	4463	4581	4706	4643	4643	4643	4643	4706	4706	4706	4706	4706	4706	4706	4706	4706	4706	4706	4706	4706	4706	4706	4706	4643	4706	4706	4706	4706	4706	4706	4706	4706	0	0	0	0	0	0	4706	4706	4643	4706	4706	4706	4706	4771	4771	4771	4771	4771	4706	4771	4771	4706	4706	4706	4706	4706	4706	4643	4706	4706	4706	4706	4706	4706	4771	4771	4771	4771	4706	4706	4706	4771	4771	4771	4771	4771	4771	4771	4771	4771	4706	4771	4771	4771	4706	4706	4771	4771	4771	4771	4771	4771	4771	4771	4771	4771	4771	4771	4771	4838	4838	4838	4838	4771	4771	4771	4771	4706	4706	4643	4581	4581	0	0	0	0	0	0	4521	4521	4521	4521	4521	4463	4463	4350	4296	4296	4296	4243	4243	4243	4243	4243	4243	4243	4243	4243	4243	4243	4243	4243	4243	4243	4243	4243	4243	4243	4243	4243	4243	4243	4243	4243	4243	4243	4243	4243	4243	4243	4243	4243	4243	4192	4192	4192	4192	4192	4243	4192	4192	4192	4192	4192	4192	4243	4192	4192	4192	4093	4093	4142	4142	4142	4192	4142	4142	4142	4142	4192	4192	4192	4142	4243	4243	4296	4243	4296	4296	4296	4296	4350	4406	4406	4463	4463	4581	4771	4906	5050	5050	5050	5050	5050	5050	5050	5050	5050	5050	4977	4977	4977	4906	4906	4906	4906	4977	4977	4977	4977	4977	4977	4977	4977	4977	5050	5050	5050	5050	5050	5050	5050	5125	5202	5202	5202	0	0	0	0	0	0	0	0	0	0	0	0	0	0	0	0	0	0	0	0	0	0	0	0	0	0	0	0	0	0	0	0	0	0	0	0	0	0	0	0	0	0	0	0	0	0	0	0	0	0	0	0	0	0	0	0	0	0	0	0	0	0
0	0	0	0	0	0	1185	1181	1181	1185	1185	1193	1210	1210	1214	1219	1219	1227	1227	1227	1227	0	0	0	2478	2478	2460	2443	2443	2409	2409	2409	2409	2409	2426	2409	2409	2426	2426	2409	2409	2409	2426	2426	2426	2426	2478	2478	2478	2496	2514	2514	2514	2532	2532	2551	2496	2496	2496	2496	2496	2496	2496	2496	2478	2551	2496	2514	2514	2514	2532	2532	2551	2570	2609	2609	2609	2649	2649	2649	2629	2777	2777	2799	2799	2799	2822	2869	2869	2893	2893	2967	2967	2993	2993	3019	3019	3019	3019	3019	2993	2993	2967	2967	4706	4706	4706	4706	4706	4771	4771	4838	4771	4838	4838	4838	4838	4838	4771	4838	4838	4838	4838	4838	4838	4838	4838	4838	4838	4838	4838	4906	4838	4906	4906	4906	4906	4906	4906	4906	4838	4838	4838	4838	4838	4838	4838	4838	4906	4906	4906	4906	4906	4906	4977	4906	4906	4906	4906	4906	4977	4906	4906	4906	4977	4906	4906	4906	4906	4906	4977	4906	4838	4906	4838	4838	4838	4838	4838	4838	4838	4838	4838	4838	4906	4906	4977	4977	4977	4977	4906	4906	4906	4838	4838	4838	4838	4838	4838	4906	4906	4906	4977	4977	4977	4977	4977	4977	4977	4906	4906	4977	4977	4906	4906	4906	4906	4906	4838	4838	4838	4838	4838	4838	4838	4906	4838	4838	4838	4838	4838	4838	4838	4906	4838	4838	4906	4906	4906	4906	4906	4906	4906	4906	4906	4906	4906	4906	4906	4838	4838	4838	4838	4838	4838	4838	4838	4838	4838	4838	4838	4838	4838	4838	4838	4838	4838	4906	4906	4906	4906	4906	4906	4906	4906	4906	4906	4906	4906	4838	4838	4838	4906	4906	4838	4838	4838	4838	4838	4906	4838	4838	4838	4838	4838	4838	4838	4838	4838	4838	4838	4838	4838	4838	4771	4771	4771	4838	4838	4838	4838	4906	4771	4771	4771	4771	4771	4771	4771	4771	4771	4771	4771	4771	4706	4706	4706	4643	4643	4643	4706	4706	4706	4706	4643	4643	4706	4706	4706	4706	4706	4706	4706	4706	4706	4706	4706	4706	4706	4706	4706	4706	4706	4706	4706	4706	4706	4706	4706	4706	4706	0	0	0	0	0	0	0	4706	4706	4643	4706	4706	4706	4706	4771	4771	4771	4771	4771	4771	4771	4771	4771	4706	4706	4706	4771	4706	4706	4706	4771	4771	4771	4771	4771	4771	4771	4838	4771	4771	4771	4771	4771	4771	4771	4771	4771	4771	4771	4771	4771	4706	4771	4771	4706	4706	4771	4706	4771	4771	4771	4771	4771	4771	4771	4771	4771	4771	4771	4771	4838	4838	4838	4771	4771	4771	4771	4771	4771	4706	4771	4581	4581	0	0	0	0	0	0	4521	4521	4521	4521	4463	4463	4406	4296	4296	4296	4296	4243	4243	4243	4243	4243	4243	4243	4243	4243	4243	4243	4243	4243	4243	4243	4243	4243	4243	4243	4243	4243	4243	4243	4243	4243	4243	4243	4243	4243	4243	4243	4243	4243	4243	4243	4192	4192	4192	4192	4192	4192	4192	4142	4192	4192	4192	4192	4192	4142	4142	4142	4142	4142	4142	4142	4192	4142	4192	4192	4192	4192	4192	4192	4192	4243	4243	4243	4243	4296	4296	4350	4296	4350	4406	4406	4406	4406	4977	4977	4977	5050	5050	5050	5050	5050	5050	5050	5050	5050	5050	5050	4977	4977	4906	4977	4906	4906	5050	5050	5050	5050	5050	5050	5050	5050	5050	5050	5050	5050	5050	5050	5050	5050	5125	5202	5202	0	0	0	0	0	0	0	0	0	0	0	0	0	0	0	0	0	0	0	0	0	0	0	0	0	0	0	0	0	0	0	0	0	0	0	0	0	0	0	0	0	0	0	0	0	0	0	0	0	0	0	0	0	0	0	0	0	0	0	0	0	0	0
0	0	0	0	0	0	0	1181	1177	1185	1189	1197	1206	1206	1214	1219	1223	1223	1227	1223	1227	1227	0	0	0	0	2460	2392	2392	2392	2409	2409	2409	2409	2426	2426	2426	2426	2409	2409	2409	2409	2426	2409	2426	2426	2443	2478	2478	2443	2514	2514	2514	2532	2551	2551	2514	2496	2496	2496	2496	2532	2532	2532	2478	2551	2551	2551	2551	2514	2532	2551	2570	2589	2609	2609	2629	2629	2629	2629	0	0	2799	2799	2799	2822	2822	2845	2869	2893	2893	2942	2967	2967	2993	3019	3019	3019	3019	3019	2993	2967	2967	2967	4771	4771	4771	4771	4771	4771	4838	4838	4838	4838	4838	4838	4838	4838	4838	4838	4838	4838	4838	4838	4838	4838	4838	4838	4838	4838	4906	4906	5050	4977	4977	4977	4906	4906	4906	4906	4838	4838	4838	4838	4838	4838	4838	4838	4906	4906	4838	4906	4906	4906	4906	4906	4906	4906	4906	4906	4906	4906	4906	4906	4906	4906	4906	4906	4906	4906	4977	4906	4906	4838	4838	4838	4838	4838	4838	4771	4838	4838	4838	4906	4906	4977	5050	5050	4977	4977	4906	4906	4906	4838	4838	4906	4838	4838	4838	4906	4906	4906	4977	4977	4977	4977	4977	4977	4977	4838	4838	4906	4906	4906	4838	4838	4977	4906	4838	4838	4838	4838	4838	4906	4838	4906	4838	4838	4838	4838	4838	4838	4838	4906	4906	4906	4838	4906	4906	4906	4906	4906	4906	4906	4906	4906	4906	4906	4906	4838	4838	4838	4838	4838	4838	4838	4838	4838	4838	4838	4838	4838	4838	4838	4838	4838	4906	4906	4906	4906	4906	4906	4906	4906	4906	4906	4906	4977	4906	4838	4838	4906	4838	4838	4838	4838	4838	4838	4838	4838	4838	4838	4838	4838	4838	4838	4838	4838	4838	4838	4838	4838	4838	4838	4771	4838	4838	4838	4838	4838	4838	4906	4838	4771	4771	4771	4771	4771	4771	4771	4771	4771	4771	4706	4706	4643	4643	4643	4643	4643	4706	4706	4771	4706	4706	4706	4706	4706	4706	4706	4706	4706	4706	4706	4706	4706	4706	4706	4706	4706	4706	4706	4706	4706	4771	4771	4771	4771	4771	4771	4771	0	0	0	0	0	0	0	0	0	0	0	0	0	0	4771	4771	4838	4771	4771	4771	4771	4771	4771	4771	4771	4771	4771	4771	4706	4706	4771	4771	4771	4771	4771	4771	4771	4838	4838	4771	4771	4771	4771	4771	4838	4771	4771	4771	4771	4771	4771	4706	4771	4771	4706	4771	4706	4706	4771	4771	4771	4771	4771	4771	4771	4771	4771	4771	4771	4771	4838	4838	4771	4771	4771	4771	4771	4771	4771	4706	4706	4643	4643	0	0	0	0	0	0	0	4463	4463	4463	4463	4406	4406	4296	4296	4296	4296	4243	4243	4243	4243	4243	4243	4243	4243	4243	4243	4243	4243	4243	4243	4243	4243	4243	4243	4243	4243	4243	4243	4243	4243	4243	4243	4243	4243	4243	4243	4243	4243	4243	4243	4192	4192	4192	4192	4192	4192	4192	4192	4192	4192	4192	4192	4243	4192	4142	4142	4142	4142	4142	4142	4142	4192	4142	4192	4142	4142	4192	4192	4192	4142	4192	4192	4243	4243	4296	4296	4350	4350	4350	4406	4406	4406	4406	4977	5050	5050	5050	5050	5050	5050	5050	5050	5050	5050	5050	5050	5050	4977	4977	4977	4977	4977	5050	5050	5050	5050	5050	5125	5050	5050	5050	5050	5050	5050	5050	5050	5050	5050	5125	5125	5202	5282	5282	0	0	0	0	0	0	0	0	0	0	0	0	0	0	0	0	0	0	0	0	0	0	0	0	0	0	0	0	0	0	0	0	0	0	0	0	0	0	0	0	0	0	0	0	0	0	0	0	0	0	0	0	0	0	0	0	0	0	0	0	0	0
0	0	0	0	0	0	0	1177	1177	1185	1193	1197	1197	1210	1214	1214	1223	1223	1227	1227	1232	1232	0	0	0	0	0	2460	2443	2392	2392	2392	2392	2409	2409	2409	2443	2443	2409	2409	2409	2409	2426	2426	2426	2443	2478	2478	2478	2496	2514	2514	2514	2532	2551	2551	2551	2496	2496	2496	2496	2532	2532	2532	2532	2551	2551	2551	2551	2532	2532	2551	2570	2570	2589	2609	2629	2649	2649	2629	0	0	2799	2799	2799	2799	2869	2869	2869	2893	2893	2942	2967	2967	2993	3019	3019	3019	3019	3019	2993	2967	2967	2967	4771	4771	4771	4771	4771	4838	4838	4838	4838	4838	4838	4838	4838	4838	4838	4838	4838	4838	4838	4906	4906	4838	4906	4838	4906	4906	4906	4906	4977	4977	4906	4906	4906	4906	4906	4906	4838	4838	4838	4838	4838	4838	4838	4838	4906	4906	4906	4906	4906	4906	4906	4906	4906	4906	4906	4906	4906	4906	4906	4838	4977	4906	4906	4906	4906	4906	4977	4906	4838	4838	4838	4838	4838	4838	4838	4771	4838	4838	4838	4906	4838	4906	4906	4977	4977	4906	4906	4906	4838	4906	4838	4906	4906	4906	4906	4906	4906	4906	4906	4906	4977	4977	4906	4906	4906	4838	4838	4906	4906	4906	4906	4906	4906	4906	4906	4906	4838	4906	4906	4906	4838	4838	4838	4838	4838	4838	4838	4838	4838	4838	4838	4838	4838	4838	4838	4838	4906	4906	4906	4906	4906	4906	4906	4906	4906	4838	4838	4838	4838	4838	4838	4838	4838	4838	4838	4838	4838	4838	4838	4838	4838	4838	4906	4977	4977	4906	4977	4977	4906	4838	4906	4906	4906	4977	4906	4906	4838	4838	4838	4838	4838	4838	4838	4838	4838	4838	4838	4838	4838	4838	4838	4771	4838	4838	4838	4838	4838	4838	4838	4838	4838	4838	4838	4838	4838	4838	4838	4906	4771	4771	4771	4771	4771	4771	4771	4771	4771	4771	4771	4706	4643	4643	4643	4643	4643	4706	4706	4706	4706	4706	4706	4706	4706	4706	4706	4706	4706	4706	4706	4706	4706	4706	4706	4706	4706	4771	4706	4771	4771	4706	4771	4771	4771	4771	4771	4771	4771	0	0	0	0	0	0	0	0	0	0	0	0	0	0	0	0	4838	4771	4706	4706	4706	4771	4771	4771	4771	4771	4771	4771	4706	4706	4771	4771	4771	4771	4771	4771	4838	4771	4771	4771	4771	4771	4771	4838	4838	4771	4771	4771	4771	4771	4771	4706	4706	4771	4706	4771	4771	4771	4771	4771	4706	4706	4706	4706	4771	4771	4771	4771	4771	4771	4838	4771	4771	4771	4771	4838	4838	4771	4771	4706	4706	4643	4643	0	0	0	0	4296	4296	4463	4463	4463	4463	4463	4406	4406	4296	4296	4296	4296	4243	4243	4243	4243	4243	4243	4243	4243	4243	4243	4243	4243	4243	4243	4243	4243	4243	4243	4243	4243	4243	4243	4243	4243	4243	4243	4243	4243	4192	4192	4243	4243	4192	4243	4192	4192	4192	4192	4192	4192	4192	4192	4192	4192	4192	4192	4192	4192	4142	4142	4192	4142	4142	4142	4142	4192	4192	4192	4142	4192	4192	4192	4192	4192	4192	4192	4243	4243	4296	4296	4350	4406	4406	4406	4463	4463	0	0	5050	5050	5050	5050	5050	5050	5050	5125	5125	5125	5125	5125	5050	4977	4977	4977	4977	5050	5050	5050	5050	5125	5125	5125	5125	5050	5050	5050	5050	5050	5050	5050	5050	5050	5125	5202	5202	5282	5282	0	0	0	0	0	0	0	0	0	0	0	0	0	0	0	0	0	0	0	0	0	0	0	0	0	0	0	0	0	0	0	0	0	0	0	0	0	0	0	0	0	0	0	0	0	0	0	0	0	0	0	0	0	0	0	0	0	0	0	0	0	0
0	0	0	0	0	0	0	1165	1165	1165	1193	1197	1197	1206	1210	1214	1214	1223	1223	1227	1232	1236	1240	1240	0	0	0	2460	2443	2376	2376	2376	2392	2409	2426	2426	2460	2460	2460	2460	2460	2460	2460	2426	2478	2443	2496	2478	2496	2514	2532	2514	2532	2532	2551	2551	2551	2496	2496	2551	2551	2532	2532	2532	2478	2551	2551	2551	2514	2532	2532	2551	2629	2589	2609	2629	2649	2649	2649	0	0	0	0	0	2799	2799	2869	2869	2869	2893	2893	2917	2942	2942	2967	2993	2993	3019	3019	3019	2993	2967	2967	2967	4771	4771	4771	4771	4771	4838	4838	4838	4838	4838	4838	4838	4838	4838	4838	4838	4838	4838	4838	4838	4838	4838	4838	4838	4906	4906	4906	4906	4906	4906	4906	4906	4906	4906	4906	4906	4838	4838	4838	4838	4838	4838	4838	4838	4838	4838	4838	4906	4906	4906	4906	4906	4977	4906	4977	4906	4906	4906	4906	4838	4906	4838	4906	4906	4906	4906	4906	4906	4838	4838	4838	4838	4838	4838	4838	4838	4906	4906	4906	4906	4906	4906	4906	4977	4838	4906	4838	4906	4838	4838	4838	4838	4906	4838	4838	4838	4838	4906	4906	4838	4906	4906	4906	4906	4838	4838	4838	4906	4906	4906	4838	4906	4906	4906	4906	4906	4838	4838	4906	4838	4838	4838	4838	4838	4838	4838	4838	4838	4838	4838	4838	4906	4838	4906	4906	4906	4906	4906	4977	4906	4906	4906	4906	4906	4838	4838	4838	4838	4838	4838	4838	4838	4838	4838	4838	4838	4838	4838	4838	4838	4838	4838	4838	4906	4906	4906	4906	4977	4906	4838	4838	4906	4906	4906	4906	4906	4906	4906	4838	4838	4838	4838	4838	4838	4838	4838	4838	4838	4838	4838	4838	4838	4838	4838	4838	4838	4838	4838	4838	4838	4771	4838	4838	4838	4838	4838	4838	4906	4771	4771	4771	4771	4771	4771	4771	4771	4771	4771	4771	4706	4643	4643	4643	4643	4643	4706	4706	4771	4771	4771	4771	4706	4706	4706	4706	4706	4706	4706	4706	4706	4706	4706	4706	4706	4771	4771	4771	4771	4771	4771	4771	4771	4771	4771	4771	4706	4706	0	0	0	0	0	0	0	0	0	0	0	0	0	0	0	0	0	4706	4706	4706	4706	4771	4771	4771	4771	4771	4771	4771	4771	4771	4771	4771	4838	4771	4771	4838	4838	4838	4838	4771	4771	4838	4906	4906	4838	4838	4771	4771	4771	4771	4771	4706	4771	4771	4771	4771	4771	4771	4771	4771	4771	4771	4706	4771	4771	4771	4771	4771	4771	4771	4771	4771	4771	4771	4771	4771	4771	4771	4771	4771	4706	0	0	0	0	4296	4296	4296	4350	4463	4463	4406	4406	4406	4406	4406	4296	4296	4296	4296	4243	4243	4243	4243	4243	4243	4243	4243	4243	4243	4243	4243	4243	4243	4243	4243	4243	4243	4243	4243	4243	4243	4243	4243	4243	4243	4243	4243	4243	4192	4192	4192	4192	4243	4243	4192	4192	4192	4192	4243	4192	4192	4192	4192	4192	4192	4192	4192	4192	4192	4192	4192	4142	4142	4142	4192	4192	4192	4142	4192	4192	4192	4192	4192	4192	4192	4243	4243	4243	4296	4350	4406	4406	4406	4463	4463	0	0	0	0	5050	5125	5125	5125	5125	5125	5125	5125	5125	5125	5050	4977	4977	5050	5050	5050	5125	5125	5125	5125	5202	5125	5125	5050	5050	5050	5050	5050	5050	5050	5050	5050	5125	5202	5202	5202	5282	5282	0	0	0	0	0	0	0	0	0	0	0	0	0	0	0	0	0	0	0	0	0	0	0	0	0	0	0	0	0	0	0	0	0	0	0	0	0	0	0	0	0	0	0	0	0	0	0	0	0	0	0	0	0	0	0	0	0	0	0	0	0
0	0	0	0	0	0	0	1157	1157	1157	1157	1193	1197	1206	1210	1214	1214	1214	1223	1227	1236	1236	1245	1249	1254	1254	1254	1254	1254	2376	2376	2376	2392	2409	2443	2443	2460	2460	2460	2460	2460	2460	2460	2443	2460	2460	2514	2496	2496	2514	2532	2532	2532	2532	2551	2551	2551	2496	2496	2496	2551	2551	2551	2551	2478	2551	2551	2496	2514	2532	2532	2551	2609	2629	2629	2649	2669	2669	0	0	0	0	0	0	0	0	0	2845	2845	2893	2893	2893	2917	2942	2967	2993	2993	2993	2993	2993	2993	2967	2967	2967	4771	4771	4771	4771	4771	4838	4838	4838	4838	4906	4838	4838	4838	4838	4838	4838	4838	4838	4838	4838	4838	4838	4838	4838	4906	4977	4977	4977	4977	4977	4977	4977	4977	4977	4977	4977	4838	4838	4838	4838	4838	4838	4838	4838	4838	4838	4838	4838	4906	4906	4906	4906	4906	4906	4906	4906	4906	4906	4838	4838	4906	4906	4906	4906	4906	4906	4906	4838	4838	4838	4838	4838	4838	4838	4838	4838	4838	4906	4906	4906	4838	4906	4906	4906	4838	4838	4838	4838	4838	4838	4838	4838	4838	4838	4838	4906	4906	4906	4906	4838	4906	4906	4906	4906	4838	4838	4838	4906	4906	4906	4838	4906	4906	4906	4838	4838	4838	4906	4906	4838	4838	4838	4838	4838	4771	4771	4838	4838	4838	4838	4838	4906	4838	4906	4906	4906	4906	4977	4977	4977	4977	4906	4906	4906	4906	4838	4838	4906	4838	4838	4838	4838	4838	4838	4838	4838	4838	4838	4838	4838	4838	4838	4838	4838	4906	4906	4906	4906	4906	4838	4906	4906	4906	4977	4906	4906	4906	4906	4906	4838	4838	4838	4838	4838	4838	4838	4838	4838	4838	4838	4838	4838	4838	4838	4838	4838	4838	4838	4838	4838	4838	4838	4838	4838	4838	4838	4838	4838	4771	4771	4771	4771	4771	4771	4771	4771	4771	4771	4771	4706	4581	4581	4581	4643	4581	4643	4706	4706	4771	4771	4771	4706	4706	4706	4706	4643	4643	4706	4643	4706	4706	4706	4706	4771	4771	4771	4771	4771	4771	4771	4706	4706	4706	4838	4706	4706	4706	0	0	0	0	0	0	0	0	0	0	0	0	0	0	0	0	0	4706	4706	4706	4771	4771	4771	4771	4771	4771	4771	4771	4771	4771	4771	4771	4838	4771	4838	4771	4771	4771	4771	4771	4838	4906	4906	4906	4838	4838	4771	4771	4771	4771	4706	4581	4706	4706	4771	4771	4771	4706	4706	4771	4771	4771	4771	4771	4771	4771	4771	4771	4771	4771	4771	4771	4771	4771	4771	4771	4771	4771	4706	4706	0	0	0	0	0	4296	4296	4296	4406	4406	4463	4406	4406	4406	4406	4406	4296	4243	4243	4243	4243	4243	4243	4243	4243	4243	4243	4243	4243	4243	4243	4243	4243	4243	4243	4243	4243	4243	4243	4243	4243	4243	4243	4243	4243	4192	4243	4243	4192	4192	4192	4192	4142	4192	4192	4192	4192	4192	4243	4243	4192	4192	4192	4192	4192	4192	4243	4192	4192	4192	4192	4192	4192	4192	4192	4192	4192	4192	4192	4192	4192	4243	4192	4192	4192	4192	4243	4243	4296	4296	4350	4406	4406	4406	4463	4406	4406	0	0	0	0	5202	5125	5125	5125	5125	5202	5202	5202	5125	5125	5125	5125	5125	5125	5125	5202	5202	5202	5202	5202	5202	5125	5125	5050	5125	5050	5050	5050	5050	5050	5125	5125	5202	5202	5202	5202	5202	0	0	0	0	0	0	0	0	0	0	0	0	0	0	0	0	0	0	0	0	0	0	0	0	0	0	0	0	0	0	0	0	0	0	0	0	0	0	0	0	0	0	0	0	0	0	0	0	0	0	0	0	0	0	0	0	0	0	0	0	0
0	0	0	0	0	1134	1146	1150	1153	1157	1161	1165	1165	1202	1206	1214	1214	1219	1223	1227	1227	1236	1245	1249	1254	1254	1254	1254	1254	0	0	0	0	0	2460	2460	2478	2478	2478	2478	2478	2478	2460	2460	2460	2478	2496	2496	2460	2514	2514	2514	2532	2532	2551	2551	2551	2496	2496	2496	2551	2496	2496	2532	2478	2532	2551	2496	2551	2532	2551	2609	2629	2629	2629	2649	2669	2669	0	0	0	0	0	0	0	0	0	2845	2845	2893	2893	2893	2917	2942	2967	2993	2993	2993	2993	2993	2993	2993	2967	2967	4838	4771	4771	4771	4771	4838	4838	4838	4838	4838	4838	4838	4838	4838	4906	4906	4906	4838	4838	4838	4838	4838	4838	4838	4906	4977	4977	4977	4977	4977	4977	4977	4977	4838	4838	4838	4838	4838	4838	4838	4838	4771	4838	4838	4838	4838	4838	4838	4906	4906	4906	4906	4906	4906	4906	4906	4906	4906	4838	4906	4838	4838	4906	4906	4906	4838	4838	4838	4838	4838	4838	4838	4838	4838	4838	4838	4838	4906	4906	4906	4906	4906	4977	4977	4838	4838	4838	4838	4838	4906	4838	4906	4906	4906	4906	4906	4906	4906	4906	4838	4906	4906	4838	4838	4838	4838	4838	4906	4906	4906	4906	4906	4906	4906	4838	4838	4906	4906	4838	4838	4838	4838	4771	4771	4771	4771	4838	4838	4838	4838	4838	4906	4906	4906	4906	4906	4906	4906	4977	4906	4977	4906	4906	4906	4906	4906	4906	4906	4906	4838	4838	4838	4838	4838	4838	4838	4838	4838	4838	4771	4771	4838	4838	4838	4906	4838	4838	4906	4906	4838	4838	4906	4906	4906	4906	4906	4906	4906	4906	4906	4838	4838	4838	4838	4838	4838	4838	4838	4838	4838	4838	4838	4838	4838	4838	4838	4838	4838	4838	4838	4838	4838	4838	4838	4838	4838	4838	4838	4771	4771	4771	4771	4771	4771	4771	4771	4771	4771	4771	4706	4581	4581	4581	4581	4643	4706	4706	4771	4771	4771	4771	4706	4706	4706	4706	4643	4643	4643	4643	4581	4643	4643	4643	4706	4706	4771	4771	4771	4771	4771	4771	4706	4706	4838	4838	4706	4706	0	0	0	0	0	0	0	0	0	0	3309	3277	3277	3277	3309	3309	0	0	4706	4706	4706	4771	4771	4771	4771	4771	4771	4771	4771	4771	4771	4771	4838	4838	4838	4771	4771	4771	4771	4771	4771	4771	4838	4838	0	0	0	0	0	4771	4706	4581	4706	4706	4706	4706	4706	4296	4296	4706	4706	4706	4706	4706	4706	4706	4771	4771	4771	4771	4771	4706	4706	4706	4706	4706	4771	4771	4706	4706	0	0	0	0	0	0	4296	4296	4350	4406	4406	4406	4406	4406	4406	4406	4296	4243	4243	4243	4243	4243	4192	4243	4243	4243	4243	4243	4243	4243	4243	4243	4243	4243	4296	4243	4243	4243	4243	4243	4243	4243	4243	4243	4243	4192	4192	4192	4192	4192	4192	4192	4192	4243	4192	4192	4192	4243	4243	4243	4243	4192	4192	4243	4243	4243	4243	4243	4192	4243	4243	4192	4192	4192	4192	4243	4192	4192	4192	4243	4192	4192	4192	4192	4192	4192	4243	4243	4296	4350	4350	4406	4406	4406	4406	4350	4350	0	0	0	0	5202	5202	5202	5202	5202	5202	5202	5202	5202	5202	5202	5202	5125	5125	5125	5202	5202	5202	5202	5202	5202	5125	5125	5125	5125	5050	5050	5050	5125	5125	5202	5125	5202	5202	5282	5202	5202	0	0	0	0	0	0	0	0	0	0	0	0	0	0	0	0	0	0	0	0	0	0	0	0	0	0	0	0	0	0	0	0	0	0	0	0	0	0	0	0	0	0	0	0	0	0	0	0	0	0	0	0	0	0	0	0	0	0	0	0	0
0	0	0	0	0	1134	1146	1150	1153	1157	1161	1165	1165	1165	1202	1214	1214	1219	1223	1232	1236	1240	1249	1249	1249	1254	1254	1254	1254	1254	0	0	0	0	2460	2460	2478	2460	2460	2478	2478	2478	2478	2460	2514	2478	2514	2460	2478	2478	2478	2496	2532	2532	2551	2551	2551	2551	2496	2514	2514	2514	2496	2496	2496	2532	2532	2532	2551	2570	2532	2551	2570	2589	2669	2629	2629	2669	0	0	0	0	0	0	0	0	2822	2822	2845	2869	2869	2893	2942	2942	2967	2993	2993	2993	2993	2993	2967	2967	2993	2993	4771	4771	4771	4771	4771	4838	4838	4838	4838	4838	4838	4838	4838	4906	4906	4906	4838	4906	4838	4838	4906	4838	4838	4838	4838	4906	4977	4977	4977	4906	4906	4838	4838	4838	4838	4838	4771	4838	4838	4838	4838	4771	4771	4838	4838	4838	4838	4838	4906	4906	4906	4838	4838	4838	4838	4838	4838	4838	4838	4838	4838	4838	4906	4906	4838	4838	4838	4838	4838	4838	4838	4838	4838	4838	4838	4838	4906	4977	4906	4906	4906	4906	4906	4906	4838	4838	4838	4838	4906	4838	4838	4906	4906	4906	4906	4906	4906	4906	4906	4838	4838	4838	4838	4838	4838	4838	4838	4906	4906	4906	4906	4838	4906	4906	4906	4906	4906	4906	4906	4906	4838	4906	4838	4838	4838	4838	4838	4838	4838	4838	4906	4906	4906	4906	4906	4906	4977	4906	4977	4906	4906	4906	4906	4906	4906	4906	4906	4906	4906	4906	4906	4838	4838	4838	4838	4838	4838	4838	4838	4838	4838	4838	4838	4838	4838	4838	4838	4906	4906	4906	4906	4906	4906	4906	4906	4906	4906	4906	4906	4838	4838	4838	4838	4838	4838	4838	4838	4838	4838	4838	4838	4838	4838	4838	4838	4838	4906	4838	4838	4838	4838	4838	4838	4838	4838	4838	4838	4838	4771	4771	4771	4771	4771	4771	4771	4771	4771	4771	4771	4771	4521	4581	4581	4643	4643	4706	4706	4706	4706	4771	4771	4706	4706	4706	4706	4643	4521	4521	4581	4581	4581	4581	4581	4643	4706	4771	4771	4771	4771	4771	4771	4706	4706	4838	4838	0	0	0	0	0	0	0	0	0	0	3406	3309	3309	3309	3309	3309	3309	3309	0	0	0	0	4706	4706	4706	4771	4771	4771	4771	4838	4838	4838	4838	4838	4838	4838	4838	4838	4771	4771	4771	4771	4771	4771	4838	4838	0	0	0	0	0	0	0	0	0	0	4706	4706	4706	4296	4296	4706	4406	4406	4406	4406	4406	4463	4463	4406	4406	4406	4406	4706	4706	4706	4706	4706	4706	4706	4706	4706	0	0	0	0	0	4296	4296	4296	4350	4350	4350	4350	4406	4406	4406	4406	4296	4243	4243	4243	4243	4243	4243	4243	4243	4243	4243	4243	4243	4243	4243	4243	4243	4296	4296	4296	4243	4243	4243	4243	4243	4243	4243	4192	4243	4243	4243	4243	4192	4192	4192	4192	4192	4243	4243	4243	4243	4243	4243	4243	4243	4192	4192	4192	4192	4243	4243	4243	4243	4243	4243	4243	4243	4192	4192	4243	4243	4243	4192	4243	4192	4192	4192	4192	4192	4192	4243	4192	4296	4296	4406	4406	4406	4406	4406	4350	4350	4463	4463	5282	5282	5202	5202	5202	5202	5202	5202	5202	5202	5282	5282	5282	5202	5202	5202	5125	5202	5202	5202	5202	5202	5202	5125	5125	5125	5125	5125	5050	5050	5125	5125	5125	5125	5202	5202	5202	5202	5202	0	0	0	0	0	0	0	0	0	0	0	0	0	0	0	0	0	0	0	0	0	0	0	0	0	0	0	0	0	0	0	0	0	0	0	0	0	0	0	0	0	0	0	0	0	0	0	0	0	0	0	0	0	0	0	0	0	0	0	0	0
0	0	0	0	0	1134	1146	1150	1153	1157	1161	1165	1165	1193	1193	1210	1214	1219	1227	1232	1236	1240	1245	1249	1249	1249	1254	1254	1254	1254	0	0	0	0	0	2460	2496	2478	2478	2460	2496	2496	2496	2514	2514	2514	2532	2514	2478	2532	2532	2532	2532	2532	2532	2551	2551	2551	2496	2514	2514	2514	2514	2496	2532	2532	2532	2532	2532	2551	2514	2532	2570	2570	2711	2711	2690	2690	0	0	0	0	0	0	0	0	2822	2845	2869	2869	2845	2845	2845	2845	2993	2993	2993	2993	2993	2993	2967	2967	2967	2967	4706	4771	4771	4771	4771	4838	4838	4838	4838	4906	4838	4838	4838	4906	4906	4906	4906	4906	4977	4838	4838	4771	4838	4838	4906	4906	4906	4906	4906	4906	4906	4838	4906	4838	4838	4838	4771	4771	4771	4771	4771	4771	4771	4838	4838	4838	4838	4838	4906	4838	4838	4838	4838	4838	4838	4838	4838	4838	4838	4838	4906	4838	4906	4906	4906	4838	4838	4838	4838	4838	4838	4838	4838	4838	4838	4838	4838	4906	4906	4906	4906	4906	4906	4838	4838	4838	4838	4906	4906	4838	4838	4906	4906	4906	4906	4906	4838	4838	4906	4838	4838	4838	4838	4838	4838	4838	4838	4906	4838	4906	4906	4838	4906	4906	4838	4906	4906	4906	4906	4906	4906	4906	4838	4838	4771	4838	4838	4838	4838	4838	4838	4838	4906	4906	4906	4906	4906	4906	4977	4977	4977	4906	4906	4906	4906	4906	4906	4906	4906	4838	4838	4838	4838	4838	4838	4838	4838	4838	4838	4838	4838	4838	4838	4838	4838	4838	4838	4906	4906	4906	4906	4906	4906	4906	4906	4906	4906	4838	4838	4838	4838	4838	4838	4838	4838	4838	4838	4906	4838	4906	4838	4838	4838	4838	4838	4838	4906	4838	4838	4838	4838	4838	4838	4838	4838	4838	4838	4838	4771	4771	4771	4771	4771	4771	4771	4771	4771	4771	4771	4771	4643	4581	4643	4643	4643	4706	4706	4771	4706	4771	4771	4706	4643	4643	4643	4521	4521	4521	4521	4521	4581	4581	4521	4581	4706	4706	4706	4771	4771	4771	4706	4706	4706	0	0	0	0	0	0	0	0	0	0	3475	3440	3440	3406	3373	3341	3341	3341	3341	3341	0	0	0	0	0	4706	4706	4706	4706	4771	4771	4771	4771	4838	4838	4838	4838	4838	4838	4838	4771	4771	4771	4771	4771	4771	4771	4771	0	0	0	0	0	0	0	0	0	0	0	0	0	4296	4296	0	4406	4406	4406	4406	4406	4463	4463	4406	4406	4406	4406	4406	4406	4706	4706	4706	4581	4581	4706	0	0	0	0	0	0	4296	4296	4296	4296	4350	4406	4350	4406	4406	4406	4406	4296	4243	4243	4243	4243	4243	4243	4243	4243	4243	4243	4243	4243	4243	4243	4243	4243	4243	4243	4243	4243	4243	4243	4243	4243	4243	4243	4243	4243	4243	4243	4243	4243	4192	4243	4192	4192	4243	4243	4243	4243	4243	4243	4243	4243	4192	4192	4192	4192	4243	4243	4243	4243	4243	4243	4243	4243	4243	4192	4243	4243	4243	4243	4243	4192	4192	4192	4192	4192	4192	4192	4192	4296	4296	4406	4406	4406	4406	4406	4406	4463	4463	4463	5282	5282	5282	5202	5202	5202	5282	5282	5282	5282	5282	5282	5282	5282	5202	5202	5202	5202	5202	5282	5202	5282	5202	5202	5125	5125	5125	5125	5125	5125	5125	5125	5202	5125	5202	5282	5202	5202	0	0	0	0	0	0	0	0	0	0	0	0	0	0	0	0	0	0	0	0	0	0	0	0	0	0	0	0	0	0	0	0	0	0	0	0	0	0	0	0	0	0	0	0	0	0	0	0	0	0	0	0	0	0	0	0	0	0	0	0	0	0
0	0	0	0	0	0	1146	1138	1153	1150	1157	1165	1169	1169	1169	1169	1210	1219	1227	1232	1236	1245	1249	1249	1249	1249	1254	1254	1254	1254	1254	0	0	0	0	2460	2460	2460	2460	2460	2478	2496	2514	2514	2514	2532	2532	2532	2532	2532	2532	2532	2532	2532	2551	2551	2551	2551	2514	2551	2514	2514	2514	2514	2532	2532	2496	2478	2532	2532	2478	2496	2496	2496	2777	2777	2777	2799	2799	0	0	0	0	0	0	0	2822	2845	2845	2822	2822	2845	2845	2845	2993	2993	2993	2993	2967	2993	2967	2967	2967	2967	2967	4771	4771	4838	4838	4838	4906	4906	4906	4906	4906	4906	4906	4906	4906	4906	4906	4906	4906	4977	4977	4906	4906	4906	4906	4906	4906	4906	4906	4906	4906	4838	4838	4838	4838	4838	4838	4771	4771	4771	4771	4771	4771	4838	4838	4838	4838	4838	4838	4838	4838	4838	4838	4838	4838	4838	4838	4838	4838	4838	4838	4906	4906	4906	4906	4838	4838	4838	4906	4838	4838	4838	4838	4838	4838	4838	4906	4906	4906	4906	4838	4838	4838	4838	4838	4838	4838	4838	4906	4838	4838	4906	4906	4906	4906	4906	4906	4906	4906	4838	4838	4838	4838	4838	4838	4838	4838	4838	4838	4838	4838	4838	4906	4906	4838	4906	4906	4906	4838	4906	4906	4906	4906	4906	4838	4838	4838	4838	4838	4838	4838	4838	4838	4838	4906	4906	4906	4906	4977	4906	4977	4906	4906	4906	4977	4977	4906	4977	4906	4906	4838	4838	4838	4838	4838	4838	4838	4838	4838	4838	4838	4838	4838	4838	4838	4838	4838	4906	4906	4906	4906	4906	4906	4906	4838	4838	4906	4838	4838	4838	4838	4838	4838	4838	4838	4838	4838	4906	4838	4906	4838	4838	4838	4838	4838	4838	4838	4838	4838	4838	4838	4838	4838	4838	4838	4838	4838	4838	4771	4771	4771	4771	4771	4771	4771	4771	4771	4771	4771	4771	4643	4581	4581	4643	4581	4706	4643	4706	4706	4771	4771	4706	4643	4643	4643	4521	4521	4521	4521	4521	4521	4521	4463	4463	4463	4463	4706	4706	4706	4706	4706	4706	0	0	0	0	0	0	0	0	0	3475	3475	3406	3440	3440	3406	3406	3406	3406	3373	3373	3373	0	0	0	0	0	0	4706	4706	4706	4706	4706	4771	4771	4838	4838	4838	4838	4838	4838	4771	4771	4771	4771	4771	4771	4771	4771	4771	0	0	0	0	0	0	0	0	0	0	4350	4350	4350	4296	4350	4350	4350	4350	4350	4350	4406	4406	4406	4406	4406	4406	4406	4406	4406	0	0	0	4521	4521	4521	4521	0	0	4463	4463	4350	4296	4350	4350	4350	4350	4350	4350	4406	4406	4406	4406	4296	4296	4243	4243	4243	4243	4243	4243	4243	4243	4243	4243	4243	4243	4243	4243	4243	4243	4296	4296	4296	4243	4243	4243	4243	4243	4243	4243	4243	4243	4243	4243	4243	4243	4243	4192	4192	4243	4192	4243	4243	4243	4243	4243	4243	4192	4192	4192	4192	4243	4243	4192	4243	4243	4243	4243	4243	4243	4243	4243	4243	4243	4192	4243	4192	4243	4192	4192	4192	4192	4192	4192	4296	4350	4406	4406	4406	4406	4406	4406	4406	4406	4406	5282	5282	5282	5282	5282	5282	5282	5282	5282	5282	5282	5282	5282	5282	5282	5282	5202	5282	5282	5282	5282	5282	5202	5202	5125	5125	5125	5050	5125	5125	5125	5125	5202	5202	5202	5202	5202	5202	5202	0	0	0	0	0	0	0	0	0	0	0	0	0	0	0	0	0	0	0	0	0	0	0	0	0	0	0	0	0	0	0	0	0	0	0	0	0	0	0	0	0	0	0	0	0	0	0	0	0	0	0	0	0	0	0	0	0	0	0	0	0
0	0	0	0	0	0	1146	1142	1146	1150	1153	1165	1165	1169	1169	1169	1169	1214	1223	1236	1240	1245	1249	1249	1249	1254	1254	1259	1259	1259	1259	1259	0	0	0	0	2460	2478	2478	2478	2496	2514	2532	2532	2532	2532	2532	2532	2532	2532	2532	2514	2532	2532	2551	2551	2551	2551	2532	2551	2532	2532	2532	2532	2532	2496	2496	2496	2532	2532	2496	2532	2532	2532	2532	2799	2799	2799	2799	0	0	0	0	0	0	0	0	2845	2845	2822	2822	0	0	0	0	3019	3019	2993	2993	2993	2967	2967	2967	2967	2967	2967	4838	4838	4838	4906	4906	4906	4906	4906	4906	4906	4906	4906	4906	4906	4906	4906	4906	4838	4977	4906	4906	4906	4906	4906	4906	4906	4838	4838	4838	4838	4838	4838	4838	4838	4838	4771	4771	4771	4771	4771	4771	4838	4838	4906	4838	4838	4906	4906	4906	4838	4838	4838	4838	4838	4838	4838	4838	4838	4838	4838	4838	4838	4838	4838	4906	4906	4906	4906	4906	4838	4838	4838	4838	4838	4906	4906	4906	4906	4838	4906	4906	4838	4838	4838	4838	4838	4906	4838	4838	4906	4838	4906	4906	4906	4906	4906	4906	4906	4906	4838	4838	4838	4838	4838	4838	4838	4838	4838	4906	4838	4906	4906	4838	4838	4838	4838	4838	4838	4838	4838	4838	4906	4771	4838	4838	4838	4838	4838	4838	4838	4838	4838	4906	4906	4977	4977	4977	4977	4977	4906	4977	4906	4977	4906	4906	4906	4906	4838	4838	4838	4838	4838	4838	4838	4838	4838	4838	4838	4838	4838	4838	4838	4838	4838	4838	4906	4906	4906	4906	4906	4906	4906	4838	4838	4838	4838	4838	4838	4838	4838	4838	4838	4838	4838	4906	4906	4838	4906	4906	4906	4906	4838	4838	4838	4906	4838	4838	4838	4838	4838	4838	4838	4838	4838	4838	4838	4771	4771	4771	4771	4771	4771	4771	4771	4771	4771	4771	4771	4581	4521	4521	4521	4521	4643	4643	4706	4771	4771	4771	4706	4706	4643	4581	4521	4463	4463	4463	4521	4521	4463	4406	4406	4406	4406	4706	4706	4706	4706	0	0	0	0	0	0	0	0	3440	3475	3440	3440	3406	3406	3406	3406	3406	3406	3406	3406	3406	3373	3373	0	0	0	0	0	0	0	0	0	4706	4706	4706	4706	4838	4838	4838	4838	4838	4771	4771	4771	4771	4771	4771	4706	4706	4706	4706	0	0	0	0	0	0	0	0	0	0	4350	4350	4350	4296	4350	4350	4350	4406	4350	4406	4406	4406	4406	4406	4350	4350	4350	4350	4350	0	0	0	4521	4521	4521	4521	0	0	4463	4463	4463	4350	4350	4350	4406	4406	4406	4406	4406	4406	4406	4350	4296	4296	4243	4243	4243	4243	4243	4243	4243	4243	4243	4243	4243	4243	4243	4192	4243	4243	4243	4243	4243	4243	4243	4243	4243	4243	4243	4243	4243	4243	4243	4243	4243	4192	4243	4192	4192	4192	4243	4192	4243	4243	4243	4243	4243	4192	4192	4192	4192	4243	4243	4243	4243	4243	4243	4243	4243	4243	4243	4243	4192	4192	4192	4192	4192	4243	4192	4192	4192	4192	4243	4243	4296	4350	4406	4406	4406	4406	4406	4406	4463	4463	4463	5282	5282	5282	5282	5282	5282	5282	5282	5282	5282	5282	5282	5282	5282	5282	5282	5282	5282	5282	5282	5282	5282	5202	5202	5202	5125	5125	5125	5125	5202	5202	5202	5202	5202	5202	5202	5202	5202	5202	5202	0	0	0	0	0	0	0	0	0	0	0	0	0	0	0	0	0	0	0	0	0	0	0	0	0	0	0	0	0	0	0	0	0	0	0	0	0	0	0	0	0	0	0	0	0	0	0	0	0	0	0	0	0	0	0	0	0	0	0	0
0	0	0	0	0	0	1127	1138	1150	1153	1157	1165	1165	1165	1165	1169	1169	1169	1232	1232	1236	1245	1249	1249	1254	1254	1254	1254	1259	1263	1263	1263	1263	0	0	0	0	2478	2460	2478	2478	2514	2532	2532	2532	2532	2532	2532	2551	2532	2532	2514	2514	2532	2551	2532	2551	2532	2532	2551	2532	2532	2551	2551	2532	2532	2496	2532	2532	2532	2532	2532	2532	2551	2551	2799	2799	2799	2799	0	0	0	0	0	0	0	1177	1177	1177	0	0	0	0	1169	1169	3046	3046	3019	2993	2993	2993	2967	2967	2967	2967	2967	4838	4906	4906	4906	4906	4906	4906	4906	4906	4906	4906	4906	4906	4906	4906	4838	4838	4838	4838	4771	4906	4906	4838	4838	4838	4838	4838	4838	4838	4838	4838	4838	4838	4838	4838	4771	4838	4771	4771	4771	4771	4838	4838	4906	4838	4838	4838	4838	4838	4838	4838	4838	4838	4838	4838	4838	4838	4906	4838	4838	4838	4838	4906	4838	4906	4906	4838	4906	4906	4838	4838	4838	4838	4838	4906	4906	4906	4906	4838	4838	4838	4838	4838	4838	4838	4906	4906	4906	4838	4906	4906	4906	4906	4977	4977	4977	4977	4906	4906	4838	4838	4838	4838	4838	4838	4838	4838	4838	4906	4906	4906	4906	4838	4838	4838	4838	4838	4906	4838	4977	4977	4977	4838	4838	4838	4838	4838	4838	4838	4838	4838	4838	4906	4977	4977	4906	4977	4977	4977	4906	4906	4906	4906	4906	4906	4906	4906	4838	4838	4838	4838	4838	4838	4838	4838	4838	4838	4838	4838	4838	4838	4838	4838	4838	4838	4906	4906	4906	4906	4906	4906	4906	4838	4838	4838	4838	4838	4838	4838	4838	4838	4838	4906	4906	4838	4906	4906	4906	4906	4906	4906	4838	4906	4906	4906	4838	4838	4838	4838	4838	4838	4838	4838	4838	4838	4838	4771	4771	4771	4771	4771	4771	4771	4771	4771	4771	4706	4706	4521	4521	4521	4521	4521	4643	4643	4706	4771	4771	4771	4706	4643	4643	4463	4406	4406	4463	4463	4463	4463	4463	4406	4406	4406	4406	0	0	0	0	0	0	0	0	0	0	3440	3440	3406	3406	3440	3440	3406	3406	3406	3406	3406	3406	3406	3406	3406	3406	3406	3406	3406	0	0	0	0	0	0	0	0	0	4706	4706	4838	4838	4771	4771	4771	4771	4771	4771	4771	4771	4706	4706	4706	4643	4643	0	0	0	0	0	0	0	0	0	4406	4296	4350	4350	4296	4350	4350	4350	4350	4350	4350	4406	4406	4350	4406	4350	4350	4296	4296	4350	0	0	0	0	0	0	0	0	4463	4463	4463	4521	4406	4350	4350	4406	4406	4406	4406	4350	4406	4350	4350	4296	4296	4296	4243	4243	4243	4243	4243	4243	4243	4243	4243	4243	4243	4243	4243	4243	4243	4243	4243	4243	4243	4243	4243	4243	4243	4243	4243	4243	4243	4243	4243	4243	4243	4243	4192	4192	4243	4243	4192	4192	4243	4243	4243	4192	4192	4192	4192	4192	4192	4243	4243	4243	4243	4243	4243	4192	4192	4243	4243	4192	4192	4192	4192	4192	4243	4192	4192	4192	4192	4243	4243	4296	4296	4350	4406	4350	4350	4406	4463	4463	4463	4463	5282	5282	5282	5282	5364	5282	5364	5364	5364	5364	5282	5282	5282	5282	5282	5282	5282	5282	5282	5282	5282	5282	5282	5282	5202	5202	5202	5202	5282	5282	5282	5202	5282	5202	5282	5282	5202	5282	5202	5202	0	0	0	0	0	0	0	0	0	0	0	0	0	0	0	0	0	0	0	0	0	0	0	0	0	0	0	0	0	0	0	0	0	0	0	0	0	0	0	0	0	0	0	0	0	0	0	0	0	0	0	0	0	0	0	0	0	0	0	0
0	0	0	0	0	1134	1138	1142	1150	1150	1153	1161	1161	1165	1165	1169	1173	1165	1165	1165	1227	1249	1249	1249	1254	1254	1254	1259	1259	1263	1268	1268	1268	1268	0	0	0	0	2460	2514	2514	2514	2532	2532	2532	2532	2532	2532	2532	2532	2532	2514	2514	2514	2532	2532	2532	2532	2532	2532	2532	2532	2551	2551	2532	2514	2514	2532	2532	2532	2514	2514	2514	2532	2532	0	0	0	0	0	0	0	0	0	0	0	1177	1177	1173	1169	1169	1169	1169	1173	1169	1169	1177	1181	1181	1181	2993	2967	2967	2967	2967	0	0	4906	4906	4906	4906	4906	4977	4977	4977	4977	4977	4977	4906	4906	4906	4906	4838	4838	4838	4771	4906	4906	4838	4838	4838	4838	4838	4838	4838	4838	4838	4838	4838	4838	4838	4771	4838	4771	4838	4771	4838	4906	4906	4906	4906	4906	4838	4838	4838	4838	4838	4838	4838	4838	4838	4838	4838	4838	4838	4906	4838	4906	4906	4838	4906	4906	4838	4906	4838	4838	4838	4838	4838	4838	4838	4838	4838	4838	4838	4838	4838	4838	4838	4838	4838	4838	4906	4906	4906	4906	4838	4906	4906	4906	4906	4906	4906	4906	4906	4838	4838	4838	4838	4838	4838	4838	4838	4838	4906	4906	4906	4906	4906	4906	4838	4906	4838	4906	4906	4977	4977	4977	4906	4838	4838	4838	4838	4838	4838	4906	4906	4838	4906	4906	4906	4906	4906	4977	4977	4906	4906	4906	4906	4906	4906	4906	4906	4838	4838	4838	4838	4838	4838	4838	4838	4838	4838	4838	4838	4838	4838	4838	4838	4838	4838	4906	4906	4838	4838	4906	4906	4906	4838	4838	4838	4838	4838	4906	4838	4838	4838	4838	4906	4906	4838	4906	4838	4906	4906	4838	4838	4838	4906	4906	4906	4906	4906	4906	4838	4838	4838	4838	4838	4838	4838	4838	4838	4771	4771	4771	4771	4771	4771	4771	4771	4771	4771	4771	4581	4581	4581	4581	4521	4643	4643	4706	4771	4771	4771	4706	4643	4521	4463	4406	4406	4463	4463	4463	4463	4463	4406	4406	4406	4463	4463	0	0	0	0	0	0	0	0	0	3440	3406	3406	3406	3406	3440	3406	3406	3406	3440	3406	3406	3406	3406	3406	3406	3406	3406	3406	3406	0	0	0	0	0	0	0	0	0	0	0	0	4771	4771	4771	4771	4771	4771	4706	4771	4706	4706	4643	4581	4581	0	0	0	0	0	0	0	0	0	4406	4350	4350	4350	4296	4350	4296	4296	4350	4350	4350	4406	4350	4350	4406	4350	4350	4296	4296	0	0	0	0	0	0	0	0	4521	4463	4463	4463	4463	4350	4296	4296	4350	4350	4350	4350	4350	4406	4350	4350	4296	4296	4296	4243	4243	4243	4243	4243	4243	4243	4243	4243	4243	4243	4243	4243	4243	4243	4243	4243	4243	4243	4243	4243	4243	4243	4243	4243	4243	4243	4243	4243	4243	4243	4243	4192	4243	4243	4243	4192	4243	4243	4243	4243	4192	4192	4192	4192	4192	4243	4243	4243	4243	4243	4243	4243	4192	4192	4192	4192	4192	4192	4192	4192	4192	4192	4192	4192	4192	4243	4243	4243	4296	4350	4406	4406	4406	4406	4406	4463	4463	4463	4521	4521	4521	5282	5282	5364	5364	5364	5364	5364	5364	5364	5282	5282	5282	5282	5282	5282	5282	5282	5282	5282	5282	5282	5282	5282	5282	5282	5282	5282	5282	5282	5282	5282	5282	5282	5282	5282	5282	5282	5282	0	0	0	0	0	0	0	0	0	0	0	0	0	0	0	0	0	0	0	0	0	0	0	0	0	0	0	0	0	0	0	0	0	0	0	0	0	0	0	0	0	0	0	0	0	0	0	0	0	0	0	0	0	0	0	0	0	0	0	0
0	0	0	0	0	1138	1142	1142	1138	1138	1142	1157	1161	1161	1165	1169	1169	1165	1165	1165	1249	1249	1249	1249	1254	1254	1254	1259	1263	1268	1268	1268	1272	1272	1301	1301	0	0	0	2514	2532	2532	2551	2551	2532	2532	2532	2532	2532	2532	2532	2514	2496	2514	2514	2532	2532	2532	2551	2551	2551	2551	2551	2551	2551	2532	2514	2532	2532	2532	2532	2532	2532	2551	2570	2570	0	0	0	0	0	0	0	0	0	0	1173	1169	1169	1169	1169	1169	1173	1173	1173	1177	1177	1181	1181	1185	1185	0	0	0	0	0	0	0	4906	5050	5050	4977	4977	4977	4977	4977	5050	4977	4977	4906	4906	4906	4838	4838	4838	4771	4771	4771	4771	4838	4838	4838	4838	4838	4838	4838	4838	4838	4838	4838	4838	4838	4838	4838	4838	4838	4838	4838	4906	4838	4906	4838	4906	4838	4838	4838	4906	4838	4838	4838	4838	4838	4838	4838	4838	4838	4838	4906	4906	4838	4906	4906	4906	4906	4906	4838	4838	4838	4838	4838	4838	4838	4838	4838	4838	4838	4838	4838	4838	4838	4838	4838	4906	4838	4838	4906	4838	4838	4906	4906	4906	4906	4906	4906	4838	4838	4838	4838	4838	4838	4838	4838	4838	4838	4838	4906	4906	4906	4906	4906	4906	4906	4906	4906	4906	4977	4977	4906	4906	4838	4838	4838	4838	4838	4906	4838	4838	4838	4838	4906	4838	4838	4906	4977	4977	4906	4906	4906	4906	4906	4838	4906	4906	4838	4838	4838	4838	4838	4838	4838	4838	4838	4838	4838	4838	4838	4838	4838	4838	4838	4838	4906	4906	4838	4838	4906	4838	4838	4838	4838	4838	4838	4838	4838	4838	4838	4838	4838	4906	4906	4838	4838	4838	4906	4906	4838	4838	4838	4838	4838	4838	4906	4906	4838	4838	4838	4838	4838	4838	4838	4838	4838	4838	4771	4771	4771	4771	4771	4771	4771	4771	4771	4771	4771	4581	4581	4581	4581	4521	4521	4643	4706	4706	4771	4771	4771	4771	4406	4406	4406	4406	4463	4463	4463	4463	4406	4406	4350	4406	4406	4350	4350	0	0	0	0	0	0	3406	3440	3440	3406	3406	3406	3406	3406	3406	3406	3406	3406	3406	3406	3406	3440	3440	3406	3406	3406	3406	3406	0	0	0	0	0	0	0	0	0	0	0	0	4771	4771	4771	4771	4771	4771	4706	4706	4706	4706	4643	4581	4581	0	0	0	0	0	0	0	0	0	0	4350	4350	4350	4296	4350	4296	4296	4296	4350	4350	4350	4350	4350	4350	4350	4350	4350	4350	4350	0	0	0	0	0	0	0	4521	4463	4406	4406	4350	4296	4296	4296	4350	4350	4350	4350	4350	4406	4350	4350	4296	4296	4296	4296	4296	4296	4296	4243	4296	4243	4243	4243	4243	4243	4243	4243	4243	4243	4243	4243	4243	4243	4243	4243	4243	4243	4243	4243	4243	4243	4243	4243	4243	4243	4243	4192	4243	4243	4243	4243	4243	4243	4243	4243	4192	4192	4192	4192	4192	4192	4243	4243	4243	4243	4192	4192	4192	4192	4192	4192	4192	4192	4192	4192	4192	4243	4192	4243	4243	4243	4243	4243	4296	4350	4350	4406	4406	4406	4463	4463	4463	4463	4521	4521	5364	5364	5364	5364	5364	5364	5364	5364	5364	5364	5364	5364	5364	5364	5364	5364	5364	5364	5364	5364	5364	5364	5282	5282	5282	5282	5282	5282	5282	5364	5282	5282	5282	5364	5282	5282	5282	5282	5282	0	0	0	0	0	0	0	0	0	0	0	0	0	0	0	0	0	0	0	0	0	0	0	0	0	0	0	0	0	0	0	0	0	0	0	0	0	0	0	0	0	0	0	0	0	0	0	0	0	0	0	0	0	0	0	0	0	0	0	0
0	0	0	0	0	1138	1142	1142	1138	1138	1138	1153	1161	1161	1165	1169	1169	1165	1169	1169	1169	1249	1249	1249	1254	1254	1259	1263	1263	1268	1268	1268	1272	1272	1291	1291	0	0	0	0	2532	2532	2551	2551	2551	2551	2551	2551	2551	2551	2551	2532	2532	2532	2532	2551	2551	2551	2551	2551	2551	2570	2570	2589	2570	2551	2514	2532	2532	2532	2532	2514	2514	2532	2532	2570	0	0	0	0	0	0	0	0	1169	1169	1169	1169	1169	1169	1173	1169	1173	1173	1173	1177	1177	1177	1185	1185	1185	0	0	0	0	0	0	0	0	5050	5050	4977	4977	0	0	0	5050	4977	4977	4906	4906	4906	4906	4838	4838	4838	4771	4771	4771	4838	4838	4838	4838	4838	4838	4838	4838	4838	4838	4838	4838	4838	4838	4838	4838	4838	4906	4906	4906	4838	4906	4838	4906	4838	4838	4838	4906	4838	4838	4838	4838	4838	4838	4838	4838	4838	4838	4838	4838	4838	4906	4906	4906	4906	4906	4838	4838	4838	4838	4838	4838	4838	4838	4838	4838	4838	4838	4906	4838	4838	4838	4838	4838	4838	4838	4906	4838	4838	4906	4906	4906	4906	4906	4906	4838	4838	4838	4838	4838	4838	4838	4838	4838	4838	4906	4906	4977	4906	4906	4906	4906	4906	4906	4906	4838	4906	4906	4906	4906	4838	4838	4838	4838	4838	4838	4838	4838	4838	4838	4838	4838	4838	4838	4906	4906	4906	4906	4906	4906	4906	4838	4838	4838	4838	4838	4838	4838	4838	4838	4838	4838	4838	4838	4838	4838	4838	4838	4838	4838	4906	4906	4906	4906	4838	4838	4838	4838	4838	4838	4838	4838	4838	4838	4838	4838	4838	4838	4838	4838	4906	4838	4838	4838	4838	4838	4838	4838	4838	4838	4838	4838	4838	4838	4838	4906	4838	4838	4838	4838	4838	4838	4838	4838	4771	4771	4771	4771	4771	4771	4771	4771	4771	4771	4706	4643	4581	4581	4521	4521	4581	4643	4706	4706	4706	4771	4706	4463	4463	4463	4463	4463	4463	4463	4463	4463	4463	4463	4350	4350	4406	4350	4350	0	0	0	0	0	0	3406	3406	3406	3406	3406	3406	3406	3406	3406	3406	3406	3406	3440	3406	3406	3440	3440	3440	3440	3406	3440	3440	0	0	0	0	0	0	0	0	0	0	0	0	0	4771	4771	4771	4771	4771	4643	4643	4706	4706	0	0	0	0	0	0	0	0	0	0	0	0	0	0	0	4350	4296	4350	4296	4296	4296	4350	4350	4350	4350	4296	4350	4350	4350	4350	4350	4350	0	0	0	0	0	0	0	4463	4463	4406	4406	4350	4296	4296	4296	4296	4350	4350	4350	4350	4406	4406	4350	4350	4350	4296	4296	4296	4296	4296	4296	4296	4243	4243	4243	4243	4243	4243	4192	4243	4243	4243	4243	4243	4243	4243	4243	4243	4243	4243	4243	4243	4243	4243	4243	4243	4243	4192	4192	4192	4192	4243	4243	4243	4243	4243	4243	4243	4192	4192	4192	4192	4243	4243	4243	4243	4192	4192	4243	4192	4192	4192	4192	4192	4243	4243	4192	4243	4243	4192	4243	4243	4243	4243	4296	4296	4296	4350	4406	4406	4463	4463	4521	4521	4463	4463	4296	5364	5364	5364	5364	5364	5364	5364	5364	5364	5364	5364	5364	5364	5364	5364	5364	5364	5364	5364	5364	5364	5364	5364	5282	5282	5282	5282	5282	5364	5364	5364	5364	5364	5364	5364	5282	5282	5282	5202	5202	0	0	0	0	0	0	0	0	0	0	0	0	0	0	0	0	0	0	0	0	0	0	0	0	0	0	0	0	0	0	0	0	0	0	0	0	0	0	0	0	0	0	0	0	0	0	0	0	0	0	0	0	0	0	0	0	0	0	0
0	0	0	0	0	1138	1146	1146	1146	1138	1138	1150	1157	1161	1165	1169	1169	1169	1173	1173	1173	1245	1245	1249	1249	1254	1259	1263	1268	1268	1272	1272	1272	1272	1287	1291	1291	0	0	0	0	2532	2532	2551	2551	2532	2532	2532	2551	2551	2551	2532	2532	2532	2532	2551	2551	2551	2551	2570	2570	2589	2589	2589	2589	2570	2532	2551	2532	2532	2514	2514	2514	2514	2532	0	0	0	0	0	0	0	0	0	1169	1169	1169	1165	1169	1169	1169	1169	1169	1169	1169	1173	1173	1173	1173	1185	1185	0	0	0	0	0	0	0	0	0	0	0	0	0	0	0	0	0	0	0	4906	4906	4906	4838	4838	4838	4838	4838	4838	4838	4838	4838	4838	4838	4838	4838	4838	4838	4906	4838	4838	4838	4838	4838	4838	4838	4838	4838	4906	4838	4906	4906	4838	4906	4838	4906	4906	4906	4838	4838	4838	4838	4838	4838	4838	4838	4838	4838	4838	4838	4838	4838	4838	4906	4906	4838	4838	4838	4838	4838	4838	4906	4838	4838	4838	4838	4838	4906	4838	4838	4838	4838	4838	4838	4838	4838	4838	4838	4906	4906	4906	4906	4906	4838	4838	4838	4838	4838	4838	4838	4838	4838	4906	4906	4906	4906	4977	4906	4906	4906	4906	4906	4906	4838	4838	4906	4906	4906	4906	4771	4838	4838	4838	4838	4838	4838	4906	4838	4838	4838	4838	4838	4838	4906	4906	4906	4906	4906	4906	4906	4838	4838	4838	4906	4838	4838	4838	4838	4838	4838	4838	4838	4838	4838	4838	4838	4838	4838	4838	4838	4838	4838	4838	4838	4838	4838	4838	4838	4838	4838	4838	4838	4838	4838	4838	4838	4838	4838	4838	4838	4838	4838	4838	4838	4838	4838	4838	4838	4838	4838	4838	4838	4838	4838	4838	4838	4838	4838	4838	4838	4838	4838	4838	4771	4771	4771	4771	4706	4706	4771	4771	4771	4771	4706	4643	4581	4581	4521	4521	4521	4581	4643	4643	4706	4706	4643	4463	4463	4350	4406	4406	4406	4463	4463	4406	4406	4463	4350	4350	4350	4296	4243	4243	0	0	0	0	3440	3406	3406	3406	3406	3406	3406	3406	3406	3406	3406	3406	3406	3440	3440	3440	3440	3440	3440	3440	3440	3440	3475	3475	0	0	0	0	0	0	0	0	0	0	0	0	0	0	4771	4771	4771	4643	4643	0	0	0	0	0	0	0	0	0	0	0	0	0	0	0	0	0	0	4296	4350	4296	4296	4296	4296	4350	4350	4296	4296	4296	4296	4296	4296	4296	4296	0	0	0	0	0	0	0	4463	4406	4406	4406	4350	4296	4296	4296	4296	4350	4350	4350	4350	4350	4350	4296	4296	4296	4296	4296	4296	4296	4296	4296	4296	4243	4243	4243	4243	4243	4243	4243	4243	4243	4243	4243	4243	4243	4243	4243	4243	4243	4243	4243	4243	4243	4243	4243	4243	4192	4192	4142	4192	4192	4192	4192	4192	4243	4243	4243	4243	4243	4243	4243	4243	4243	4192	4243	4243	4192	4192	4192	4192	4192	4192	4192	4192	4243	4243	4192	4243	4243	4243	4243	4243	4243	4243	4243	4296	4296	4296	4350	4406	4296	4463	4463	4463	4296	4296	4296	5364	5364	5364	5448	5448	5364	5448	5364	5364	5364	5364	5364	5364	5364	5364	5364	5364	5364	5364	5364	5364	5364	5364	5282	5282	5282	5282	5364	5364	5364	5364	5364	5364	5364	5364	5364	5364	5282	5282	5282	0	0	0	0	0	0	0	0	0	0	0	0	0	0	0	0	0	0	0	0	0	0	0	0	0	0	0	0	0	0	0	0	0	0	0	0	0	0	0	0	0	0	0	0	0	0	0	0	0	0	0	0	0	0	0	0	0	0	0
0	0	0	0	0	0	1150	1150	1142	1138	1138	1150	1157	1161	1165	1165	1169	1169	1177	1185	1185	1185	1185	1249	1249	1249	1259	1268	1268	1268	1272	1272	1277	1277	1296	1296	1311	1336	1336	0	0	0	2532	2551	2551	2551	2551	2551	2551	2570	2570	2570	2570	2551	2570	2570	2551	2551	2570	2570	2570	2589	2589	2589	2589	2570	2532	2532	2532	2532	2514	2514	2514	2514	0	0	0	0	0	0	0	0	0	1173	1169	1169	1169	1165	1169	1169	1169	1169	1165	1169	1169	1173	1169	1173	1173	1185	1185	0	0	0	0	0	0	0	0	0	0	0	0	0	0	0	0	0	0	0	0	0	4906	4838	4838	4838	4838	4838	4838	4838	4838	4838	4838	4838	4838	4838	4838	4838	4838	4838	4838	4838	4838	4838	4838	4838	4838	4838	4838	4838	4906	4906	4838	4906	4838	4906	4906	4838	4838	4838	4838	4838	4838	4838	4838	4838	4838	4838	4838	4838	4838	4838	4838	4838	4838	4838	4838	4838	4838	4838	4838	4906	4838	4838	4838	4838	4838	4838	4838	4838	4838	4838	4906	4838	4838	4906	4906	4906	4906	4906	4977	4977	4906	4906	4906	4838	4838	4838	4838	4838	4906	4838	4906	4906	4906	4906	4977	4977	4906	4906	4906	4906	4906	4838	4838	4906	4906	4906	4906	4771	4838	4838	4838	4838	4838	4838	4906	4838	4838	4838	4838	4838	4838	4838	4906	4838	4906	4906	4906	4906	4838	4838	4838	4906	4838	4838	4838	4838	4838	4838	4838	4838	4838	4838	4838	4838	4906	4838	4838	4838	4838	4906	4838	4838	4838	4838	4838	4838	4838	4838	4838	4838	4838	4838	4838	4838	4838	4838	4838	4838	4838	4838	4838	4838	4838	4838	4838	4838	4838	4838	4838	4838	4838	4838	4838	4838	4838	4838	4838	4838	4838	4838	4838	4771	4771	4771	4771	4771	4771	4771	4771	4771	4771	4706	4581	4581	4581	4521	4463	4463	4521	4581	4643	4643	4643	4581	4406	4406	4350	4406	4406	4406	4463	4463	4463	4406	4463	4406	4406	4350	4296	4243	4243	0	0	0	0	3440	3406	3406	3406	3406	3406	3406	3406	3406	3406	3406	3406	3406	3406	3406	3406	3440	3406	3406	3440	3406	3406	3406	3475	0	0	0	0	0	0	0	0	0	0	0	0	0	0	0	0	0	0	0	0	0	0	0	0	0	0	0	0	0	0	0	0	0	0	0	0	0	0	4296	4296	4296	4296	4296	4296	4296	4296	4243	4243	4243	4296	4296	4296	4296	0	0	0	0	0	0	0	4350	4350	4296	4296	4406	4296	4296	4296	4296	4350	4350	4350	4350	4350	4350	4350	4350	4296	4296	4296	4296	4296	4296	4243	4243	4243	4243	4243	4243	4243	4243	4243	4243	4243	4243	4243	4243	4243	4243	4296	4296	4296	4296	4296	4243	4243	4243	4192	4192	4192	4192	4142	4192	4142	4192	4192	4192	4192	4243	4243	4243	4243	4243	4192	4243	4243	4243	4243	4243	4192	4192	4192	4192	4142	4142	4142	4142	4192	4192	4142	4243	4243	4243	4243	4243	4243	4243	4243	4296	4296	4296	4350	4350	4296	4463	4463	4463	4296	4296	4296	4296	5448	5448	5448	5448	5364	5448	5364	5364	5364	5364	5364	5364	5364	5364	5364	5364	5364	5364	5364	5364	5364	5364	5364	5364	5282	5364	5364	5364	5364	5364	5364	5448	5364	5364	5364	5364	5364	5282	5202	5202	0	0	0	0	0	0	0	0	0	0	0	0	0	0	0	0	0	0	0	0	0	0	0	0	0	0	0	0	0	0	0	0	0	0	0	0	0	0	0	0	0	0	0	0	0	0	0	0	0	0	0	0	0	0	0	0	0	0
