0	0	0	0	839	837	841	848	850	850	850	852	852	852	854	869	873	878	878	878	878	887	889	894	896	898	901	901	903	908	913	915	920	922	925	927	930	932	937	940	940	942	942	948	948	945	945	997	997	997	1006	1006	1006	1008	1011	1011	1011	1020	1020	1017	1020	1020	1020	1026	1020	1030	1033	1033	1036	1039	1048	1052	1052	1058	1058	1061	1061	1071	1078	1085	1088	1088	1085	1088	1088	1088	1088	1390	1390	1396	1390	1390	1385	1385	1385	1385	1385	1379	1385	1379	1385	1379	1379	1379	1374	1374	1374	1374	1379	1379	1385	1385	1390	1396	1402	1402	1407	1407	1407	1407	0	0	0	0	0	0	6720	6720	6853	6853	6853	6853	6853	6853	6853	6853	6853	6853	6853	6853	6853	6853	6853	6853	6720	6853	6992	6992	6992	7137	6992	6992	7137	7137	7287	7287	7287	7287	7287	7287	7287	7137	7137	7137	7137	7137	7287	7137	7287	7287	7137	6992	6992	6992	6992	6992	6853	6853	6992	6992	0	0	0	0	0	0	0	0	6592	6592	6592	6592	6468	6592	6592	6992	6992	6992	6992	7137	7137	7137	7137	7137	7287	7137	7287	7137	7287	7137	6992	6992	6853	6853	6853	6992	7137	7137	7137	7287	7287	7444	7137	7137	7137	7137	7137	7137	7137	7137	6992	6992	6992	6992	6992	6992	6992	6853	6853	6853	6853	6720	6853	6853	6992	7137	7137	7137	7137	7137	7137	7137	7137	7287	7287	7287	7137	6992	6992	7137	7137	7137	6992	6992	6992	6992	6720	6992	6853	6992	6992	7137	7137	6992	7137	6992	6992	6992	6992	6992	6992	6992	6992	6992	6992	6992	6992	6992	6992	6992	6992	6992	7137	6992	6992	6992	6992	6992	6992	0	0	0	0	3738	3738	3738	3738	3698	3738	3698	3698	3698	3698	3698	3738	3738	3738	3738	3738	3738	3698	3738	3698	3698	0	0	0	0	0	0	0	0	0	0	3621	3621	0	0	0	0	0	0	0	0	0	0	0	0	0	0	0	0	0	0	0	0	0	0	0	0	0	0	0	7287	7287	7137	7137	7137	7137	7137	7137	7137	7137	7137	7137	7137	7137	6992	7137	7137	7137	6992	6992	7137	7137	6992	6992	6992	7137	7137	6992	6992	6992	6992	6992	6992	6992	0	7137	7137	6992	6992	0	0	0	0	0	0	0	0	7137	7137	7137	7137	7137	7137	7137	7137	7137	7137	6992	6992	6992	6992	6992	7137	7137	7137	7137	7137	7137	0	0	0	0	0	0	6992	6992	6853	6853	6720	6720	6720	6853	6992	6992	6992	7137	7287	7444	7287	7444	7444	7287	7287	6992	6992	6992	6992	6992	0	0	0	0	0	0	0	0	0	0	0	0	0	0	0	0	0	0	0	0	0	0	0	0	0	0	0	0	0	0	0	0	0	0	0	0	0	0	0	7444	7287	7444	7287	7287	7287	7287	7444	7444	0	0	0	7608	7444	7287	7287	7287	7287	7287	7287	7287	7287	0	0	0	0	0	0	0	0	0	0	0	0	0	0	0	7444	7444	0	0	0	0	0	0	0	0	0	0	0	0	0	0	0	0	0	0	0	0	0	0	0	0	0	0	0	0	0	0	0	0	0	0	0	0	0	0	0	0	0	0	0	0	0	0	0	0	0	0	0	0	0	0	0	0	0	0	0	0	2570	2570	2551	2551	0	0	0	0	0	0	0	0	0	0	0	0	0	0	0	0	0	0	0	0	0	0	0	0	0	0	0	0	0	0	0	0	0	0	0	0	0
0	0	0	835	835	837	841	845	850	850	852	852	852	854	854	869	873	875	878	878	878	884	887	891	894	896	898	898	901	905	913	915	920	922	925	927	930	937	940	942	942	945	948	948	948	945	945	945	969	969	969	1006	1006	1020	1020	1020	1020	1020	1023	1020	1023	1023	1023	1023	1023	1033	1036	1033	1036	1042	1045	1048	1052	1055	1055	1058	1061	1061	1074	1085	1088	1085	1085	1085	1088	1088	1402	1402	1396	1396	1396	1396	1390	1390	1390	1390	1390	1385	1385	1385	1385	1385	1385	1385	1379	1379	1379	1379	1379	1385	1385	1390	1396	1402	1402	1402	1407	1407	1419	1419	1419	0	0	0	0	0	6720	6720	6853	6853	6853	6853	6853	6853	6853	6853	6853	6853	6853	6853	0	0	0	0	0	0	6853	6992	6992	7137	7137	7137	7287	7287	7287	7444	7287	7287	7287	7287	7287	7137	7137	7137	7137	7137	7137	7137	7287	7287	7137	7137	7137	7137	7137	6992	6992	6992	6992	6992	0	0	0	0	0	0	0	0	0	6992	6992	6592	6592	6853	6853	6992	6992	6992	6992	6992	7137	7137	7137	7137	7137	7137	7287	7287	7287	7137	7137	6992	6853	6853	6853	6853	7137	7137	7137	7137	7137	7287	7137	7137	7137	7137	7287	7287	7137	7137	7137	7137	6992	6992	6992	6992	6992	6992	6992	6853	6992	6992	6992	6992	7137	7137	7137	7137	7137	7137	7287	7137	7137	7287	7287	7287	7137	7137	7137	7137	7137	7137	7137	7137	7137	7137	0	6992	6992	6992	7137	7137	7137	7137	7137	7137	7137	6992	6992	6992	6992	6992	6992	6992	6992	6992	6992	6992	6992	6992	6992	6992	7137	6992	6992	6992	6992	6992	0	0	0	0	3779	3738	3738	3738	3698	3698	3698	3698	3698	3698	3698	3698	3738	3738	3738	3738	3738	3738	3738	3738	3698	3698	3698	0	0	0	0	0	0	0	0	0	3659	3659	0	0	0	0	0	0	0	0	0	0	0	0	0	0	0	0	0	0	0	0	0	0	0	0	0	0	0	7287	7287	7137	7137	7287	7287	7137	7137	7137	7137	7137	7137	7137	7137	7137	7137	7137	7137	6992	6992	7137	7137	7137	7137	7137	7137	7137	7137	7137	7137	7137	6992	6992	0	0	0	0	0	0	0	0	0	0	0	0	0	0	7137	7137	7137	7287	7287	7287	7287	7287	7137	7137	7137	7137	7137	6992	7137	7137	7137	7137	7137	7137	7137	7137	0	0	0	0	0	6992	6992	6853	6853	6853	6992	7137	7137	7137	6992	7137	7137	7287	7444	7444	7444	7444	7444	7287	7137	6992	7137	6992	7137	6992	7137	7137	0	0	0	0	0	0	0	0	0	0	0	0	0	0	0	0	0	0	0	0	0	0	0	0	0	0	0	0	0	0	0	0	0	7287	7287	7444	7444	7444	7444	7287	7287	7287	7287	7444	7444	0	0	0	7608	7608	7608	7444	7444	7287	7287	7287	0	0	0	0	0	0	0	0	0	0	0	0	0	0	0	0	0	0	0	0	0	0	0	0	0	0	0	0	0	0	0	0	0	0	0	0	0	0	0	0	0	0	0	0	0	0	0	0	0	0	0	0	0	0	0	0	0	0	0	0	0	0	0	0	0	0	0	0	0	0	0	0	0	0	0	0	0	0	0	2570	2570	2551	2551	0	0	0	0	0	0	0	0	0	0	0	0	0	0	0	0	0	0	0	0	0	0	0	0	0	0	0	0	0	0	0	0	0	0	0	0	0
0	0	829	833	835	837	841	845	850	850	852	852	854	854	865	869	873	875	878	878	878	880	884	887	894	896	898	898	903	905	910	915	917	920	922	930	932	932	940	942	942	945	948	948	948	948	948	969	969	969	969	0	0	1020	1020	1020	1023	1026	1026	1023	1026	1026	1026	1023	1026	1033	1036	1036	1039	1045	1045	1048	1052	1052	1055	1058	1061	1061	1068	1085	1088	1088	1088	1085	0	1407	1407	1407	1402	1402	1402	1402	1396	1396	1396	1402	1396	1390	1390	1390	1390	1385	1385	1385	1385	1379	1379	1385	1385	1385	1385	1396	1396	1402	1407	1402	1413	1407	1407	1407	1419	0	0	0	0	0	0	0	6853	6853	6853	6853	6853	6853	6853	0	6853	6853	6853	0	0	0	0	0	0	0	6853	6992	6992	6992	6992	7137	7287	7444	7608	7444	7287	7287	7287	7287	7137	7137	7137	7137	7137	7137	7137	7137	7287	7287	7137	6992	7137	7137	7137	7137	7137	6992	7137	7137	7137	7137	0	0	0	0	0	7444	7444	7137	7137	6992	6853	6992	6992	6992	7137	7137	7137	7137	7137	7137	7137	6992	7137	7137	7287	7287	7444	7287	7137	7137	6992	6853	6853	6853	6992	7137	7137	7137	7287	7287	7287	7287	7287	7287	7287	7287	7287	7287	7287	7137	7137	7137	7137	6992	6992	6992	6853	6853	6992	6992	6992	7137	7137	7287	7287	7287	7287	7287	7287	7287	7287	7287	7444	7444	7287	7137	7287	7287	7287	7287	7287	7137	7137	7137	0	0	6992	7137	7137	7287	7137	7137	7137	7137	7137	7137	7137	7137	6992	6992	6992	6992	6992	6992	6992	6992	7137	7137	7137	7137	7137	7137	6992	6992	6992	6992	0	0	0	3779	3738	3738	3738	3698	3698	3698	3698	3698	3698	3698	3698	3698	3738	3738	3738	3738	3738	3738	3738	3738	3738	3738	3738	0	0	0	0	0	0	0	0	0	3659	3698	3698	0	0	0	0	0	0	0	0	0	0	0	0	0	0	0	0	0	0	0	0	0	0	0	0	0	0	7444	7287	7287	7287	7287	7287	7137	7137	7137	7137	7137	7137	7137	7287	7287	7287	7287	7287	7137	7137	7137	7137	7137	7137	7137	7287	7137	7137	7137	7137	7137	7137	7137	0	0	0	0	0	0	0	0	0	0	0	0	0	0	7137	7137	7137	7287	7287	7287	7287	7287	7287	7137	7137	7137	7137	7137	7137	7137	7137	7137	7137	7137	7137	6992	6992	0	0	0	0	0	0	0	7137	7137	7137	7137	7137	7137	7137	7137	7287	7287	7287	7287	7287	7287	7287	7287	7137	6992	7137	6992	6992	6992	6992	6992	0	0	0	0	0	0	0	0	0	0	0	0	0	0	0	0	0	0	0	0	0	0	0	0	0	0	0	0	0	0	0	0	7444	7444	7287	7444	7444	7444	7444	7444	7444	7444	7444	7444	7444	7608	7779	7608	7608	7608	7444	7608	7444	7444	7287	0	0	0	0	0	0	0	0	0	0	0	0	0	0	0	0	0	0	0	0	0	0	0	0	0	0	0	0	0	0	0	0	0	0	0	0	0	0	0	0	0	0	0	0	0	0	0	0	0	0	0	0	0	0	0	0	0	0	0	0	0	0	0	0	0	0	0	0	0	0	0	0	0	0	0	0	0	0	0	0	2589	2570	2551	2551	0	0	0	0	0	0	0	0	0	0	0	0	0	0	0	0	0	0	0	0	0	0	0	0	0	0	0	0	0	0	0	0	0	0	0	0	0
0	0	829	833	835	839	843	845	848	850	852	852	854	858	865	869	873	875	878	878	878	882	884	889	894	896	898	901	905	908	910	913	917	920	920	925	927	927	940	942	945	945	948	948	950	948	948	969	969	969	974	977	977	977	1026	1026	1033	1033	1030	1030	1033	1033	1033	1033	1033	1033	1036	1036	1042	1045	1048	1048	1048	1048	1058	1058	1061	1061	1068	1078	1088	1088	1088	0	1419	1419	1413	1413	1413	1407	1407	1402	1402	1402	1402	1407	1407	1402	1402	1390	1396	1396	1390	1390	1396	1396	1396	1396	1390	1396	1396	1402	1402	1402	1407	1407	1413	1407	1413	1413	1413	0	0	0	0	0	0	0	0	0	0	6853	6853	6853	0	0	0	0	6992	6992	0	0	0	0	0	0	0	7287	7287	6992	7287	7287	7444	7444	7444	7608	7444	7444	7444	7287	7137	7137	7137	7137	7137	7137	7137	7137	7137	7287	7137	6992	7287	7287	7137	7137	7137	7137	7137	7137	7137	7137	7287	7287	7444	7444	7444	7444	7444	7287	7137	7137	6992	7137	7137	7137	7137	7137	7137	7137	7137	7137	6992	6992	6992	7137	7137	7137	7287	7287	7137	7137	6992	6992	6992	6992	6992	7137	7287	7287	7287	7287	7287	7287	7287	7287	7287	7137	7137	7287	7287	7287	7137	7137	7137	6992	6992	6992	6992	6992	6992	6992	6992	7137	7137	7287	7287	7287	7287	7287	7444	7287	7287	7287	7444	7444	7287	7287	7287	7287	7287	7287	7287	7287	0	0	0	7137	7137	7137	7137	7287	7137	7137	7137	7137	7137	7137	7137	7137	7137	7137	6992	6992	6992	6992	6992	6992	7137	7137	7137	7137	7137	6992	6992	6992	6992	6992	0	0	0	3779	3738	3738	3698	3698	3698	3698	3698	3698	3698	3698	3698	3698	3738	3738	3738	3738	3738	3738	3738	3738	3738	3738	3738	0	0	0	0	0	0	0	0	3738	3698	3698	3698	0	0	0	0	0	0	0	0	0	0	0	0	0	0	0	0	0	0	0	0	0	0	0	0	0	0	7444	7287	7287	7287	7287	7287	7287	7137	7137	7287	7137	7287	7287	7287	7287	7287	7287	7287	7287	7137	7137	7137	7137	7137	7137	7287	7137	7137	7137	7137	7137	7137	7137	0	0	0	0	0	0	0	0	0	0	0	0	0	0	7137	7137	7137	7287	7287	7287	7287	7287	7287	7137	7137	7137	7137	7137	7137	7137	7137	7137	7137	7137	7137	7137	7137	7137	6992	6992	0	0	0	0	7137	7137	7137	7137	7137	7287	7137	7287	7287	7287	7287	7287	7287	7287	7287	7287	7137	7137	7137	7137	7137	7137	7137	6992	6992	7137	7137	7137	7137	0	0	0	0	0	0	0	0	0	0	0	0	0	0	0	0	0	0	0	0	0	0	0	0	0	0	0	7444	7444	7444	7444	7444	7444	7444	7444	7444	7444	7444	7444	7444	7444	7444	7779	7779	7608	7608	7779	7779	7444	0	0	0	0	0	0	0	0	0	0	0	0	0	0	0	0	0	0	0	0	0	0	0	0	0	0	0	0	0	0	0	0	0	0	0	0	0	0	0	0	0	0	0	0	0	0	0	0	0	0	0	0	0	0	0	0	0	0	0	0	0	0	0	0	0	0	0	0	0	0	0	0	0	0	0	0	0	0	0	0	0	2570	2551	2551	2551	0	0	0	0	0	0	0	0	0	0	0	0	0	0	0	0	0	0	0	0	0	0	0	0	0	0	0	0	0	0	0	0	0	0	0	0	0
0	0	829	835	835	839	848	848	850	850	852	852	854	858	865	869	871	873	875	878	878	882	884	889	894	896	901	903	905	908	910	913	915	917	920	922	927	925	925	942	942	945	948	948	953	953	961	969	969	974	974	977	977	977	1036	1036	1036	1033	1033	1030	1036	1033	1036	1036	1036	1036	1039	1042	1045	1045	1048	1048	1048	1048	1058	1061	1061	1064	1068	1074	1091	1091	1091	0	1419	1419	1413	1407	1413	1407	1407	1407	1407	1407	1407	1407	1407	1407	1396	1396	1402	1396	1396	1396	1402	1407	1407	1407	1402	1402	1402	1402	1402	1402	1402	1407	1407	1407	1407	1455	1455	1455	0	0	0	0	0	0	0	0	0	0	0	0	0	0	0	0	7137	6992	6992	0	0	0	0	0	0	7444	7444	7444	7444	7444	7444	7608	7608	7608	7444	7444	7444	0	0	0	0	0	0	0	7137	7137	7287	7287	7287	7287	7287	7287	7287	7287	7444	7287	7287	7287	7287	7287	7287	7287	7444	7444	7444	7444	7444	7287	7287	7287	7137	7137	7137	7137	7137	7137	7137	7137	7137	7137	7137	6992	6992	7137	7137	7137	7287	7137	7137	7137	7137	7137	6992	7137	7137	7137	7287	7287	7287	7287	7287	7287	7287	7287	7287	7287	7287	7287	7444	7287	7287	7137	7137	7137	7137	7137	6992	6992	6992	6992	6992	7137	7137	7287	7287	7287	7287	7287	7287	7287	7287	7287	7444	7444	7287	7287	7287	7287	7287	7287	7287	7287	0	0	0	7137	6992	7287	7287	7287	7137	7137	7137	7137	7287	7137	7137	7137	7137	7137	7137	7137	7137	7137	7137	7137	7137	7137	7137	7137	7137	6992	6992	6992	0	0	0	0	0	3738	3738	3738	3698	3698	3698	3698	3738	3698	3698	3698	3698	3698	3738	3738	3779	3779	3779	3738	3738	3738	3738	3738	3738	0	0	0	0	0	0	0	0	3738	3738	3698	3738	3779	3779	3779	0	0	0	0	0	0	0	0	0	0	0	0	0	0	0	0	0	0	0	0	7608	7608	7608	7444	7444	7444	7444	7287	7287	7287	7287	7137	7287	7287	7287	7287	7287	7287	7287	7287	7287	7287	7287	7137	7137	7137	7137	7287	7287	7287	7287	7287	7287	7287	7137	7137	0	0	0	0	0	0	0	0	0	0	0	0	0	0	0	7137	7137	7287	7287	7287	7287	7287	7287	7287	7137	7137	7137	7137	7137	7137	7137	7137	7287	7137	7137	7137	7137	6992	6992	6992	0	0	0	0	7137	7137	7137	7137	7287	7287	7137	7137	7287	7287	7287	7137	7287	7287	7287	7287	7137	7137	7137	7137	7137	7137	7137	7137	7137	7137	7137	7137	7137	0	0	0	0	0	0	0	0	0	0	0	0	0	0	0	0	0	0	0	0	0	0	0	0	7444	7444	7608	7444	7444	7444	7608	7444	7444	7444	7444	7444	7444	7444	7444	7444	7444	7608	7779	7779	7608	7608	7608	7608	0	0	0	0	0	0	0	0	0	0	0	0	0	0	0	0	0	0	0	0	0	0	0	0	0	0	0	0	0	0	0	0	0	0	0	0	0	0	0	0	0	0	0	0	0	0	0	0	0	0	0	0	0	0	0	0	0	0	0	0	0	0	0	0	0	0	0	0	0	0	0	0	0	0	0	0	0	0	0	0	0	0	2570	2551	2551	2551	0	0	0	0	0	0	0	0	0	0	0	0	0	0	0	0	0	0	0	0	0	0	0	0	0	0	0	0	0	0	0	0	0	0	0	0	0
0	0	827	829	835	837	837	848	850	850	852	852	856	862	867	869	869	873	875	878	878	884	887	889	894	896	896	901	905	908	910	913	915	917	917	925	925	945	945	942	945	945	945	948	950	955	958	972	972	974	977	977	977	977	977	977	1039	1039	1036	1033	1039	1039	1039	1036	1039	1042	1045	1042	1045	1048	1048	1048	1052	1052	1058	1058	1061	1064	1071	1078	1085	1085	1085	0	0	1419	1413	1413	1419	1413	1413	1413	1413	1413	1413	1413	1419	1402	1402	1402	1407	1407	1407	1407	1413	1425	1419	1413	1407	1413	1413	1413	1413	1407	1407	1407	1443	1443	1449	1449	1449	1455	1455	0	0	0	0	0	0	0	0	0	0	0	0	0	0	0	7137	6992	6992	0	0	0	0	0	0	7444	7444	7444	7444	7444	7444	7444	7444	7444	7444	7444	7444	0	0	0	0	0	0	0	7137	7287	7287	7287	7287	7287	7287	7287	7287	7444	7444	7444	7444	7444	7287	7444	7287	7287	7444	7444	7444	7444	7444	7287	7287	7287	7137	7137	7137	7137	7137	7287	7137	7137	7287	7137	7137	6992	6992	7137	7137	7137	7287	7137	7137	7137	7137	7137	7137	7137	7137	7137	7287	7287	7444	7287	7287	7287	7287	7287	7287	7444	7287	7287	7444	7444	7287	0	0	7137	7137	7137	0	0	0	0	0	0	7137	7287	7287	7287	7287	7287	7287	7287	7287	7287	7444	7444	7287	7287	7287	7287	7444	7287	7287	0	0	7287	7287	7137	7137	7137	7137	7137	7137	7137	7137	7137	7287	7287	7287	7287	7287	7137	7137	7137	7137	7137	7137	7137	7137	7137	0	0	0	0	0	3864	3864	3864	3864	3864	3821	3821	3738	3738	3698	3738	3698	3698	3738	3698	3698	3698	3698	3698	3738	3779	3779	3779	3779	3779	3738	3779	3738	3738	3738	3738	3738	0	0	0	3779	3779	3738	3738	3738	3738	3738	3779	3779	3779	3779	0	0	0	0	0	0	0	0	0	0	0	0	0	0	0	0	0	0	0	7608	7608	7608	7444	7444	7444	7444	7287	7444	7287	7287	7287	7287	7287	7287	7287	7287	7287	7287	7287	7287	7287	7287	7137	7137	7137	7137	7287	7287	7287	7137	7287	7287	7287	7137	7137	0	0	0	0	0	0	0	0	0	0	0	0	0	0	0	7137	7287	7287	7287	7287	7444	7287	7287	7287	7287	7287	7287	7287	7137	7287	7137	7287	7287	7287	7287	7287	7137	6992	6992	6992	0	0	0	0	0	0	0	0	7287	7287	7287	7287	7287	7287	7137	7137	7287	7287	7287	7287	7137	7137	7137	7287	7287	7137	7137	7287	7287	7287	7287	7137	7137	7137	0	0	0	0	0	0	0	0	0	0	0	0	0	0	0	0	0	0	0	0	0	0	0	7444	7444	7444	7444	7444	7444	7444	7444	7444	7444	7444	7444	7444	7444	7608	7608	7444	7779	7779	7779	7608	7779	7779	7779	0	0	0	0	0	0	0	0	0	0	0	0	0	0	0	0	0	0	0	0	0	0	0	0	0	0	0	0	0	0	0	0	0	0	0	0	0	0	0	0	0	0	0	0	0	0	0	0	0	0	0	0	0	0	0	0	0	0	0	0	0	0	0	0	0	0	0	0	0	0	0	0	0	0	0	0	0	0	0	0	0	0	2589	2570	2551	2551	0	0	0	0	0	0	0	0	0	0	0	0	0	0	0	0	0	0	0	0	0	0	0	0	0	0	0	0	0	0	0	0	0	0	0	0	0
0	0	827	837	837	843	843	848	848	850	852	852	854	862	862	867	869	873	873	878	878	884	887	887	891	896	898	901	905	908	910	913	915	917	917	922	922	940	942	942	942	945	945	948	950	955	961	961	972	977	977	977	977	977	977	977	977	1045	1045	1042	1045	1045	1045	1042	1042	1045	1045	1045	1048	1048	1048	1048	1052	1052	1058	1058	1061	1064	1074	1081	1085	1088	1088	0	0	1419	1413	1413	1419	1419	1413	1419	1419	1425	1425	1419	1425	1407	1407	1407	1407	1407	1407	1407	1419	1419	1431	1425	1419	1425	1425	1419	1419	1425	1437	1443	1443	1449	1449	1449	1455	1455	1461	1461	0	0	0	0	0	0	0	0	0	0	0	0	0	0	7137	6992	6992	0	0	0	0	0	0	7444	7444	7444	7287	7287	7444	7444	7444	7444	7444	7444	7444	7608	7608	0	0	0	0	0	7287	7287	7287	7287	7287	7287	7287	7287	7287	7444	7444	7444	7444	7444	7444	7444	7444	7444	7444	7444	7444	7444	7444	7287	7287	7287	7137	7137	7137	7137	7287	7287	7287	7287	7444	7137	7287	7137	7137	7137	7137	7287	7444	7287	7287	7137	7137	7137	7137	7137	7137	7287	7444	7444	7444	7444	7444	7444	7444	7287	7287	7444	7287	7444	7444	7444	0	0	0	0	0	0	0	0	0	0	0	0	0	0	7287	7287	7287	7287	7287	7287	7287	7287	7444	7608	7608	7608	7608	7608	7608	7608	7608	0	0	7287	7137	7137	7137	7137	7137	7137	7137	7137	7137	7137	7287	7287	7287	7287	7287	7137	7137	7137	7137	7137	7137	7137	7137	0	0	0	0	0	3821	3821	3864	3864	3864	3821	3821	3821	3738	3738	3738	3738	3698	3698	3698	3698	3698	3698	3738	3698	3738	3779	3779	3779	3779	3779	3779	3779	3738	3738	3738	3698	3698	0	0	0	3738	3738	3779	3738	3779	3779	3779	3779	3738	3779	3779	0	0	0	0	0	0	0	0	0	0	0	0	0	0	0	0	0	7444	7608	7608	7608	7608	0	0	0	0	0	7444	7287	7287	7287	7287	7287	7287	7287	7287	7287	7287	7287	7287	7287	7287	7287	7287	7287	7287	7287	7287	7287	7287	7287	7287	7287	7287	7287	0	0	0	0	0	0	0	0	0	0	0	0	0	0	7287	7287	7287	7287	7287	7287	7287	7287	7287	7287	7287	7287	7287	7287	7287	7287	7287	7287	7287	7287	7287	7287	7287	7287	6992	6992	0	0	0	0	0	0	0	0	7287	7287	7287	7287	7287	7287	7137	7444	7444	7444	7444	7287	7287	7287	7287	7287	7287	7287	7287	7287	7137	7287	7287	7287	7137	7137	0	0	0	0	0	0	0	0	0	0	0	0	0	0	0	0	0	0	0	0	0	0	0	7444	7444	7444	7444	7444	7444	7444	7444	7444	7444	7608	7608	7444	7444	7608	7608	7608	7779	7779	7779	7779	7779	7779	7779	0	0	0	0	0	0	0	0	0	0	0	0	0	0	0	0	0	0	0	0	0	0	0	0	0	0	0	0	0	0	0	0	0	0	0	0	0	0	0	0	0	0	0	0	0	0	0	0	0	0	0	0	0	0	0	0	0	0	0	0	0	0	0	0	0	0	0	0	0	0	7608	7444	7444	0	0	0	0	0	0	0	0	0	2570	2551	2551	2551	0	0	0	0	0	0	0	0	0	0	0	0	0	0	0	0	0	0	0	0	0	0	0	0	0	0	0	0	0	0	0	0	0	0	0	0	0
0	0	827	831	839	839	845	848	848	848	852	852	858	862	862	867	869	873	875	878	880	880	884	889	891	894	896	896	905	908	910	910	913	917	920	922	922	922	942	945	945	945	948	950	950	953	955	955	972	977	977	977	977	977	977	977	991	991	1045	1045	1045	1045	1045	1045	1045	1048	1045	1045	1048	1048	1048	1048	1048	1058	1058	1058	1061	1064	1074	1081	1085	1085	1088	1088	0	1419	1419	1419	1425	1425	1425	1425	1425	1431	1431	1431	1437	1443	1413	1413	1413	1413	1437	1437	1425	1443	1443	1431	1431	1431	1437	1431	1431	1431	1443	1449	1449	1449	1449	1449	1455	1455	1461	1461	0	0	0	0	0	0	0	0	0	0	0	0	0	7137	7137	6992	6992	0	0	0	0	0	7608	7608	7444	7444	7444	7287	7444	7444	7444	7608	7608	7608	7608	7608	7608	0	0	0	0	0	7287	7137	7287	7287	7444	7444	7444	7444	7444	7444	7608	7444	7444	7444	7444	7444	7287	7287	7444	7444	7444	7444	7444	7287	7287	7287	7287	7137	7137	7137	7287	7444	7444	7444	7444	7444	7287	7287	7137	0	0	7444	7444	7444	7444	7287	7287	7287	7287	7287	7287	7444	7608	7608	7608	7444	7444	7444	7287	7287	7287	7287	7444	7444	7444	7444	0	0	0	0	0	0	0	0	0	0	0	0	0	0	7287	7444	7444	7444	7287	7287	7287	7287	7444	7444	7608	7444	7608	7608	7608	7608	7608	7608	7287	7287	7287	7137	7137	7137	7137	7137	7137	7137	7137	7137	7137	7287	0	0	0	0	7137	7137	7137	7137	7137	7137	0	0	0	0	3738	3738	3779	3779	3779	3779	3821	3821	3821	3779	3738	3738	3698	3738	3698	3698	3698	3698	3698	3698	3738	3698	3779	3779	3779	3779	3779	3779	3738	3779	3738	3738	3738	3738	3738	3738	3738	3738	3738	3779	3779	3779	3779	3779	3779	3779	3779	3779	3779	0	0	0	0	0	0	0	0	0	0	0	0	0	0	0	0	0	7608	7608	7608	7608	7608	0	0	0	0	0	7444	7287	7444	7287	7287	7287	7287	7287	7287	7287	7287	0	0	0	7287	7287	7287	7137	7287	7287	7287	7287	7287	7287	7287	7287	7287	7287	7287	0	0	0	0	0	0	0	0	0	0	0	0	7287	7287	7287	7287	7287	7287	7444	7444	7444	7287	7444	7287	7287	7287	7287	7287	7287	7287	7287	7287	7287	7287	7287	7287	7287	0	0	0	0	0	0	0	0	0	0	0	0	0	0	0	0	7287	7287	7444	7444	7287	7287	7287	7287	7287	7444	7444	7287	7287	7287	7287	7287	7287	7287	7287	7287	0	0	0	0	0	0	0	0	0	0	0	0	0	0	0	0	0	0	0	0	0	0	0	7444	7444	7444	7444	7444	7444	7608	7608	0	0	7608	7608	0	0	7608	7608	7608	7779	7959	7959	7779	7779	7959	7959	7959	0	0	0	0	0	0	0	0	0	0	0	0	0	0	0	0	8343	8343	8343	8343	8146	8146	8146	0	0	0	0	0	0	0	0	0	0	0	0	0	0	0	0	0	0	0	0	0	0	0	0	0	0	0	0	0	0	0	0	0	0	0	0	0	0	0	0	0	0	0	0	0	0	7608	7608	7444	7444	0	0	0	0	0	0	0	0	2532	2532	2532	2532	0	0	0	0	0	0	0	0	0	0	0	0	0	0	0	0	0	0	0	0	0	0	0	0	0	0	0	0	0	0	0	0	0	0	0	0	0
0	0	827	829	835	835	848	850	848	850	852	852	852	860	865	867	869	873	875	875	878	882	887	889	889	891	896	896	896	908	910	910	913	917	920	920	920	920	940	945	945	948	950	950	953	955	958	958	969	969	974	977	977	977	977	991	991	991	1045	1045	1045	1048	1048	1045	1048	1052	1048	1048	1048	1052	1055	1052	1052	1061	1061	1061	1064	1071	1078	1085	1085	1085	1085	1088	1088	0	1419	1437	1443	1437	1431	1437	1443	1437	1437	1443	1449	1455	1449	1449	1449	1449	1449	1449	1449	1449	1443	1437	1443	1443	1443	1449	1449	1449	1449	1449	1449	1449	1449	1449	1455	1455	1461	1461	1467	1467	0	0	0	0	0	0	0	0	0	0	7137	7137	7137	7137	7137	7137	7444	7608	7608	7608	7608	7608	7608	7444	7444	7444	7444	7444	7444	7608	7608	7608	7608	7608	7608	0	0	0	0	0	7287	7287	7287	7444	7444	7444	7444	7444	7444	7444	7608	7444	7444	7608	7444	7444	7444	7287	7287	7287	7287	7287	7444	7444	7287	7287	7287	7287	7137	7137	7287	7444	7444	7444	7444	7444	7444	7444	0	0	0	7608	7608	7444	7444	7287	7287	7287	7287	7287	7287	7444	7608	7444	7444	7287	7287	7287	7287	7287	7287	7287	7444	7444	7444	7444	7444	0	0	0	0	0	0	0	0	0	0	0	0	0	0	7444	7444	7444	7287	7287	7287	7287	7287	7444	7444	7444	7608	7608	7608	7444	7608	7444	7444	7444	7287	7287	7137	7137	7137	7137	7137	7137	7137	7137	7137	0	0	0	0	0	0	0	0	0	0	0	0	0	3738	3738	3738	3738	3738	3738	3779	3738	3779	3779	3779	3779	3738	3738	3738	3738	3738	3698	3698	3698	3698	3698	3738	3738	3738	3779	3821	3779	3779	3779	3779	3779	3738	3738	3738	3738	3738	3738	3738	3738	3779	3779	3779	3779	3779	3779	3779	3779	3779	3779	3738	3738	0	0	0	0	0	0	0	0	0	0	0	0	0	0	0	0	7608	7608	7608	7608	7608	0	0	0	0	0	0	0	7287	7287	7287	7287	7287	7287	7287	0	0	0	0	0	0	0	7287	7137	7287	7287	7287	7287	7287	7287	7287	7287	7287	7287	7444	7444	0	0	0	0	0	0	0	0	0	0	0	7287	7287	7287	7287	7444	7444	7444	7444	7444	7287	7287	7287	7287	7287	7287	7287	7287	7287	7444	7287	7444	7287	7444	7287	7137	7137	7137	0	0	0	0	0	0	0	0	0	0	0	0	0	7287	7287	7287	7444	7444	7444	7287	7287	7287	7444	7444	7444	7287	7444	7287	7287	7444	7287	7287	7287	7287	7287	0	0	0	0	0	0	0	0	0	0	0	0	0	0	0	0	0	0	0	0	0	0	7608	7608	7608	7608	7444	7444	7779	7779	7779	0	0	0	0	0	7779	7779	7608	7779	7959	7959	7779	7959	7959	7959	7959	7959	7959	7959	0	7959	7779	7959	7959	7959	0	0	0	0	0	8146	8343	8343	8343	8343	8146	8146	8146	8146	0	0	0	0	0	0	0	0	0	0	0	0	0	0	0	0	0	0	0	0	0	0	0	0	0	0	0	0	0	0	0	0	0	0	0	0	0	0	0	0	0	0	0	0	0	0	7608	7608	7608	7608	0	0	0	0	0	0	0	0	2532	2532	2532	2532	0	0	0	0	0	0	0	0	0	0	0	0	0	0	0	0	0	0	0	0	0	0	0	0	0	0	0	0	0	0	0	0	0	0	0	0	0
0	0	0	829	835	845	848	850	848	850	850	852	852	858	862	865	869	869	873	875	878	878	884	887	889	891	896	896	896	908	910	913	915	917	920	922	922	927	927	945	945	948	950	950	953	955	958	958	969	969	974	977	977	977	983	994	994	994	1048	1048	1048	1052	1048	1048	1052	1055	1052	1055	1055	1058	1061	1058	1071	1068	1068	1068	1074	1078	1081	1085	1085	1085	1085	1085	1085	0	0	1455	1455	1455	1455	1455	1455	1449	1455	1449	1455	1455	1455	1455	1455	1455	1461	1455	1455	1455	1455	1443	1449	1449	1449	1455	1455	1455	1455	1455	1455	1455	1455	1455	1461	1461	1467	1467	1467	1473	1480	1480	0	0	0	0	0	0	0	7137	6992	7137	7137	6992	6992	7137	7444	7608	7608	7779	7608	7608	7444	7444	7444	7444	7444	7444	7444	7608	7608	7779	7779	7608	7608	7608	0	0	0	7287	7287	7444	7287	7444	7444	7444	7608	7608	7608	7608	7608	7608	7608	7608	7608	7444	7287	7287	7287	7287	7444	7444	7444	7444	7287	7287	7608	7608	7608	0	7444	7608	7608	7608	7608	7608	7608	7608	0	0	0	7608	7287	7287	7287	7287	7287	7287	7137	7287	7287	7444	7608	7608	7444	7444	7444	7287	7287	7287	7287	7287	7287	7287	7287	7444	7444	0	0	0	0	0	0	0	0	0	0	0	0	0	0	7444	7444	7444	7287	7287	7287	7137	7444	7444	7444	7608	7608	7608	7608	7608	7608	7608	7608	7444	7287	7287	7287	7287	7287	7137	7137	0	0	0	0	0	0	0	0	0	0	0	0	0	0	0	0	3738	3738	3738	3738	3738	3738	3738	3738	3738	3738	3779	3738	3738	3738	3738	3738	3738	3738	3698	3698	3698	3698	3698	3698	3698	3738	3738	3779	3779	3779	3738	3738	3738	3779	3738	3738	3738	3738	3738	3738	3738	3779	3779	3779	3779	3779	3779	3779	3779	3779	3779	3779	3779	0	0	0	0	0	0	0	0	0	0	0	0	0	0	0	7608	7608	7779	7608	7608	7608	0	0	0	0	0	0	0	7444	7287	7287	7287	7287	7287	0	0	0	0	0	0	0	0	0	0	7287	7287	7287	7287	7287	7287	7444	7444	7444	7444	7444	7608	7608	0	0	0	0	0	0	0	0	0	0	7444	7287	7287	7287	7444	7444	7444	7444	7444	7444	7444	7287	7287	7287	7287	7287	7444	7444	7608	7444	7444	7444	7444	7287	7287	7137	7287	7287	0	0	0	0	0	0	0	0	0	0	0	7444	7444	7444	7444	7444	7608	7608	7444	7444	7287	7444	7608	7444	7444	7444	7444	7444	7444	7444	7287	7287	7444	7444	0	0	0	0	0	0	0	0	0	0	0	0	0	0	0	0	0	0	0	0	0	0	7608	7608	7608	7779	7608	7779	7779	7959	7959	0	0	0	0	7779	7608	7608	7608	7779	7959	7959	7959	7959	8146	8146	7959	7959	7959	7959	7959	7959	7779	7779	7779	7959	8146	8146	0	8146	8146	8146	8146	8146	8146	8146	8146	8146	7959	7959	0	7959	7959	0	0	0	0	0	0	0	0	0	0	0	0	0	0	0	0	0	0	0	0	0	0	0	0	0	0	0	0	0	0	0	0	0	0	0	0	0	0	0	0	0	7779	7608	7608	7608	7608	7608	0	0	0	0	0	0	0	0	2532	2532	2532	2532	0	0	0	0	0	0	0	0	0	0	0	0	0	0	0	0	0	0	0	0	0	0	0	0	0	0	0	0	0	0	0	0	0	0	0	0	0
0	0	0	0	0	845	848	850	850	850	850	850	854	854	860	860	867	869	873	875	878	880	884	887	889	891	894	898	898	905	910	913	917	920	922	922	925	925	935	942	942	948	950	950	950	953	958	958	966	969	974	977	977	980	983	991	994	994	994	1048	1048	1052	1048	1048	1052	1052	1058	1058	1064	1068	1071	1071	1071	1074	1081	1078	1078	1081	1085	1085	1085	1081	1081	1085	1085	0	0	1461	1461	1461	1461	1461	1461	1455	1455	1455	1455	1455	1461	1461	1467	1467	1467	1467	1455	1449	1461	1449	1461	1455	1455	1455	1455	1455	1455	1455	1455	1455	1455	1461	1461	1461	1467	1467	1473	1473	1480	1480	1480	0	0	0	0	0	0	6992	6992	7137	7137	6992	6992	7137	7444	7608	7608	7959	7608	7608	7608	7608	7444	7444	7444	7444	7444	7608	7608	7779	7779	7779	7779	7779	7779	7608	7444	7444	7444	7444	7444	7444	7444	7608	7608	7608	7608	7608	7608	7608	7608	7608	7444	7444	7287	7287	7287	7287	7444	7444	7444	7444	7444	7444	7608	7608	7608	7608	7608	7608	7608	7608	7608	7608	7608	7608	0	0	0	0	7287	7444	7444	7287	7287	7287	7137	7137	7287	7608	7608	7608	7608	7444	7444	7444	7444	7444	7287	7287	7287	7287	7287	0	0	0	0	0	0	0	0	0	0	0	0	0	0	0	0	0	0	7444	7444	7444	7444	7287	7444	7444	7444	7608	7608	7608	7608	7608	7608	7608	7608	7608	7444	7444	7444	7287	7287	7137	7137	0	0	0	0	0	0	0	0	0	0	0	0	0	0	3738	3738	3738	3738	3698	3738	3738	3738	3738	3738	3738	3738	3738	3738	3738	3738	3738	3698	3738	3738	3698	3698	3698	3698	3698	3698	3698	3738	3738	3738	3738	3738	3738	3738	3779	3779	3738	3738	3738	3738	3738	3738	3738	3779	3779	3779	3779	3779	3779	3779	3779	3779	3779	3738	3738	3738	0	0	0	0	0	0	0	0	0	0	0	0	0	0	7608	7608	7779	7608	7608	7608	0	0	0	0	0	7608	7608	7444	7444	7444	7444	0	0	0	0	0	0	0	0	0	0	0	0	0	0	0	0	7287	7287	7779	7608	7608	7608	7608	7608	7608	0	0	0	0	0	0	0	0	0	7444	7287	7287	7287	7287	7287	7608	7444	7444	7444	7444	7444	7287	7287	7287	7287	7444	7444	7608	7608	7608	7608	7608	7608	7287	7287	7137	7137	7137	0	0	0	0	0	0	0	0	0	0	0	7444	7444	7444	7444	7608	7608	7608	7608	7608	7608	7608	7608	7444	7444	7444	7444	7444	7444	7444	7287	7287	7444	7444	0	0	0	0	0	0	0	0	0	0	0	0	0	0	0	0	0	0	0	0	0	0	7779	7779	7608	7779	7608	7608	7959	7959	7959	0	0	0	7959	7779	7779	7779	7779	7779	7959	7959	7959	7959	8146	8146	8146	7959	7959	7959	7959	7959	7779	7779	7779	7959	8146	8146	8146	8146	8146	8146	8146	8146	8146	8146	8146	8146	7959	7959	7959	7959	7959	7959	7959	0	0	0	0	0	0	0	0	0	0	0	0	0	0	0	0	0	0	0	0	0	0	0	0	0	0	0	0	0	0	0	0	0	0	0	0	0	0	0	7779	7779	7779	7608	7608	0	0	0	0	0	0	0	0	0	2514	2532	2514	2514	0	0	0	0	0	0	0	0	0	0	0	0	0	0	0	0	0	0	0	0	0	0	0	0	0	0	0	0	0	0	0	0	0	0	0	0	0
0	0	0	0	0	0	0	852	852	852	852	852	854	854	860	862	867	869	871	875	878	880	882	887	891	891	894	896	896	901	908	913	920	922	925	925	922	930	935	935	942	945	950	950	953	955	958	963	963	963	972	977	977	983	988	988	991	991	991	1006	1011	1011	1048	1045	1045	1071	1068	1074	1081	1081	1081	1078	1078	1081	1085	1081	1081	1081	1085	1085	1081	1085	1081	1085	1085	0	0	1473	1467	1467	1467	1467	1467	1461	1461	1461	1461	1461	1467	1473	1473	1473	1473	1473	1473	1467	1467	1467	1467	1467	1467	1461	1461	1467	1461	1461	1461	1455	1455	1461	1467	1467	1467	1473	1473	1480	1480	1480	1480	0	0	0	0	0	0	6992	6992	6992	6992	6992	7137	7287	7444	7608	7608	7779	7608	7608	7608	7444	7444	7287	7287	7287	7444	7608	7608	7779	7959	7779	7779	7779	7779	7779	7608	7444	7444	7444	7444	7444	7608	7608	7608	7608	7608	7608	7608	7608	7608	7608	7444	7444	7287	7287	7287	7287	7608	7608	7608	7608	7608	7608	7608	7608	7608	7608	7608	7608	7608	7608	7779	7779	7779	0	7779	7779	7779	7779	7608	7444	7444	7287	7287	7287	7137	7137	7444	7608	7608	7608	7608	7608	7608	7608	7608	7608	7444	7444	7444	7444	7287	0	0	0	0	0	0	7608	7608	0	0	0	0	0	0	0	0	0	0	0	7444	7444	7444	7444	7444	7444	7444	7608	7608	7608	7608	7608	7608	7608	7608	7444	7444	7444	7444	7444	7287	7287	7137	0	0	0	0	0	0	0	0	0	0	0	0	0	3738	3698	3738	3738	3738	3738	3738	3738	3738	3738	3738	3779	3738	3738	3738	3738	3738	3738	3738	3698	3738	3698	3698	3698	3698	3698	3698	3698	3698	3738	3738	3738	3738	3738	3738	3738	3738	3738	3738	3738	3738	3738	3738	3738	3779	3779	3779	3779	3779	3779	3779	3779	3779	3779	3738	3738	3738	3738	0	0	0	0	0	0	0	0	0	0	0	0	0	7608	7608	7779	7608	7608	7608	0	0	0	0	0	7608	7608	7444	7444	7444	7608	7608	0	0	0	0	0	0	0	0	0	0	0	0	0	0	0	0	7779	7779	7608	7779	7608	7608	7608	7608	7608	7608	7608	0	0	0	0	0	0	7444	7444	7444	7287	7287	7608	7608	7444	7444	7608	7444	7444	7287	7444	7444	7444	7444	7608	7608	7779	7608	7608	7608	7608	7287	7287	7137	7137	7137	0	0	0	0	0	0	0	0	0	0	0	0	7444	7444	7608	7608	7779	7779	7779	7779	7608	7608	7608	7444	7444	7444	7444	7444	7444	7444	7444	7444	7444	7444	0	0	0	0	0	0	0	0	0	0	0	0	0	0	0	0	0	0	0	0	0	0	7779	7779	0	0	0	7959	7959	7959	7959	0	7779	7959	7959	7959	7779	7779	7779	7959	7959	7959	7959	7959	8146	8146	8146	7959	7959	7959	7959	0	0	0	0	0	8146	8146	8146	8146	8146	8146	8146	8146	8146	8146	7959	7959	7959	7959	7959	8146	7959	7959	7959	7959	0	0	0	0	0	0	0	0	0	0	0	0	0	0	0	0	0	0	0	0	0	0	0	0	0	0	0	0	0	0	0	0	0	7779	7779	7779	7779	7779	7779	7608	7608	0	0	0	0	0	0	0	0	0	0	0	2514	2532	2532	2532	0	0	0	0	0	0	0	0	0	0	0	0	0	0	0	0	0	0	0	0	0	0	0	0	0	0	0	0	0	0	0	0	0	0	0	0	0
0	0	0	0	0	0	0	852	852	852	852	854	856	858	860	862	867	869	871	875	878	880	884	887	889	891	894	896	896	896	905	913	922	922	925	925	925	930	932	932	935	937	945	950	953	953	955	958	963	966	972	977	977	980	983	983	991	991	1000	1008	1011	1011	1023	1030	1074	1074	1074	1081	1081	1085	1081	1081	1078	1085	1085	1081	1081	1085	1085	1085	1081	1085	1081	1085	1085	0	0	1480	1480	1480	1473	1480	1473	1467	1473	1473	1473	1473	1480	1480	1480	1480	1480	1480	1480	1473	1473	1473	1473	1473	1473	1467	1467	1467	1467	1467	1461	1467	1473	1480	1473	1473	1473	1480	1480	1486	1486	1486	1486	0	0	0	0	0	0	6992	6992	6992	6992	6992	6992	7137	7287	7444	7608	7959	7959	7959	7608	7444	7444	7287	7287	7287	7444	7779	7779	7779	7959	7959	7959	7779	7779	7779	7608	7444	7444	7444	7444	7444	7608	7608	7608	7608	7608	7608	7608	7608	7608	7608	7444	7444	7444	7608	7608	7608	7608	7608	7779	7608	7608	7779	7779	7608	7608	7608	7608	7608	7608	7779	7779	7779	7959	7959	7959	7779	7779	7779	7608	7608	7608	7444	7287	7287	7137	7137	7608	7608	7779	7779	7608	7608	7779	7608	7608	7608	7608	7608	7608	7608	0	0	0	0	0	0	7608	7608	7608	7608	7444	7444	7444	7444	7608	7608	0	0	0	0	0	0	7444	7444	7608	7608	7444	7608	7608	7608	7608	7608	7608	7608	7608	7444	7444	7444	7444	7444	7444	7287	0	0	0	0	0	0	0	0	0	0	0	0	0	3738	3738	3738	3738	3738	3738	3738	3738	3738	3738	3738	3738	3779	3738	3738	3738	3738	3738	3738	3738	3698	3698	3698	3698	3698	3698	3738	3698	3698	3698	3738	3738	3738	3738	3738	3738	3738	3738	3738	3738	3738	3738	3698	3738	3738	3779	3779	3779	3779	3779	3779	3779	3738	3779	3779	3738	3738	3779	3779	0	0	0	0	0	0	0	0	0	0	0	0	0	7608	7608	7779	7608	7608	0	0	0	0	0	0	0	0	7444	7608	7608	7608	7608	7608	7779	7779	7779	7779	7779	7779	0	0	0	0	0	0	0	0	7608	7779	7779	7779	7779	7779	7608	7608	7608	7608	7608	7608	7608	7608	7779	7779	7608	7444	7444	7444	7287	7287	7287	7444	7444	7444	7444	7608	7444	7444	7444	7444	7444	7444	7444	7608	7608	7779	7779	7779	7608	7608	7608	7608	7287	7287	0	0	0	0	0	0	0	0	0	7287	7287	7287	7444	7444	7608	7608	7779	7779	7779	7779	7779	7608	7608	7779	7608	7608	7444	7444	7444	7608	7444	7444	7444	7444	7444	0	0	0	0	0	0	0	0	0	0	0	0	0	0	0	0	0	0	0	0	0	0	0	0	0	0	0	7959	7959	7959	7959	8146	7959	7959	7959	7959	7779	7959	7959	7959	8146	8146	8146	7959	0	0	0	0	0	0	0	0	0	0	0	0	0	0	8146	8146	8146	8146	8146	0	0	0	7959	7959	7959	7959	7959	8146	8146	8146	8146	8146	8146	0	0	0	0	0	0	0	0	0	0	0	0	0	0	0	0	0	0	0	0	0	0	0	0	0	0	0	0	0	0	0	0	7959	7959	7959	7779	7779	7779	7779	7779	0	0	0	0	0	0	0	0	0	0	0	2514	2532	2532	2532	0	0	0	0	0	0	0	0	0	0	0	0	0	0	0	0	0	0	0	0	0	0	0	0	0	0	0	0	0	0	0	0	0	0	0	0	0
0	0	0	0	0	0	0	850	850	852	852	852	854	858	858	862	867	871	871	875	878	880	882	887	889	889	894	894	894	896	898	903	903	922	922	925	927	930	930	930	935	937	945	950	953	955	955	958	963	966	969	977	980	980	983	983	991	991	1003	1011	1014	1014	1023	1030	1026	1026	1078	1085	1085	1085	1081	1081	1081	1081	1081	1081	1078	1078	1078	1078	1078	1081	1081	1081	1081	0	0	1480	1480	1486	1480	1480	1480	1473	1480	1480	1480	1480	1486	1480	1480	1480	1480	1480	1480	1480	1473	1473	1473	1473	1473	1467	1467	1473	1473	1473	1467	1473	1480	1480	1480	1480	1480	1486	1492	1499	1499	1506	1525	1525	1532	1532	0	0	0	6992	6853	6853	6992	6992	7137	7287	7287	7444	7608	7779	7608	7608	7608	0	0	0	0	0	0	7779	7779	7779	7959	7959	7959	7779	7779	7779	7608	7444	7608	7444	7444	7444	7444	7608	7779	7779	7608	7608	7608	7608	7444	7608	7444	7444	7444	7444	7608	7608	7779	7779	7779	7608	7779	7779	7779	7779	7779	7608	7608	7608	7608	7779	7779	7779	7959	7959	7959	7959	7779	7779	7779	7608	7608	7444	7444	7444	7137	7137	7608	7608	7608	7779	7608	7608	7779	7779	7779	7779	7779	7608	7608	7608	0	0	0	0	0	0	7608	7608	7608	7608	7608	7608	7608	7608	7608	7608	7608	0	0	0	0	0	0	0	7608	7608	7608	7608	7608	7608	7608	7608	7608	7608	7608	7608	7444	7444	7608	7608	7608	7608	0	0	0	0	0	0	0	0	0	0	0	0	3698	3698	3738	3738	3738	3738	3738	3698	3738	3698	3738	3738	3738	3738	3738	3738	3738	3738	3738	3738	3698	3698	3698	3698	3698	3738	3738	3738	3698	3698	3698	3738	3738	3738	3738	3738	3738	3738	3738	3738	3738	3738	3738	3698	3738	3738	3738	3738	3779	3779	3779	3779	3779	3738	3738	3738	3779	3779	3779	3779	3779	0	0	0	0	0	0	0	0	0	0	0	0	7779	7779	7779	7608	7608	0	0	0	0	0	0	0	0	7608	7779	7608	7608	7779	7779	7779	7779	7779	7779	7779	7779	0	0	0	0	0	0	0	0	7779	7779	7779	7779	7779	7779	7779	7608	7608	7608	7608	7608	7608	7779	7779	7779	7779	7779	7444	7444	7444	7287	7287	7287	7444	7444	7444	7444	7444	7444	7444	7444	7608	7608	7608	7779	7608	7779	7779	7779	7608	7608	7608	7608	7287	7608	7608	0	0	0	0	0	0	0	7444	7287	7444	7444	7608	7608	7608	7608	7779	7779	7779	7779	7779	7779	7779	7779	7608	7608	7608	7444	7608	7608	7444	7444	7444	7444	7444	0	0	0	0	0	0	0	0	0	0	0	0	0	0	0	0	0	0	0	0	0	0	0	0	0	0	0	7959	7959	7959	7959	7959	7959	7959	7959	7959	7959	7959	7959	8146	7959	7959	7959	0	0	0	0	0	0	0	0	0	0	0	0	0	0	0	8146	8146	7959	7959	8146	0	0	0	7959	7959	7959	7959	7959	8146	8146	8146	8146	8146	8146	0	0	0	0	0	0	0	0	0	0	0	0	0	0	0	0	0	0	0	0	0	0	0	0	0	0	0	0	0	0	0	8146	7959	7959	7959	7959	7779	7779	7779	7779	0	0	0	0	0	0	0	0	0	0	0	0	2551	2532	2532	0	0	0	0	0	0	0	0	0	0	0	0	0	0	0	0	0	0	0	0	0	0	0	0	0	0	0	0	0	0	0	0	0	0	0	0	0
0	0	0	0	0	0	852	852	852	852	852	852	854	856	860	860	865	869	871	878	880	882	882	887	887	889	889	896	898	898	903	905	922	922	922	925	925	930	930	932	935	937	945	950	955	955	958	961	963	963	969	974	977	977	983	985	991	991	1006	1011	1014	1017	1020	1023	1023	1023	1078	1074	1078	1081	1078	1078	1078	1081	1081	1081	1078	1078	1078	1078	1078	1078	1078	1078	1078	0	0	1486	1492	1492	1492	1486	1480	1486	1486	1480	1480	1480	1486	1486	1486	1480	1480	1486	1486	1480	1480	1486	1480	1480	1480	1473	1480	1486	1486	1480	1486	1486	1486	1486	1486	1486	1486	1492	1492	1499	1499	1506	1525	1532	1532	1532	0	0	0	0	6853	6853	6992	6992	6992	7287	7444	7444	7608	7608	7608	7779	7779	0	0	0	0	0	0	0	7779	7779	7779	7959	7959	7779	7779	7779	7608	7444	7608	7608	7608	7608	7608	7779	7779	7779	7779	7779	7779	7779	7608	7608	7444	7444	7444	7444	7608	7608	7779	7779	7779	7779	7779	7779	7779	7779	7779	7779	7608	7608	7779	7779	7779	7779	7959	7959	7959	7959	7959	7779	7779	7608	7608	7444	7287	7444	7287	7287	7608	7608	7608	7608	7608	7608	7608	7779	7779	7779	7779	7779	7779	7779	7779	0	0	0	0	7779	7779	7608	7608	7608	7779	7608	7608	7608	7779	7779	7779	0	0	0	0	0	0	0	7779	7779	7608	7779	7779	7779	7779	7608	7608	7608	7608	7608	7608	7608	7608	7608	7608	7608	0	0	0	7608	7608	7608	7608	0	0	0	0	3738	3698	3698	3738	3698	3698	3738	3738	3738	3738	3698	3738	3738	3738	3738	3738	3738	3738	3738	3738	3698	3698	3698	3698	3698	3698	3698	3698	3738	3698	3698	3698	3738	3738	3698	3738	3738	3738	3738	3738	3738	3738	3738	3738	3738	3738	3738	3738	3738	3779	3779	3779	3779	3779	3779	3738	3738	3738	3779	3779	3779	3779	3779	0	0	0	0	0	0	0	0	0	7608	7608	7779	7779	7779	7608	7608	0	0	0	0	0	0	0	0	7779	7779	7779	7779	7779	7779	7779	7779	7779	7779	7779	7779	0	0	0	0	0	0	0	0	7779	7779	7779	7779	7779	7779	7779	7608	7779	7608	7608	7779	7779	7779	7959	7779	7779	7779	7779	7444	7444	7287	7287	7287	7444	7444	7444	7608	7444	7608	7608	7608	7608	7608	7779	7779	7779	7779	7779	7779	7608	7608	7608	7608	7444	7608	7608	7608	7608	7608	7608	7608	0	0	7608	7287	7287	7444	7608	7608	7608	7608	7779	7779	7779	7779	7779	7779	7779	7779	7608	7608	7608	7608	7608	7608	7608	7608	7608	7608	7444	0	0	0	0	0	0	0	0	0	0	0	0	0	0	0	0	0	0	0	0	0	0	0	0	0	0	7959	7959	7959	7959	7959	7959	8146	8146	8146	7959	7959	7959	7959	7959	7959	7959	8146	8146	0	0	0	0	0	0	0	0	0	0	0	0	0	0	0	0	7959	7959	0	0	0	0	0	7959	7959	8146	8146	8343	8343	8343	8343	8343	8343	8343	0	0	0	0	0	0	0	0	0	0	0	0	0	0	0	0	0	0	0	0	0	0	0	0	0	0	0	0	0	0	8146	7959	7959	7959	7959	7779	7779	7779	0	0	0	0	0	0	0	0	0	0	0	0	0	2551	2532	2532	0	0	0	0	0	0	0	0	0	0	0	0	0	0	0	0	0	0	0	0	0	0	0	0	0	0	0	0	0	0	0	0	0	0	0	0	0
0	0	0	0	0	0	854	854	852	852	852	852	854	858	860	860	865	869	869	873	880	882	884	884	887	887	889	894	894	901	905	905	922	922	922	925	927	930	932	935	935	940	942	950	953	955	958	961	963	963	969	974	980	980	983	985	991	991	1006	1011	1020	1017	1020	1023	1023	1023	1030	1030	1030	1078	1078	1074	1074	1078	1078	1074	1078	1078	1078	1078	1078	1078	1078	1078	1078	0	0	1486	1499	1506	1506	1506	1499	1499	1492	1499	1492	1486	1492	1486	1486	1486	1486	1492	1492	1486	1492	1499	1499	1492	1492	1486	1492	1492	1492	1486	1486	1492	1492	1492	1492	1492	1499	1499	1506	1506	1512	1519	1532	1539	1539	1546	1553	1560	1560	0	0	0	6992	6992	6992	7444	7444	7444	7444	7608	7608	7608	7608	0	0	0	0	0	0	0	7779	7779	7779	7959	7959	7959	7959	7779	7779	7779	7779	7779	7779	7779	7779	7779	7779	7779	7779	7779	7779	7779	7608	7608	7608	7608	7608	7608	7608	7608	7779	7779	7779	7779	7779	7779	7779	7779	7779	7779	7779	7608	7779	7779	7779	7779	7959	7959	7959	7959	7959	7779	7608	7608	7444	7444	7287	7444	7287	7287	7608	7608	7608	7608	7608	7608	7608	7779	7779	0	7779	7608	7608	7608	7608	0	0	0	0	7779	7779	7608	7779	7959	7959	7779	7779	7779	7779	7779	7779	0	0	0	0	0	0	0	7779	7779	7779	7779	7779	7779	7779	7779	7779	7608	7608	7608	7608	7608	7608	7608	7608	7608	7608	7608	7608	7779	7608	7608	7608	0	0	0	0	3698	3698	3738	3738	3698	3698	3738	3738	3698	3698	3738	3738	3738	3738	3738	3738	3738	3738	3738	3738	3698	3698	3698	3698	3698	3698	3698	3698	3698	3698	3698	3698	3738	3738	3738	3738	3738	3738	3738	3738	3738	3738	3738	3738	3738	3738	3779	3779	3779	3738	3779	3779	3779	3779	3779	3738	3738	3738	3779	3779	3779	3779	3779	0	0	0	0	0	7779	7779	7779	7779	7779	7779	7779	7779	7779	7608	7608	0	0	0	0	0	0	0	0	7779	7779	7779	7779	7779	7779	7779	7779	7779	7779	7779	7779	0	0	0	0	0	0	0	0	7779	7779	7779	7779	7779	7779	7779	7608	7779	7779	7779	7779	7779	7959	7959	7959	7959	7959	7779	7444	7444	7287	7287	0	7444	7444	7444	7608	7608	7608	7608	7608	7608	7779	7779	7779	7779	7779	7779	7779	7779	7608	7608	7608	7444	7608	7608	7608	7779	7608	7608	7608	0	0	7608	7287	7287	0	0	7779	7779	7779	7779	7779	7779	7779	7779	7779	7779	7959	7779	7779	7779	7779	7779	7779	7779	7779	7779	7608	7779	7779	0	0	0	7608	7608	7608	7779	7779	0	0	0	0	0	0	0	0	0	0	0	0	0	0	0	0	0	7959	8146	8146	8146	7959	0	8146	8146	8146	8146	8146	7959	7959	7959	8146	8146	8146	8146	0	0	0	0	0	0	0	0	0	0	0	0	0	0	0	0	0	0	0	0	0	0	0	7959	8146	8343	8343	8343	8550	8343	8343	8343	8343	8343	0	0	0	0	0	0	0	0	0	0	0	0	0	0	0	0	0	0	0	0	0	8146	8146	8146	0	0	0	0	0	8146	8146	7959	7959	7959	7959	7779	7779	7779	0	0	0	0	0	0	0	0	0	0	0	0	0	2532	2532	2532	0	0	0	0	0	0	0	0	0	0	0	0	0	0	0	0	0	0	0	0	0	0	0	0	0	0	0	0	0	0	0	0	0	0	0	0	0
0	0	0	0	0	0	854	852	852	852	852	852	860	860	860	860	867	869	869	878	882	882	884	884	887	887	889	894	896	901	905	910	920	922	922	925	927	932	932	935	937	940	942	948	950	955	958	961	963	966	969	977	980	980	983	985	991	994	1006	1011	1014	1014	1020	1020	1023	1023	1026	1026	1026	1074	1074	1074	1074	1074	1074	1074	1074	1078	1078	1074	1074	1074	1074	1074	1078	0	0	1506	1506	1512	1512	1512	1512	1512	1506	1512	1499	1506	1506	1499	1492	1492	1492	1492	1499	1499	1519	1512	1512	1506	1499	1499	1506	1506	1499	1499	1499	1499	1499	1499	1499	1499	1506	1506	1506	1512	1519	1525	1532	1539	1539	1546	1553	1553	1553	1553	0	0	0	0	0	7444	7444	7444	7608	7608	7608	7608	7608	7608	0	0	0	0	0	0	0	0	0	0	0	7959	7779	7779	7779	7779	7779	7779	7779	7779	7779	7779	7779	7779	7779	7779	7779	7779	7608	7608	7608	7608	7608	7608	7608	7608	7779	7779	7779	7779	7779	7779	7779	7779	7779	7779	7779	7779	7779	7779	0	0	0	7959	7959	7959	7779	7779	7608	7444	7444	7444	7444	7444	7444	7287	7444	7444	7444	7444	7444	7444	7608	7608	0	0	7779	7608	7779	7779	7959	7779	7779	7779	7779	7779	7608	7608	7779	7779	7959	7779	7779	7779	7779	7779	7779	7779	0	0	0	0	0	0	0	7779	7779	7779	7779	7779	7779	7779	7779	7779	7608	7608	7608	7608	7608	7608	7608	7608	7608	7608	7608	7779	7608	7608	7608	0	0	0	0	3698	3698	3738	3738	3738	3738	3738	3738	3738	3738	3738	3738	3738	3738	3738	3738	3698	3698	3698	3738	3698	3698	3698	3698	3698	3698	3698	3698	3698	3698	3698	3698	3738	3738	3738	3738	3738	3738	3738	3738	3738	3738	3738	3738	3738	3738	3779	3779	3779	3779	3779	3779	3779	3779	3779	3779	3779	3779	3779	3779	3779	3779	3821	3821	0	0	0	7608	7608	7959	7779	7779	7779	7779	7779	7779	7779	7608	7608	0	0	0	0	7779	7959	7959	7959	7779	7779	7779	7779	7779	7779	7779	7779	7779	7779	7779	7779	7779	0	0	0	0	0	0	0	0	0	7959	7959	7959	7959	7959	7959	7779	7779	7779	7779	7779	7779	7959	7959	7959	7959	0	0	0	0	0	0	0	0	0	0	7608	7608	7608	7608	7608	7779	7779	7779	7779	7779	7779	7779	7779	7608	7608	7608	7608	7608	7608	7608	7779	7779	7779	7608	0	0	0	0	0	0	0	7779	7779	7779	7779	7779	7779	7779	7959	7959	7959	7959	7779	7779	7608	7779	7779	7779	7779	7779	7779	7779	7779	7779	0	0	0	7779	7779	7608	7608	7608	0	0	0	0	0	0	0	0	0	0	0	0	0	0	0	0	0	8146	8146	8146	8146	0	0	0	0	8146	8146	8146	8146	8146	8146	8146	8146	8146	0	0	0	0	0	0	0	0	0	0	0	0	0	0	0	0	0	0	0	0	0	0	0	8146	8146	8146	8146	8550	8550	8550	8550	8343	8343	8343	0	0	0	0	0	0	0	0	0	0	0	0	0	0	0	0	0	0	0	0	0	8146	8146	8146	8146	8146	0	0	0	8146	8146	8146	7959	7959	7959	7959	7959	7779	7959	7959	0	0	0	0	0	0	0	0	0	0	0	0	2532	2551	2551	0	0	0	0	0	0	0	0	0	0	0	0	0	0	0	0	0	0	0	0	0	0	0	0	0	0	0	0	0	0	0	0	0	0	0	0	0
0	0	0	0	0	850	850	852	852	852	852	854	860	860	860	860	867	869	871	875	882	880	884	887	887	887	891	894	901	901	903	905	922	920	922	925	927	930	932	935	937	940	942	948	950	953	955	961	963	966	969	977	983	983	985	988	991	994	1003	1008	1011	1017	1020	1020	1023	1023	1026	1026	1026	1071	1071	1071	1071	1074	1074	1074	1074	1074	1074	1074	1074	1074	1074	1074	0	0	0	1519	1519	1519	1519	1519	1519	1519	1519	1519	1506	1512	1506	1506	1499	1499	1499	1499	1512	1519	1525	1525	1525	1519	1512	1519	1519	1512	1506	1506	1506	1506	1499	1499	1499	1506	1506	1506	1512	1512	1519	1532	1532	1539	1546	1553	1553	1553	1560	1560	1567	1567	0	0	0	0	7444	7608	7608	7608	7608	7608	7608	7608	7608	7444	7444	0	0	0	0	0	0	0	0	0	7779	7779	7779	7779	7779	7779	7779	7779	7779	7779	7779	7779	0	7779	7779	7779	7779	7608	7608	7608	7779	7779	7608	7608	7608	7779	7779	7779	7779	7779	7779	7959	7779	7779	7779	7779	7779	0	0	0	0	0	0	7779	7779	7779	7608	7444	7444	7444	7444	7608	7608	7608	7608	7444	7444	7444	7608	7608	7608	7608	0	0	7779	7959	7959	7959	7959	7779	7779	7779	7779	7779	7608	7608	7779	7779	7959	7959	7779	7779	7779	7959	7959	7779	0	0	0	0	0	0	0	0	0	0	7779	7779	7779	7608	7779	7779	7608	7608	7608	7608	7608	7779	7608	7779	7608	7779	7779	7779	7779	7779	7779	0	0	0	3738	3738	3738	3738	3738	3738	3698	3698	3738	3738	3738	3738	3698	3698	3698	3698	3698	3698	3698	3698	3738	3698	3698	3698	3698	3698	3698	3698	3698	3698	3698	3698	3698	3698	3738	3738	3738	3738	3738	3738	3738	3738	3738	3738	3738	3738	3738	3779	3779	3779	3738	3738	3738	3738	3779	3779	3779	3738	3738	3779	3779	3779	3821	3821	3821	0	0	0	7608	7779	7959	7959	7959	7959	7959	7959	7959	7779	0	0	0	0	0	7959	7959	7959	7959	7959	7959	7959	7779	7779	7779	7779	7779	7779	7779	7779	7779	7779	7779	0	0	0	0	0	0	0	0	0	7959	7959	7779	7779	7959	7959	7779	7779	7779	7779	7779	7959	7959	7959	7959	7959	0	0	0	0	0	0	0	0	0	0	0	7608	7608	7608	7608	7779	7779	7779	7779	7779	7959	7959	7959	7959	7779	7779	7779	7779	7779	7608	7779	7779	7779	0	0	0	0	0	0	0	0	7779	7779	7779	7779	7779	7779	7779	7779	7779	7779	7959	7779	7608	7608	7779	7779	7779	7779	7779	7779	7779	7779	0	0	0	0	7779	7779	7779	7779	7779	7608	7779	7779	0	0	0	0	0	0	0	0	0	0	0	0	0	0	8146	8146	8146	8146	8146	0	0	0	8146	7959	8146	7959	8146	8146	8146	8146	8146	0	0	0	0	0	0	0	0	0	0	0	0	0	0	0	0	0	0	0	8146	8146	7959	8146	8146	8146	8146	8146	8550	8550	8550	8343	8550	8550	8343	0	0	0	0	0	0	0	0	0	0	0	0	0	0	0	0	8146	8146	8146	8146	8146	8146	8146	8146	8146	8146	7959	7959	7959	7959	7959	7959	7959	7959	7959	7959	7959	7959	7779	7779	0	0	0	0	0	0	0	0	0	0	0	0	0	2551	2551	0	0	0	0	0	0	0	0	0	0	0	0	0	0	0	0	0	0	0	0	0	0	0	0	0	0	0	0	0	0	0	0	0	0	0	0	0
0	0	0	0	0	848	845	850	852	850	852	854	858	858	858	860	862	869	869	875	882	880	884	887	887	887	894	896	901	901	903	905	920	920	922	922	925	925	932	935	937	940	942	948	948	955	958	961	963	966	969	977	983	983	985	988	994	1000	1003	1008	1017	1017	1020	1023	1026	1026	1030	1030	1036	1048	1061	1068	1068	1071	1074	1074	1074	1074	1074	1074	1074	1074	1074	1074	0	0	0	1519	1525	1525	1525	1525	1525	1519	1519	1519	1512	1519	1512	1512	1506	1506	1519	1519	1532	1525	1525	1525	1532	1525	1525	1532	1525	1519	1512	1512	1512	1512	1506	1506	1506	1519	1525	1525	1525	1525	1525	1532	1532	1532	1546	1560	1560	1560	1567	1567	1574	1574	0	0	0	0	0	7608	7608	7779	7608	7608	7608	7608	7608	7608	7608	7444	7444	0	0	0	0	0	0	0	7779	7779	7779	7779	7779	7779	7779	7779	7779	7779	7779	0	0	0	0	7779	7959	7779	7779	7779	7779	7779	7779	7779	7779	7779	7779	7959	7959	7779	7959	7959	7779	7779	7779	7779	0	0	0	0	0	0	0	7779	7779	7779	7608	7444	7444	7444	0	7608	7608	7608	7608	7444	7608	7608	7608	7608	7608	7608	0	0	7779	7959	7959	7959	7959	7779	7779	7779	7779	7779	7608	7608	7959	7779	7959	7959	7779	7779	7779	7959	7959	0	0	0	0	0	0	0	0	0	0	0	7779	7779	7779	7779	7779	7779	7608	7608	7608	7608	7608	7608	7779	7779	7608	7779	7779	7779	7779	7779	7779	0	0	0	3738	3738	3738	3738	3738	3738	3738	3738	3738	3738	3698	3698	3698	3698	3698	3698	3698	3698	3698	3698	3698	3698	3698	3698	3698	3698	3698	3698	3659	3659	3698	3659	3659	3698	3698	3738	3738	3738	3738	3738	3738	3738	3738	3738	3779	3738	3779	3779	3779	3779	3738	3738	3779	3738	3738	3738	3738	3779	3779	3779	3821	3779	3821	3821	3821	3821	0	7608	7608	7779	7959	7779	7779	7959	7959	7959	7959	0	0	0	0	0	7959	7959	7959	7959	7959	7959	7959	7959	7779	7779	7779	7779	7779	7779	7779	7779	7779	7779	7779	7779	0	0	0	0	0	0	0	0	7959	7959	7959	7959	7959	7959	7779	7959	7959	7959	7959	7959	7959	7959	7959	7959	0	0	0	0	0	0	0	0	0	0	0	7779	7779	7779	7779	7779	7779	7779	7608	7608	7779	7779	7779	7779	7608	7779	7779	7779	7779	0	0	0	0	0	0	0	0	0	0	0	0	0	7779	7608	7608	7779	7779	7779	7779	7779	7959	7959	7779	7779	7608	7608	7779	7779	7779	7779	7959	7779	7959	7959	7959	7959	7959	7779	7959	7779	7959	7959	7959	7959	7959	7959	0	0	0	0	0	0	0	0	0	0	0	8343	8343	8146	8146	8146	7959	7959	7959	7959	0	8146	8146	8146	8146	8146	8146	7959	8146	8146	0	0	0	0	0	0	0	0	0	0	0	0	0	0	0	0	0	0	0	8146	8146	8146	8146	8146	8146	8146	8146	8146	8550	8550	8550	8550	8550	0	0	0	0	0	0	0	0	0	0	0	0	0	0	0	0	8146	8146	8146	8146	8146	8146	8146	8146	8146	8146	8146	8146	7959	8146	8146	8146	8146	7959	7959	7959	8146	7959	7959	7779	7779	7779	7779	0	0	0	0	0	0	0	0	0	0	0	2551	2551	0	0	0	0	0	0	0	0	0	0	0	0	0	0	0	0	0	0	0	0	0	0	0	0	0	0	0	0	0	0	0	0	0	0	0	0	0
0	0	0	0	0	848	845	850	852	852	854	854	858	858	858	860	862	867	873	875	878	878	884	887	889	889	896	898	903	901	905	908	920	920	922	922	925	925	927	935	937	942	945	948	948	955	955	961	963	966	969	980	983	985	985	988	994	1000	1003	1008	1011	1014	1017	1020	1023	1026	1030	1033	1036	1055	1064	1064	1064	1068	1071	1074	1074	1078	1078	1078	1074	1074	1074	1074	0	0	0	1532	1532	1532	1532	1532	1532	1532	1525	1525	1519	1525	1525	1525	1532	1532	1532	1532	1532	1532	1532	1546	1539	1539	1539	1539	1539	1532	1532	1525	1525	1525	1519	1512	1519	1525	1532	1539	1532	1532	1532	1532	1532	1546	1553	1560	1560	1560	1567	1567	1574	1574	0	0	0	0	0	0	7608	7608	7608	7608	7608	7608	7608	7608	7608	7444	7444	0	0	0	0	0	0	0	0	7779	7779	7779	7779	7779	7779	7779	7779	7779	7779	0	0	0	0	0	7959	7779	7779	7779	7779	7779	7779	7779	7779	7779	7779	7959	7959	0	7959	7959	0	0	0	0	0	0	0	0	0	0	0	7779	7779	7779	7608	7444	7444	7444	0	7608	7608	7779	7779	7779	7608	7608	7779	7779	7608	0	0	0	0	7959	7959	7959	7959	7779	7779	7779	7779	7779	7608	7608	7959	7959	7959	7959	7779	7779	7779	7779	7959	7959	7959	0	0	0	0	0	0	0	0	0	8146	7779	7779	7779	7779	7779	7608	7608	7608	7959	7959	7959	7779	7959	7959	7779	7779	7779	7779	0	0	0	0	0	3779	3738	3738	3738	3738	3738	3738	3738	3738	3738	3738	3698	3698	3698	3698	3698	3698	3698	3698	3698	3698	3698	3698	3698	3698	3698	3698	3698	3659	3659	3698	3659	3659	3698	3698	3738	3738	3738	3738	3738	3738	3738	3738	3738	3779	3738	3779	3738	3738	3738	3738	3738	3738	3738	3738	3779	3779	3779	3779	3779	3821	3779	3821	3779	3779	3779	3779	7608	7779	7779	7959	7959	7959	7959	7959	7959	0	0	0	0	0	0	7959	7959	7959	7959	7959	7959	7959	7959	7779	7779	7779	7779	7779	7779	7959	7959	7959	7959	7959	7959	0	0	0	0	0	0	0	0	7959	7959	7959	7959	7959	7959	7959	7959	7959	7959	7959	7959	7959	7959	7959	7959	7959	0	0	0	0	0	0	0	0	0	0	7779	7779	7779	7779	7779	7779	7779	7779	7779	7779	7779	7779	7779	7779	7779	7779	7779	7779	0	0	0	0	0	0	0	0	0	0	0	0	7779	7779	7779	7608	7779	7779	7779	7779	7779	7959	7959	7779	7779	7779	7608	7779	7779	7779	7779	7779	7959	7959	7959	7959	7959	7959	7959	7959	7959	7959	8146	8146	8146	7959	8146	8146	8146	0	0	0	0	0	0	0	0	0	8343	8343	8146	8146	8146	7959	7959	7959	8146	8146	8146	8146	8343	8146	8146	8146	8146	8146	8146	8146	8146	0	0	0	8146	8146	0	0	0	8550	8550	8550	0	0	0	0	0	8146	8146	8146	8146	8146	8146	8146	8146	8343	8550	8550	8550	8550	8550	8550	0	0	0	0	0	0	0	0	0	0	0	0	8146	8146	0	8146	8146	8146	8146	8146	8146	8146	8146	8146	8146	8146	8146	8146	8146	8146	8146	8146	7959	7959	7959	7959	8146	8146	7959	7959	7959	7959	7959	0	0	0	0	0	0	0	0	0	0	2532	2532	2551	2551	0	0	0	0	0	0	0	0	0	0	0	0	0	0	0	0	0	0	0	0	0	0	0	0	0	0	0	0	0	0	0	0	0	0	0	0
0	0	0	0	0	0	0	852	852	852	854	856	858	856	856	860	862	867	873	878	882	878	884	887	889	891	898	898	903	903	905	908	915	920	922	922	922	925	925	935	940	945	945	948	948	953	955	961	963	966	972	980	983	985	985	994	997	1000	1006	1008	1011	1014	1017	1020	1026	1026	1036	1039	1039	1052	1064	1064	1064	1068	1068	1074	1074	1078	1078	1078	1078	1078	1078	1074	0	0	0	1532	1539	1539	1532	1532	1532	1532	1532	1532	1532	1539	1546	1539	1539	1546	1546	1553	1553	1553	1553	1553	1553	1546	1546	1546	1546	1539	1539	1532	1539	1539	1539	1539	1546	1553	1553	1560	1532	1532	1532	1532	1546	1546	1553	1560	1560	1560	1567	1567	1581	1581	0	0	0	0	0	0	7608	7608	7608	7608	7608	7608	7608	7608	7608	7608	7608	7608	0	0	0	0	0	0	0	0	0	7959	7779	7779	7779	7779	7779	7779	7959	7959	0	0	0	0	0	7779	7779	7779	7779	7779	7779	7779	7779	0	0	0	0	0	0	0	0	0	0	0	0	0	0	0	0	0	0	0	0	0	0	0	0	0	0	0	0	7779	7779	7779	0	0	7779	7779	0	0	0	0	8146	7959	7959	7959	7959	7959	7959	7779	7779	7779	7779	7779	7779	7779	7779	7779	7779	7779	7779	7959	7959	7779	7779	0	0	0	0	0	0	0	0	8146	8146	7779	7779	7779	7779	7779	7779	7779	7779	7779	8146	8146	0	7959	7959	0	0	0	0	0	0	0	0	0	3738	3738	3738	3738	3738	3738	3738	3738	3738	3738	3738	3698	3698	3698	3698	3698	3698	3698	3698	3698	3698	3698	3698	3698	3698	3698	3698	3698	3659	3659	3698	3698	3698	3698	3738	3738	3738	3738	3738	3738	3738	3738	3738	3738	3738	3738	3738	3738	3738	3738	3738	3738	3779	3738	3738	3779	3779	3779	3779	3779	3779	3779	3779	3779	3779	3779	3779	0	7779	7779	7959	7959	7959	7959	7959	7959	0	0	0	0	0	0	8146	7959	7959	7959	7959	7959	7959	7959	7959	7959	7959	7959	7959	7959	7959	7959	7959	7959	7959	7959	7959	7959	7959	7959	7959	7959	7959	7959	7959	7959	7959	7959	7959	7959	8146	7959	7959	7959	7959	7959	7959	7959	7959	7959	7959	7959	7959	0	0	0	0	0	0	0	0	7779	7779	7779	7779	7779	7779	7779	7779	7779	7779	7779	7779	7779	7779	7779	7779	7779	7779	0	0	0	0	0	0	0	0	0	0	0	7959	7959	7779	7779	7779	7779	7779	7779	7959	7959	7959	7959	7959	7779	7959	7779	7779	7779	7779	7959	8146	7959	7959	8146	7959	8146	7959	7959	7959	7959	7959	8146	8146	8146	8146	8550	8343	8343	0	0	0	0	0	0	0	8550	8343	8343	8343	8146	8146	7959	7959	7959	7959	7959	8550	8550	8550	8550	8343	8146	8146	8146	8146	8146	8146	8343	8343	0	0	8146	8343	8343	8343	8343	8550	8550	8550	0	0	0	0	0	8146	8146	8146	8146	8146	8146	8146	8146	8146	8343	8550	8550	8550	8550	8550	0	0	0	0	0	0	0	0	0	8146	8146	8146	8146	8343	8343	8146	8146	8146	8146	8146	8146	8146	8146	8146	8343	8343	8343	8146	8146	8146	8146	8146	7959	8146	8146	8146	8146	8146	7959	7959	7959	7959	7959	7959	0	0	0	0	0	0	0	0	0	2532	2532	2532	2551	0	0	0	0	0	0	0	0	0	0	0	0	0	0	0	0	0	0	0	0	0	0	0	0	0	0	0	0	0	0	0	0	0	0	0	0
0	0	0	0	0	0	0	852	852	852	854	856	858	856	858	862	865	869	873	878	880	880	880	884	887	889	894	896	903	903	905	908	915	917	922	922	925	927	927	932	942	945	945	945	948	953	955	958	963	963	974	977	983	983	985	988	997	1000	1006	1008	1011	1017	1020	1023	1026	1026	1036	1039	1042	1052	1061	1064	1064	1068	1071	1071	1071	1074	1078	1078	1078	1078	1078	0	0	0	0	0	1539	1539	1539	1532	1532	1532	1539	1532	1539	1560	1560	1560	1553	1553	1553	1560	1560	1560	1553	1553	1560	1560	1560	1560	1560	1553	1553	1546	1546	1553	1553	1553	1553	1560	1560	1560	1560	1560	1560	1553	1553	1553	1560	1567	1567	1560	1567	1574	1581	1581	0	0	0	0	0	0	7608	7444	7444	7444	7444	7608	7608	7608	7608	7608	7608	7608	0	0	0	0	0	0	0	0	0	7959	7959	7959	7959	7959	7959	7959	7959	7959	0	0	0	0	0	7779	7959	7959	7959	7959	7779	7779	7779	0	0	0	0	0	0	0	0	0	0	0	0	0	0	0	0	0	0	0	0	0	0	0	0	0	0	0	0	0	7779	7779	0	0	0	0	0	0	7959	8146	8146	8146	8146	7959	7959	7959	7959	7779	7779	7779	7779	7779	7779	7779	7779	7779	7779	7779	7779	7779	7959	7959	7959	7959	0	0	0	0	0	0	0	8146	8146	7779	7779	7779	7959	7959	7779	7779	8146	8146	8146	8146	8146	7959	7959	0	0	0	0	0	0	0	0	0	3779	3738	3738	3738	3738	3738	3738	3738	3738	3738	3698	3698	3698	3698	3698	3698	3698	3698	3698	3698	3698	3698	3659	3698	3698	3698	3659	3698	3698	3698	3659	3659	3659	3698	3698	3738	3738	3738	3738	3738	3698	3698	3738	3738	3738	3738	3738	3738	3738	3738	3738	3738	3738	3738	3738	3779	3738	3738	3779	3779	3779	3779	3779	3779	3779	3779	3779	3738	3738	7779	8146	8146	8146	8146	8146	7959	0	0	0	0	0	8146	8146	8146	8146	8146	8146	7959	7959	7959	7959	7959	7959	7959	7959	7959	7959	7959	7959	7959	7959	7959	7959	7959	7959	7959	8146	8146	8146	7959	8146	7959	7959	7959	8146	8146	8146	7959	7959	7959	7959	7959	7959	7959	7959	7959	7959	7959	7959	0	0	0	0	0	0	0	7959	7959	7779	7779	7779	7779	7779	7779	7779	7959	7779	7959	7959	7959	7779	7779	7959	7959	7959	7959	0	0	0	0	0	0	0	0	0	7959	7959	7779	7779	7779	7779	7779	7779	7779	7959	7959	7959	7959	7959	7959	7959	7959	7959	7959	7779	7959	8146	8146	8146	8146	8146	7959	7959	7959	7959	7779	7959	8146	8146	8146	8146	8343	8343	8343	8343	0	0	0	0	8550	8550	8550	8550	8550	8550	8146	8146	8146	7959	7959	8146	8146	8550	8550	8550	8550	8343	8343	8146	8146	8343	8343	8343	8343	8343	8146	8146	8146	8343	8343	8550	8550	8550	8550	8550	8550	8550	8550	8550	0	0	8343	8343	8146	8146	8146	8343	8343	8343	8343	8550	8343	8550	8146	8146	7959	7959	0	0	0	0	0	0	8146	8146	8146	8343	8146	8343	8343	8146	8146	8146	8146	8146	8146	8146	8343	8343	8343	8343	8343	8146	8146	8146	8146	8146	8146	8146	8146	8146	8146	8146	8146	7959	7959	7959	8146	8146	8146	0	0	0	0	0	0	0	0	0	2532	2532	0	0	0	0	0	0	0	0	0	0	0	0	0	0	0	0	0	0	0	0	0	0	0	0	0	0	0	0	0	0	0	0	0	0	0	0	0
0	0	0	0	0	0	0	850	850	850	852	854	856	856	858	862	867	871	878	880	882	880	882	884	887	889	894	898	898	898	905	910	917	917	922	922	925	925	930	937	940	942	942	948	948	955	955	958	961	966	972	974	983	983	985	985	991	1000	1006	1008	1011	1011	1020	1023	1026	1026	1036	1039	1039	1048	1061	1064	1064	1064	1068	1071	1071	1074	1074	1074	1078	1078	0	0	0	0	0	0	0	0	1546	1546	1546	1546	1539	1546	1546	1553	1553	1560	1560	1560	1560	1567	1574	1567	1567	1567	1567	1574	1574	1567	1567	1567	1567	1567	1574	1574	1567	1567	1567	1574	1574	1567	1567	1567	1567	1567	1560	1560	1560	1574	1574	1567	1574	1581	1589	1596	1611	1611	0	0	0	0	7608	7444	7444	7608	7608	7608	7608	7608	7779	7779	7779	7779	0	0	0	0	0	0	0	0	0	7959	7959	7959	7959	7959	7959	7959	7959	7959	0	0	0	0	0	7959	7959	7959	7959	7959	7959	7959	7959	0	0	0	0	0	0	0	0	0	0	0	0	0	0	0	0	0	0	0	0	0	0	0	0	0	0	0	0	0	0	0	0	0	0	0	0	7779	7959	8146	8146	8146	7959	7959	8146	8146	8146	7779	7779	7779	7779	0	7779	7779	7779	7779	7779	7959	7779	7959	8146	7959	7959	7959	0	0	0	0	0	0	0	8146	8146	7779	7779	7779	7959	7959	7779	7959	8146	8146	8146	8146	8146	7959	7959	0	0	0	0	0	0	0	0	0	3779	3738	3738	3738	3738	3738	3738	3738	3738	3738	3738	3698	3698	3698	3698	3698	3698	3698	3698	3698	3698	3698	3659	3659	3698	3698	3698	3698	3659	3659	3698	3659	3659	3698	3698	3738	3738	3698	3698	3698	3738	3698	3738	3738	3738	3738	3738	3738	3738	3738	3738	3738	3738	3738	3738	3779	3779	3779	3779	3779	3779	3779	3779	3779	3779	3779	3738	3738	3738	0	8146	8146	8146	8146	8146	0	0	0	0	0	0	8550	8343	8343	8146	8146	8146	8146	8146	7959	7959	7959	7959	8146	8146	8146	8146	8146	7959	7959	7959	7959	7959	7959	7959	8146	8146	8146	8146	8146	8146	8146	7959	7959	7959	8146	8146	8146	7959	8146	8146	7959	7959	7959	8146	8146	8146	7959	7959	7959	7959	0	0	7959	7959	7959	7959	7959	7779	7779	7779	7779	7779	7779	7779	7959	7779	7779	7959	7959	7779	7959	7959	7959	7959	7959	7959	0	0	0	0	0	0	7959	7959	7959	7959	7779	7779	7779	7779	7779	7779	7779	7959	7959	7959	7959	7959	7959	7959	7959	7959	7959	7959	7959	8146	7959	8146	8146	8146	7959	7959	7959	7959	7779	7959	7959	8146	8146	8343	8343	8343	8343	8343	8343	8343	8343	8343	8767	8767	8550	8550	8550	8343	8343	8146	8146	8146	8146	8343	8550	8550	8550	8550	8550	8550	8343	8343	8146	8343	8343	8343	8343	8550	8550	8146	8146	8343	8550	8550	8550	8550	8550	8550	8550	8550	8550	8550	8550	8550	8550	8343	8343	8343	8550	8343	8550	8550	8550	8550	8550	8550	8343	8146	7959	7959	7959	7959	7959	7959	8146	8146	8146	8146	8146	8146	8146	8343	8146	8146	8146	8146	8146	8146	8146	8146	8146	8343	8343	8343	8343	8343	8146	8146	8146	8146	8146	8146	8146	8146	8146	8146	8146	7959	7959	7959	8146	8146	7959	7959	0	0	0	0	0	0	0	0	2532	2551	2551	0	0	0	0	0	0	0	0	0	0	0	0	0	0	0	0	0	0	0	0	0	0	0	0	0	0	0	0	0	0	0	0	0	0	0	0
0	0	0	0	839	841	843	848	850	850	852	856	856	856	858	865	869	875	878	878	880	880	880	882	884	889	894	898	901	901	905	910	915	915	922	922	925	927	930	935	937	942	942	945	948	955	955	958	961	963	969	974	983	985	985	988	994	1000	1006	1008	1011	1011	1014	1020	1026	1026	1036	1039	1042	1045	1061	1061	1061	1064	1068	1068	1071	1074	1074	1074	1074	1074	1074	0	0	0	0	0	0	0	1546	1553	1560	1567	1560	1574	1574	1567	1567	1567	1560	1567	1567	1574	1574	1574	1574	1574	1574	1581	1581	1581	1581	1581	1574	1603	1603	1603	1603	1596	1596	1589	1581	1581	1574	1581	1581	1574	1574	1574	1574	1581	1574	1574	1581	1581	1589	1596	1603	1618	1618	0	0	0	0	0	7444	7608	7608	7608	7608	7779	7779	7779	7779	7959	7779	7779	0	0	0	0	0	0	0	8146	7959	7959	7959	7959	8146	8146	8146	8146	8146	0	0	0	0	7959	7959	7959	7959	7959	7959	7959	7959	0	0	0	0	0	0	0	0	0	0	0	0	0	0	0	0	8146	8146	7959	7959	0	0	0	0	0	0	0	0	8343	8343	0	0	0	0	0	0	7779	7959	8146	8146	8146	8146	7959	8146	8146	7959	7779	7779	7779	7779	7779	7959	7959	7959	7959	7959	7959	8146	8146	8146	8146	8146	0	0	0	0	0	0	0	8146	8146	8146	7779	7779	7779	7779	7959	7959	8146	8146	8146	8146	8146	8146	8146	7959	7959	0	0	0	0	0	0	3821	3779	3738	3738	3738	3738	3738	3738	3738	3738	3738	3698	3738	3698	3698	3698	3698	3698	3698	3698	3698	3698	3659	3698	3659	3698	3698	3698	3698	3698	3659	3659	3698	3659	3698	3698	3698	3738	3738	3698	3698	3698	3698	3698	3738	3738	3738	3738	3738	3738	3738	3738	3738	3738	3738	3738	3738	3779	3779	3779	3779	3779	3779	3779	3779	3779	3779	3738	3738	3738	0	0	8767	8343	8343	8343	8343	8343	0	0	0	8550	8550	8550	8550	8343	8343	8146	8146	8146	8146	8146	8146	8343	8146	8146	8146	8343	8146	8146	7959	7959	7959	7959	7959	7959	7959	7959	8146	8146	8146	8146	8146	8146	8146	8146	8146	8146	8146	8146	8146	8146	8146	8146	7959	8146	8146	8146	8146	7959	7959	8146	7959	7959	7959	7959	7959	7959	7959	7959	7959	7959	7779	7779	7959	7779	7779	7779	7779	7959	7959	7959	7959	7959	7959	7959	7959	7959	7959	7959	8146	7959	7959	7959	7959	7959	7959	7959	7779	7779	7779	7779	7779	7779	7779	7779	7779	7959	7959	7959	7959	7959	7959	7959	7959	7959	7959	7959	8146	8146	8146	8343	8146	7959	7959	7959	7959	7779	7959	7959	8146	8146	8343	8343	8146	8343	8343	8343	8343	8343	8343	8550	8550	8343	8343	8343	8550	8550	8146	8146	8146	8146	8550	8550	8550	8550	8550	8550	8550	8343	8343	8146	8146	8146	8146	8343	8343	8550	8343	8343	8550	8550	8550	8550	8550	8550	8550	8550	8550	8550	8146	8343	8343	8343	8343	8343	8343	8550	8343	8343	8343	8343	8550	8550	8343	8146	8146	7959	7959	7959	7959	7959	7959	8146	7959	7959	7959	8343	8146	8146	8343	8146	8146	8146	8146	8146	8146	8146	8146	8146	8343	8343	8343	8343	8343	8146	8146	8146	8146	8146	8146	8146	8146	8146	8146	8146	8146	7959	8146	8146	8146	8146	7959	0	0	0	0	0	0	0	0	2551	2551	2551	0	0	0	0	0	0	0	0	0	0	0	0	0	0	0	0	0	0	0	0	0	0	0	0	0	0	0	0	0	0	0	0	0	0	0	0
0	0	0	0	839	841	845	848	850	852	854	856	856	856	858	862	867	871	875	875	878	880	880	882	884	887	894	896	903	905	908	910	913	913	913	915	917	925	930	935	940	942	942	948	953	958	955	958	961	961	966	972	983	985	988	991	997	1000	1003	1006	1011	1011	1014	1020	1030	1030	1036	1039	1042	1045	1058	1058	1058	1061	1061	1064	1071	1071	1074	1074	1078	1074	1074	0	0	0	0	0	0	0	0	1553	1560	1567	1560	1581	1581	1581	1589	1581	1581	1581	1574	1581	1581	1581	1589	1589	1589	1589	1596	1589	1589	1581	1589	1589	1603	1603	1603	1603	1603	1596	1596	1589	1589	1589	1589	1589	1589	1581	1581	1581	1581	1581	1581	1589	1596	1596	1603	1618	1626	1626	0	0	0	0	7444	7444	7608	7608	7608	7779	7779	7779	7779	7779	7959	7959	0	0	0	0	0	0	0	8146	8146	8146	8146	8146	8146	8343	8343	8343	8343	8550	8550	8343	8146	7959	8146	7959	7959	7959	7959	7959	8146	8146	8146	0	0	0	8343	8343	8343	8343	8343	7959	7959	7959	7959	0	8146	8343	8146	8146	8146	7959	7959	0	0	0	0	0	8343	8343	8343	8343	0	0	0	0	8146	8146	8343	8146	8146	8146	8146	7959	7959	7959	7959	7779	7779	7779	7779	7779	7959	7959	7959	8146	7959	8146	8146	8146	8146	8146	8146	8146	0	0	0	0	0	0	8146	8146	8146	7959	7959	7959	7959	7959	8146	8146	8343	8146	8343	8343	8343	8343	8146	8146	0	0	0	0	0	0	3821	3779	3738	3738	3738	3698	3698	3698	3698	3698	3698	3698	3698	3698	3698	3698	3698	3698	3698	3698	3698	3698	3698	3698	3659	3659	3698	3698	3659	3698	3659	3659	3698	3659	3698	3738	3698	3738	3738	3698	3698	3698	3698	3698	3698	3698	3738	3738	3738	3738	3738	3738	3738	3738	3738	3738	3779	3779	3779	3779	3779	3779	3779	3779	3779	3779	3779	3738	3738	3738	0	0	8767	8767	8550	8343	8343	8343	8550	8550	8343	8343	8343	8343	8343	8343	8343	8343	8343	8343	8146	8146	8343	8343	8343	8146	8343	8343	8146	8146	7959	8146	8146	7959	7959	7959	7959	8146	8146	8146	8343	8343	8343	8343	8146	8146	8146	8146	8146	8146	8146	8146	8146	8146	8146	8146	8146	8146	8146	7959	7959	7959	7959	7959	7959	7959	7959	7959	7959	7959	7959	7959	7779	7779	7959	7779	7779	7779	7779	7959	7959	7959	7779	7959	7959	7959	7959	7959	7959	7959	7959	7959	7959	7959	7959	7959	7959	7959	7959	7779	7779	7779	7779	7779	7959	7779	7959	7959	7959	7959	7959	7959	7959	7959	7959	7959	7959	7959	8146	8146	8146	8146	8146	8146	7959	7959	7959	7959	8146	8146	8146	8146	8343	8343	8146	8343	8343	8343	8343	8343	8343	8146	8343	8343	8343	8343	8146	8343	8146	8343	8343	8343	8550	8767	8767	8767	8767	8550	8550	8550	8343	8146	8146	8146	8146	8343	8146	8343	8343	8343	8550	8550	8550	8550	8550	8550	8550	8550	8550	8343	8343	8343	8550	8343	8343	8343	8550	8550	8343	8343	8343	8343	8550	8343	8343	8146	8146	8146	7959	7959	7959	7959	8146	8146	8146	8146	8146	8146	8146	8146	8146	8146	8146	8146	8146	8146	8146	8146	8146	8146	8146	8343	8343	8343	8343	8146	8146	8146	8146	8146	8146	8146	8146	8146	8146	8146	8146	7959	8146	8146	8146	8146	0	0	0	0	0	0	0	0	0	2570	2551	2551	0	0	0	0	0	0	0	0	0	0	0	0	0	0	0	0	0	0	0	0	0	0	0	0	0	0	0	0	0	0	0	0	0	0	0	0
0	0	0	0	839	839	843	845	848	850	852	854	856	856	858	862	867	871	873	875	878	880	880	882	882	887	889	896	901	905	905	910	913	913	913	915	917	920	930	935	940	942	942	948	953	955	955	958	961	963	966	972	985	985	988	988	994	1000	1006	1008	1011	1011	1014	1020	1030	1033	1036	1039	1045	1048	1055	1058	1061	1061	1064	1064	1071	1074	1074	1078	1078	1078	1078	0	0	0	0	0	0	0	0	0	0	0	0	1581	1581	1581	1596	1589	1589	1589	1589	1589	1589	1589	1596	1589	1596	1596	1603	1603	1603	1603	1596	1603	1611	1611	1611	1611	1611	1603	1603	1589	1596	1596	1596	1603	1596	1589	1589	1589	1581	1589	1589	1596	1596	1603	1611	1618	1626	1634	1634	0	0	0	0	7444	7608	7608	7608	7779	7779	7779	7779	7959	7959	7959	7959	7959	7959	7959	8146	8146	8343	8343	8343	8343	8343	8343	8343	8343	8343	8343	8343	8343	8343	8343	8146	8146	8146	8146	8146	8146	8146	8146	8146	8146	8146	0	0	0	8343	8343	8343	8343	8343	8146	8146	8146	8146	8343	8343	8343	8343	8146	8146	8146	8146	8146	7959	7959	8146	8146	8146	8146	8146	8146	0	0	0	0	8146	8146	8146	8146	8343	8343	8343	7959	7959	7959	7959	7779	7779	7779	7779	7779	7959	7959	7959	7959	7959	7959	8146	7959	7959	8146	7959	7959	7959	0	0	0	0	0	8146	8146	8146	8146	8146	7959	7959	7959	7959	8343	8343	8343	8343	8343	8343	8343	8146	8146	0	0	0	0	0	0	3821	3779	3738	3738	3738	3698	3698	3698	3698	3698	3698	3698	3698	3698	3698	3698	3698	3698	3698	3698	3698	3698	3698	3698	3659	3659	3698	3698	3659	3659	3659	3698	3698	3659	3698	3698	3738	3738	3698	3698	3698	3698	3698	3698	3698	3698	3698	3698	3698	3698	3738	3738	3738	3738	3738	3738	3779	3779	3779	3779	3779	3779	3779	3779	3779	3779	3779	3779	3779	3779	0	0	8550	8550	8343	8343	8343	8343	8550	8146	8146	8146	8343	8550	8550	8550	8343	8550	8343	8343	8343	8343	8343	8343	8146	8146	8146	8343	8146	8146	8146	8146	8146	8146	7959	8146	8146	8146	8343	8343	8343	8550	8550	8550	8343	8343	8343	8343	8343	8146	8146	8146	8146	8146	8146	8146	8146	8146	8146	8146	8146	8146	7959	7959	7959	7959	7959	7959	7959	7959	7959	7959	7779	7779	7779	7779	7779	7959	7959	7959	7959	7959	7959	7959	7959	7959	7959	7959	7959	7959	7959	7959	7959	7959	8146	7959	8146	7959	7959	7959	7959	7959	7959	7959	7959	8146	7959	7959	7959	7959	7959	8146	8146	7959	8146	8146	7959	8146	8146	8146	8146	8343	8146	8146	8146	8146	7959	7959	8146	8146	8146	8343	8343	8343	8146	8146	8146	8343	8146	8146	8146	8146	8146	8343	8146	8343	8146	8343	8343	8343	8343	8343	8550	8767	8767	8767	8767	8550	8550	8550	8343	8146	8343	8343	8343	8343	8343	8550	8550	8343	8343	8343	8550	8343	8343	8343	8146	8146	8343	8343	8343	8343	8550	8550	8550	8550	8343	8343	8343	8343	8343	8343	8343	8343	8343	8146	8146	8146	8146	8146	8146	8146	8146	8146	8146	8146	8146	8146	8146	8146	8146	8146	8146	8146	8146	8146	8146	0	8146	8146	8146	8146	8343	8343	8146	8146	8146	8146	8146	8146	8146	8146	8146	8146	8146	8146	8146	8146	8146	8146	8146	8146	0	0	0	0	0	0	0	0	0	2570	2570	2570	0	0	0	0	0	0	0	0	0	0	0	0	0	0	0	0	0	0	0	0	0	0	0	0	0	0	0	0	0	0	0	0	0	0	0	0
0	0	0	0	837	837	839	843	848	850	852	856	854	854	860	865	869	871	873	875	878	880	882	882	882	887	889	894	898	905	905	910	910	913	915	915	917	925	932	935	942	942	942	948	953	955	958	961	961	963	966	969	980	983	985	991	997	1000	1000	1006	1011	1011	1014	1020	1030	1033	1036	1039	1042	1048	1055	1058	1061	1061	1064	1064	1068	1071	1074	1078	1078	1078	1078	0	0	0	0	0	0	0	0	0	0	0	0	0	0	0	1589	1589	1596	1596	1596	1596	1603	1603	1611	1611	1611	1603	1611	1611	1611	1611	1611	1611	1618	1618	1618	1611	1618	1611	1611	1603	1603	1603	1603	1611	1603	1611	1603	1589	1589	1596	1596	1596	1603	1611	1618	1634	1634	1641	1641	0	0	0	0	0	7608	7444	7608	7779	7779	7779	7779	7959	7959	8146	8146	8146	8146	8146	8343	8343	8343	8343	8343	8343	8343	8343	8343	8343	8343	8343	8343	8343	8343	8146	8146	8146	8146	8146	8146	8146	8343	8343	8146	8343	8146	8146	0	8343	8343	8343	8343	8343	8343	8146	8146	8146	8146	8146	8343	8343	8343	8146	8146	8146	8146	8146	8146	8146	8146	8146	8146	8146	8146	8146	0	0	0	8146	8146	8146	8146	8146	8146	8146	8146	7959	8146	8146	7959	7959	7779	7779	7779	7959	7959	7959	8146	8146	8146	8146	8146	7959	7959	7959	7959	7779	7779	7779	0	0	0	7959	7959	7959	7959	7959	7959	7959	7959	8146	8146	8146	8343	8343	8343	8343	8343	8343	8146	8146	0	0	0	0	0	0	3779	3779	3738	3738	3738	3698	3698	3698	3698	3698	3698	3698	3698	3698	3698	3698	3698	3698	3698	3698	3698	3698	3698	3698	3659	3659	3698	3698	3659	3698	3698	3698	3659	3659	3659	3698	3698	3698	3698	3698	3738	3698	3698	3738	3738	3698	3698	3698	3698	3698	3738	3738	3738	3738	3738	3738	3779	3779	3779	3779	3738	3779	3779	3779	3779	3779	3779	3779	3738	3738	3738	0	8550	8343	8343	8146	8146	8343	8146	8146	8146	8343	8343	8550	8550	8550	8343	8343	8343	8343	8343	8343	8343	8343	8343	8343	8343	8146	8146	8146	8146	8146	8146	8146	8146	8146	8146	8343	8343	8343	8343	8550	8550	8550	8550	8343	8343	8343	8343	8146	8146	8146	8146	8146	8146	8146	8146	8146	8146	8146	8146	8146	8146	7959	7959	7959	7959	7959	7959	7959	7959	7959	7779	7779	7779	7779	7779	7959	7959	7959	7959	7959	7959	7959	7959	7959	7959	7959	7959	7959	7959	7959	7959	8146	8146	7959	7959	7959	8146	7959	7959	8146	8146	7959	7959	8146	7959	8146	7959	7959	7959	8146	8146	8146	8146	8146	8146	8146	8146	8146	8146	8146	8146	8146	8146	8146	8146	7959	8146	8146	8146	8146	8146	8146	8146	8146	8343	8343	8343	8343	8146	8146	8146	8343	8146	8146	8343	8343	8343	8343	8343	8343	8550	8767	8767	8767	8767	8767	8550	8550	8343	8343	8343	8146	8343	8146	8146	8550	8550	8550	8550	8343	8343	8146	8146	8146	8146	8146	8343	8343	8343	8550	8550	8550	8550	8550	8343	8343	8343	8146	8343	8146	8146	8146	8343	8146	8146	8146	8146	8146	8146	8146	8146	8146	8146	8146	8146	8146	8146	8146	8146	8146	8146	8146	8146	7959	7959	0	8146	8146	7959	7959	7959	8146	8146	8146	8146	8146	8146	8146	8146	8146	7959	8146	8146	8146	8146	8146	8146	8146	8146	8146	0	0	0	0	0	0	0	0	0	2570	2570	2570	0	0	0	0	0	0	0	0	0	0	0	0	0	0	0	0	0	0	0	0	0	0	0	0	0	0	0	0	0	0	0	0	0	0	0	0
0	0	0	833	835	839	841	845	848	848	850	854	854	854	860	867	869	871	873	873	878	880	880	882	884	887	889	889	896	903	905	908	910	913	915	915	917	925	932	940	942	942	942	945	948	953	958	961	961	966	966	969	977	983	985	991	997	1000	1006	1008	1011	1011	1014	1020	1026	1033	1033	1036	1039	1045	1052	1058	1061	1061	1064	1064	1068	1071	1074	1078	1078	1078	1078	0	0	0	0	0	0	0	0	0	0	0	0	0	0	0	1589	1589	1611	1611	1611	1611	1611	1611	1618	1618	1618	1611	1611	1618	1611	1611	1603	1611	1611	1618	1618	1618	1618	1618	1618	1611	1611	1611	1611	1611	1611	1618	1611	1611	1603	1603	1603	1611	1611	1611	1618	1634	1641	1649	1649	1665	1673	1673	0	0	7444	7444	7608	7608	7779	7779	7779	7779	7779	7779	7959	7959	8146	8343	8343	8343	8343	8343	8343	8343	8343	8343	8343	8343	8343	8343	8343	8343	8343	8146	8146	8146	8146	8343	8146	8343	8343	8343	8343	8343	8343	8343	8343	8343	8343	8550	8343	8343	8343	8146	8146	8146	8146	8146	8146	8343	8146	8146	8146	8146	8146	8146	8146	8146	8146	7959	7959	7959	7959	8146	8146	8146	8146	8146	8146	8146	8146	8146	8146	8146	8146	7959	8146	8146	8146	7959	7779	7779	7959	7959	7959	7959	7959	8146	8146	8343	8146	7959	7959	7959	7779	7779	7779	7779	7779	0	0	7959	7959	7959	7959	7959	7959	7959	8146	8146	8146	8146	8343	8146	8343	8343	8343	8343	8146	8146	0	0	0	0	0	3821	3779	3779	3779	3738	3738	3698	3698	3698	3698	3698	3698	3698	3698	3698	3698	3698	3698	3698	3698	3698	3698	3698	3698	3698	3698	3698	3698	3698	3659	3698	3659	3698	3659	3659	3659	3698	3698	3698	3698	3698	3698	3698	3698	3698	3698	3659	3698	3698	3698	3698	3738	3738	3738	3738	3738	3738	3738	3779	3779	3779	3738	3779	3779	3779	3738	3779	3738	3779	3779	3779	3779	0	8146	8146	8146	8343	8343	8343	8146	8146	8343	8343	8343	8343	8343	8343	8343	8343	8343	8343	8343	8343	8343	8550	8343	8343	8343	8343	8146	8146	8146	8146	8146	8146	8146	8343	8343	8343	8343	8343	8343	8550	8550	8550	8550	8343	8343	8343	8343	8146	8146	8146	8146	8146	8146	8146	8343	8146	8146	8146	8146	8146	8146	7959	7959	7959	7959	7959	7959	7959	7959	7959	7959	7779	7959	7959	7959	7959	7959	7959	7959	7959	7959	7959	7959	7959	7959	7959	7959	7959	7959	7959	7959	7959	7959	7959	7959	7959	8146	7959	7959	7959	7959	7959	7959	7959	7959	7959	7959	7959	7959	8146	8146	8146	8146	8343	8146	8146	8146	8146	8146	8146	8146	8146	8146	8146	8146	8146	8146	8146	8146	8146	8343	8146	8146	8146	8343	8343	8343	8146	8146	8146	8146	8343	8146	8343	8343	8343	8343	8550	8550	8343	8550	8767	8767	8767	8767	8767	8767	8550	8343	8343	8343	8146	8343	8343	8146	8550	8343	8343	8343	8343	8146	8146	8146	8146	8146	8146	8343	8343	8343	8343	8550	8550	8550	8550	8550	8343	8343	8146	8146	8146	8343	8343	8343	8343	8343	8343	8146	8146	8146	8146	0	0	8146	8146	8146	8146	8146	8146	8146	8146	8146	8146	8146	7959	8146	8146	8146	8146	7959	8146	8146	7959	7959	7959	8146	8146	8146	8146	8146	8146	8146	7959	8146	8146	8146	8146	8146	8146	8146	0	0	0	0	0	0	0	0	0	0	2570	2570	2570	0	0	0	0	0	0	0	0	0	0	0	0	0	0	0	0	0	0	0	0	0	0	0	0	0	0	0	0	0	0	0	0	0	0	0	0
0	0	0	837	837	839	841	843	845	848	850	854	854	854	865	867	869	871	873	873	878	880	882	882	884	887	889	889	896	903	905	905	910	913	915	915	922	927	940	940	942	942	945	948	950	953	955	963	963	966	969	969	980	983	988	991	997	1000	1003	1008	1011	1011	1014	1020	1026	1030	1033	1036	1039	1042	1052	1055	1061	1061	1064	1064	1071	1074	1074	1074	1074	1074	1078	1078	0	0	0	0	0	0	0	0	0	0	0	0	0	0	0	0	1611	1611	1618	1618	1618	1618	1618	1618	1618	1618	1618	1626	1618	1611	1611	1611	1611	1618	1626	1626	1618	1618	1618	1618	1618	1618	1611	1618	1611	1618	1618	1618	1611	1618	1634	1626	1626	1626	1634	1641	1641	1641	1657	1665	1665	1673	1673	0	7444	7444	0	7608	7608	7608	7608	7608	8146	8146	8146	8343	8146	8146	8146	8343	8343	8343	8343	8343	8343	8343	8343	8343	8343	8343	8343	8343	8343	8343	8343	8343	8343	8343	8343	8343	8343	8343	8343	8343	8343	8343	8343	8343	8343	8550	8343	8343	8343	8146	8146	8146	8146	8146	8146	8343	8343	8343	8146	8146	8146	8146	8146	7959	7959	7959	7959	7959	7959	8343	8146	8146	8146	8146	8146	8146	8146	8146	8146	8146	8343	8146	8146	8146	8146	8146	7959	7959	7959	7959	8146	8146	8146	8343	8343	8343	8343	8146	8146	7959	7959	7779	7779	7779	7779	7779	7959	7959	7959	7959	8146	8146	8146	8146	8146	8146	8343	8343	8343	8343	8146	8146	8146	8343	8343	8146	0	0	0	0	0	3779	3738	3738	3738	3738	3738	3698	3698	3698	3698	3698	3659	3698	3698	3698	3698	3698	3698	3698	3698	3698	3698	3698	3698	3698	3659	3659	3659	3698	3659	3698	3698	3698	3659	3659	3659	3698	3698	3698	3698	3698	3738	3698	3738	3698	3698	3698	3698	3698	3698	3738	3738	3738	3738	3738	3738	3738	3779	3779	3779	3779	3738	3779	3779	3779	3779	3779	3738	3738	3779	3779	3779	8146	8146	8146	8146	8146	8343	8343	8146	8146	8343	8343	8343	8343	8343	8343	8343	8343	8343	8343	8343	8343	8343	8550	8343	8343	8343	8343	8146	8146	8146	8146	8146	8146	8146	8343	8343	8343	8343	8550	8550	8550	8550	8550	8550	8550	8343	8343	8343	8343	8343	8343	8343	8343	8146	8146	8343	8146	8146	8146	8146	8146	8146	7959	7959	7959	7959	7959	7959	7959	7959	7959	7959	7959	7959	7959	7959	7959	7959	7959	7959	7959	7959	7959	7959	7959	7959	7959	7959	7959	7959	7959	7959	7959	7959	7959	7959	7959	7959	7959	7959	7959	7959	7959	7959	7959	7959	8146	7959	7959	8146	8146	8343	8343	8343	8343	8146	8146	8146	8146	8146	8146	8146	8146	8146	8146	8146	8146	8343	8146	8146	8146	8146	8146	8146	8343	8343	8343	8343	8343	8146	8146	8146	8146	8146	8146	8343	8343	8343	8550	8550	8343	8550	8550	8767	8767	8767	8767	8550	8550	8550	8343	8343	8146	8146	8146	8146	8343	8343	8343	8550	8343	8146	8146	8146	8146	8146	8146	8343	8343	8343	8343	8550	8550	8343	8550	8550	8550	8343	8343	8343	8343	8343	8343	8343	8343	8343	8343	0	0	0	0	0	0	0	0	0	0	8146	8146	0	8146	8146	8146	7959	7959	8146	8146	8146	8146	8146	8146	7959	7959	7959	7959	8146	8146	8146	8146	8146	8146	7959	7959	8146	8146	8146	8146	8146	8146	8146	0	0	0	0	0	0	0	0	0	2570	2570	2570	2570	0	0	0	0	0	0	0	0	0	0	0	0	0	0	0	0	0	0	0	0	0	0	0	0	0	0	0	0	0	0	0	0	0	0	0	0
0	0	0	835	835	837	839	843	848	848	850	854	854	854	862	867	869	871	871	871	875	875	882	882	887	887	889	891	896	903	905	910	913	915	915	915	922	927	937	940	940	942	945	948	950	953	955	958	958	961	966	966	983	985	991	994	997	1000	1006	1006	1011	1011	1014	1023	1030	1033	1033	1036	1039	1045	1048	1055	1061	1064	1064	1068	1071	1074	1074	1078	1081	1081	1078	1078	0	0	0	0	0	0	0	0	0	0	0	0	0	0	0	0	0	1611	1618	1618	1618	1626	1626	1634	1634	1626	1626	1634	1618	1618	1618	1618	1618	1618	1626	1626	1626	1626	1626	1618	1618	1618	1618	1618	1618	1618	1618	1626	1618	1626	1634	1634	1634	1634	1641	1641	1649	1649	1657	1665	1673	1673	1673	1690	1690	1706	1706	0	7608	7608	7608	7608	8146	8146	8146	8343	8146	8343	8343	8343	8343	8343	8343	8343	8343	8343	8343	8343	8343	8343	8343	8343	8343	8343	8343	8343	8343	8343	8343	8343	8343	8343	8343	8343	8343	8343	8343	8343	8343	8343	8343	8343	8343	8343	8146	8146	8146	8146	8146	8343	8343	8343	8146	8146	8343	8146	8146	7959	8146	7959	8146	7959	7959	8343	8343	8146	8146	8146	8343	8146	8146	8146	8343	8343	8343	8343	8343	8343	8146	8146	8146	8146	8146	8146	8146	8146	8343	8343	8343	8343	8343	8146	8146	8146	8146	7959	7959	8146	8146	8146	8146	8146	7959	7959	8146	8146	8146	8146	8146	8146	8343	8343	8343	8343	8146	8343	8146	8146	8146	0	0	0	0	0	0	3779	3738	3738	3738	3738	3738	3698	3698	3698	3698	3698	3698	3698	3698	3698	3698	3698	3698	3698	3698	3698	3698	3698	3698	3698	3659	3659	3659	3698	3659	3698	3659	3698	3659	3659	3659	3698	3698	3698	3698	3738	3738	3698	3738	3698	3698	3698	3698	3698	3698	3738	3738	3738	3738	3738	3738	3738	3779	3779	3779	3779	3779	3779	3779	3779	3738	3738	3779	3779	3779	3779	0	8146	8146	8146	8146	8146	8146	8146	8146	8146	8146	8146	8343	8343	8343	8343	8343	8343	8343	8343	8343	8343	8343	8550	8343	8343	8343	8343	8146	8146	8146	8146	8146	8146	8146	8343	8343	8343	8343	8343	8550	8550	8550	8550	8343	8343	8343	8343	8343	8343	8343	8343	8343	8343	8343	8146	8343	8146	8146	8146	8146	7959	7959	7959	7959	7959	7959	7959	7959	7959	7779	7959	7959	7959	7959	7959	7959	7959	7959	7959	7959	7959	7959	7959	7959	7959	7779	7779	7959	7959	7959	7959	7959	7959	7959	7959	7959	7959	7959	7959	7959	7959	7959	7959	7959	7959	7959	7959	7959	7959	7959	8146	8343	8146	8146	8343	8146	8146	8146	8146	8146	8146	8146	8146	8146	8146	8343	8146	8146	8146	8343	8343	8146	8146	8146	8146	8343	8343	8146	8146	8146	8146	7959	8146	8146	8146	8146	8343	8343	8343	8550	8343	8343	8343	8767	8767	8767	8550	8767	8767	8550	8343	8343	8146	8343	8146	8146	8146	8343	8343	8343	8146	8146	8146	8146	8146	8146	8146	8146	8343	8343	8343	8343	8343	8343	8550	8550	8550	8343	8343	8343	8343	8343	8343	8343	0	0	0	0	0	0	0	0	0	0	0	0	0	0	0	8146	8146	8146	8146	8146	8146	8146	8146	8146	8146	8146	8146	8146	7959	7959	7959	8146	8146	8146	8146	8146	8146	7959	8146	8146	8146	8146	8146	8146	8343	8343	0	0	0	0	0	0	0	0	0	2570	2570	2570	2570	0	0	0	0	0	0	0	0	0	0	0	0	0	0	0	0	0	0	0	0	0	0	0	0	0	0	0	0	0	0	0	0	0	0	0	0
0	0	0	833	835	839	841	843	848	845	850	850	854	854	854	867	869	869	871	871	875	882	884	887	889	891	889	891	896	901	903	908	913	915	915	922	925	930	937	940	940	942	945	945	948	953	953	958	958	961	966	966	974	977	991	994	997	1000	1003	1006	1011	1011	1014	1023	1030	1036	1036	1036	1039	1042	1048	1058	1061	1064	1064	1068	1071	1074	1078	1078	1081	1081	1081	1081	0	0	0	0	0	0	0	0	0	0	0	0	0	0	0	0	0	1618	1626	1626	1626	1634	1641	1641	1641	1641	1641	1641	1641	1641	1641	1618	1618	1641	1641	1634	1634	1626	1634	1626	1626	1626	1618	1626	1626	1626	1634	1641	1634	1634	1641	1641	1641	1641	1649	1649	1649	1649	1673	1673	1681	1681	1690	1698	1706	1706	1715	1715	0	0	0	0	0	8146	8146	8343	8343	8343	8343	8550	8343	8343	8343	8343	8343	8343	8343	8343	8343	8343	8343	8343	8343	8343	8343	8343	8343	8343	8343	8343	8343	8343	8343	8343	8343	8343	8343	8343	8343	8343	8343	8343	8343	8343	8146	8146	8343	8146	8146	8343	8343	8343	8343	8343	8343	8146	8146	7959	7959	7959	7959	7959	7959	8343	8343	8146	8146	8146	8343	8146	8146	8146	8343	8343	8343	8343	8343	8343	8146	8146	8146	8146	8146	8146	8343	8146	8343	8343	8343	8343	8343	8146	8146	8146	8146	7959	7959	8146	8146	8146	8146	8146	8146	7959	8146	8146	8146	8146	8146	8146	8343	8343	8343	8343	8146	8343	8146	8146	8146	0	0	0	0	0	0	3779	3779	3779	3738	3738	3738	3738	3698	3698	3698	3698	3698	3698	3698	3698	3698	3698	3698	3698	3698	3698	3698	3698	3659	3659	3659	3659	3659	3659	3659	3698	3659	3698	3659	3659	3659	3698	3698	3698	3698	3698	3738	3698	3698	3698	3659	3698	3698	3698	3698	3698	3738	3738	3738	3738	3738	3738	3779	3779	3779	3779	3738	3779	3779	3779	3779	3779	3779	3779	3821	3821	0	7959	7959	8146	8146	8146	7959	8146	8146	8146	8146	8146	8343	8343	8343	8343	8343	8343	8343	8146	8343	8343	8343	8550	8343	8550	8343	8343	8146	8146	8146	8146	8146	8343	8146	8343	8343	8343	8343	8343	8343	8343	8550	8550	8343	8343	8343	8343	8343	8343	8343	8343	8343	8343	8343	8146	8343	8146	8146	8146	8146	7959	7959	7959	7959	7959	7959	7959	7959	7959	7779	7959	7959	7959	7959	7959	7959	7959	7959	7959	7959	7959	7959	7959	7959	7959	7779	7959	7959	7959	7959	7959	7959	7959	8146	7959	7959	7959	8146	7959	7959	7959	7959	7959	7959	7959	7959	8146	7959	7959	7959	8146	8146	8146	8146	8343	8146	8146	8146	8146	8146	8146	8146	8146	8146	8146	8146	8146	8343	8146	8343	8343	8343	8146	8146	8146	8146	8343	8343	8146	8146	8146	8146	8146	8146	8146	8146	8343	8343	8343	8343	8343	8343	8343	8343	8343	8550	8767	8550	8550	8550	8343	8343	8146	8146	8343	8550	8550	8550	8550	8146	8146	8146	8146	8146	8146	8146	8146	8146	8343	8343	8343	8343	8343	8343	8550	8550	8343	8343	8343	8343	8343	8343	8343	8343	8343	0	0	0	0	0	0	0	0	0	0	0	0	0	0	8146	8146	8146	8146	8146	8146	8146	8146	8146	8146	8146	8146	7959	7959	7959	7959	8146	8146	8146	8146	8146	8146	8146	8146	8146	8146	8146	8146	8146	8343	8146	8146	0	0	0	0	0	0	0	0	2570	2570	2570	2570	0	0	0	0	0	0	0	0	0	0	0	0	0	0	0	0	0	0	0	0	0	0	0	0	0	0	0	0	0	0	0	0	0	0	0	0
0	0	0	831	835	837	839	843	845	845	848	854	854	854	862	867	869	869	871	871	878	880	882	887	889	891	891	891	896	901	903	905	913	915	915	922	925	930	935	937	940	942	945	945	945	953	955	958	961	963	969	966	977	977	988	994	997	1003	1003	1008	1011	1014	1017	1023	1030	1036	1036	1036	1036	1042	1048	1055	1061	1064	1064	1068	1071	1074	1074	1081	1081	1081	1081	1081	0	0	0	0	0	0	0	0	0	0	0	0	0	0	0	0	0	1618	1634	1626	1626	1634	1641	1649	1649	1649	1641	1649	1649	1649	1649	1649	1649	1649	1649	1649	1641	1641	1641	1641	1641	1641	1634	1634	1634	1641	1649	1649	1649	1641	1649	1649	1657	1665	1665	1665	1665	1665	1673	1673	1681	1681	1690	1698	1706	1715	1715	1715	0	0	0	0	0	0	0	0	8343	8343	0	8550	8550	8343	8343	8343	8343	8343	8343	8343	8343	8343	8343	8343	8343	8343	8343	8343	8343	8343	8343	8343	8343	8343	8343	8343	8343	8343	8343	8343	8343	8343	8343	8343	8343	8343	8343	8343	8343	8343	8343	8343	8343	8343	8343	8343	8146	8146	8146	7959	7959	7959	7959	7959	7959	7959	8146	8146	8146	8146	8146	8146	8146	8343	8343	8343	8343	8343	8343	8343	8343	8146	8146	8146	8146	8343	8343	8146	8343	8343	8343	8343	8343	8343	8343	8146	8146	8146	8146	8146	8146	8146	8146	8146	8146	7959	8146	8146	8146	8146	8146	8343	8343	8343	8343	8343	8343	8343	8343	8343	8343	0	0	0	0	0	0	3779	3779	3738	3738	3738	3738	3738	3738	3698	3698	3698	3698	3698	3698	3698	3698	3698	3698	3698	3698	3698	3698	3698	3659	3659	3659	3659	3659	3659	3659	3698	3659	3659	3659	3659	3659	3698	3698	3698	3659	3698	3698	3698	3738	3738	3698	3698	3698	3698	3698	3738	3738	3738	3738	3738	3738	3738	3738	3779	3779	3779	3779	3738	3779	3779	3779	3738	3738	3779	3779	3779	0	7959	7959	8146	7959	7959	7959	7959	8146	8146	7959	8146	8146	8146	8146	8343	8146	8343	8343	8146	8343	8343	8343	8550	8343	8343	8343	8343	8146	8146	8146	8146	8146	8343	8343	8343	8343	8550	8550	8550	8550	8550	8550	8146	8343	8146	8146	8146	8343	8343	8343	8343	8343	8343	8343	8146	8343	8343	8343	8146	8146	8146	8146	7959	7959	7959	7959	7959	7959	7959	7959	7959	7959	7959	7959	7959	7959	7959	7959	7959	7959	7959	7779	7779	7779	7779	7779	7779	7959	7959	7959	7959	7959	7959	8146	7959	7959	7959	7959	7959	7959	7959	7959	7959	7959	7959	7959	7959	7959	7959	7959	8146	8146	8146	8146	8146	8146	8146	8146	8146	8146	8146	8146	8146	8146	8146	8146	8146	8146	8146	8146	8343	8146	8146	8146	8343	8146	8343	8146	8146	8146	8146	8146	8146	8146	8146	8146	8343	8343	8343	8343	8343	8343	8343	8343	8343	8343	8343	8343	8343	8343	8343	8146	8146	8550	8343	8550	8550	8550	8550	8146	8146	8146	8146	8146	8146	8146	8146	8343	8343	8343	8550	8550	8550	8550	8550	8550	8550	8343	8343	8343	8343	8343	8343	8343	8343	0	0	0	0	0	0	0	0	0	0	0	0	0	0	0	8343	8550	8550	8343	8343	8343	8146	8146	8146	8146	8146	7959	7959	7959	7959	7959	8146	8146	8146	8146	8146	8146	8146	8146	8146	8146	8146	8146	8146	8146	8146	0	0	0	0	0	0	0	0	2570	2551	2551	2551	0	0	0	0	0	0	0	0	0	0	0	0	0	0	0	0	0	0	0	0	0	0	0	0	0	0	0	0	0	0	0	0	0	0	0	0
0	0	0	827	831	841	839	843	845	845	850	852	854	854	858	860	869	869	871	873	875	880	884	887	889	891	891	891	894	898	901	905	913	915	917	925	927	930	935	937	940	942	945	945	945	950	953	963	963	966	969	969	977	985	991	994	1000	1000	1003	1006	1011	1014	1017	1020	1026	1033	1033	1036	1036	1042	1045	1058	1064	1064	1064	1068	1071	1074	1074	1081	1081	1081	1081	1081	0	0	0	0	0	0	0	0	0	0	0	0	0	0	0	0	0	0	1634	1634	1641	1641	1641	1649	1649	1649	1649	1657	1657	1657	1657	1657	1665	1657	1657	1657	1649	1649	1649	1649	1649	1657	1641	1649	1649	1665	1665	1665	1665	1665	1665	1665	1665	1673	1673	1673	1673	1673	1673	1681	1681	1681	1698	1698	1706	1715	1715	1715	0	0	0	0	0	0	0	0	0	0	0	0	8550	8343	8343	8343	8343	8146	8343	8343	8343	8343	8343	8343	8343	8343	8343	8343	8343	8343	8343	8343	8343	8343	8343	8343	8343	8343	8343	8343	8343	8343	8343	8343	8343	8343	8343	8343	8343	8343	8343	8343	8343	8343	8343	8146	8146	8146	8146	8146	7959	7959	7959	7959	8146	8146	8146	8146	8343	8343	8343	8146	8146	8343	8343	8343	8343	8343	8343	8343	8343	8146	8146	8146	8343	8343	8343	8343	8343	8550	8343	8343	8343	8343	8343	8146	8146	8146	8146	8146	8146	8146	8146	8146	7959	7959	7959	8146	8146	8146	8146	8146	8146	8146	8343	8343	8343	8343	8343	8343	8343	8343	0	0	0	0	3779	3779	3738	3738	3738	3738	3738	3698	3738	3698	3698	3698	3698	3698	3698	3698	3698	3698	3698	3698	3698	3698	3659	3659	3659	3659	3659	3659	3659	3659	3659	3698	3659	3659	3659	3659	3659	3659	3698	3698	3659	3698	3698	3698	3698	3738	3659	3698	3698	3738	3738	3738	3738	3738	3738	3738	3779	3779	3779	3779	3779	3779	3779	3738	3738	3779	3779	3779	3779	3779	3821	3821	3821	7959	7959	8146	8146	8146	8146	7959	8146	8146	8146	8146	8146	8146	8146	8343	8146	8146	8343	8146	8146	8343	8343	8550	8343	8550	8343	8343	8343	8343	8146	8146	8146	8343	8550	8550	8550	8550	8550	8550	8343	8343	8343	8146	8343	8343	8343	8343	8343	8343	8343	8343	8343	8343	8343	8146	8146	8146	8146	8146	8146	8146	8146	8146	7959	7959	7959	7959	7959	7959	7959	7959	7959	7959	7959	7959	7959	7959	7959	7959	7959	7959	7959	7779	7779	7779	7779	7779	7959	7959	7959	7959	7959	7959	8146	8146	7959	8146	7959	7959	7959	7959	7959	7959	7959	7959	7959	7959	7959	7959	7959	8146	8146	8146	8146	8146	8146	8146	7959	7959	8146	8146	8146	8146	8146	7959	7959	7959	8146	8146	8146	8146	8343	8343	8146	8343	8343	8343	8343	8146	8146	8146	8146	8146	8146	8146	8343	8343	8343	8343	8343	8343	8343	8343	8343	8146	8343	8343	8343	8343	8343	8343	8146	8146	8343	8343	8343	8343	8343	8343	8146	8146	8146	8146	8146	8146	8146	8343	8343	8550	8550	8550	8550	8550	8550	8550	8550	8550	8343	8550	8343	8343	8343	8343	8343	8550	8550	8550	0	0	0	0	0	0	0	0	0	0	0	0	8550	8146	8550	8767	8550	8343	8343	8343	8146	8343	8146	8146	8146	8146	8146	7959	7959	8146	8146	8146	8146	8146	8146	8146	8146	8343	8343	8343	8343	8146	8146	8146	0	0	0	0	0	0	0	0	0	2570	2551	2551	0	0	0	0	0	0	0	0	0	0	0	0	0	0	0	0	0	0	0	0	0	0	0	0	0	0	0	0	0	0	0	0	0	0	0	0
0	0	0	829	835	839	841	843	845	845	848	852	852	854	862	865	869	869	871	873	875	878	882	887	889	891	891	894	896	898	903	908	910	915	920	925	925	930	932	937	940	940	945	945	945	948	955	961	963	966	969	966	977	985	991	988	1000	1003	1006	1006	1011	1011	1014	1017	1023	1033	1033	1033	1036	1042	1048	1058	1064	1068	1064	1068	1071	1074	1074	1078	1078	1081	1074	1074	0	0	0	0	0	0	0	0	0	0	0	0	0	0	0	0	0	0	0	1634	1649	1649	1649	1649	1649	1657	1657	1665	1657	1665	1665	1665	1665	1665	1665	1665	1657	1673	1673	1665	1673	1673	1673	1673	1673	1681	1681	1681	1673	1673	1673	1673	1681	1681	1681	1673	1673	1673	1681	1681	1681	1690	1698	1706	1706	1715	1715	1715	1715	0	0	0	0	0	0	0	0	0	0	0	0	8343	8343	8343	8343	8146	8343	8343	8343	8343	8343	8343	8343	8550	8343	8343	8343	8343	8343	8343	8343	8343	8343	8343	8343	8343	8343	8343	8343	8343	8343	8343	8343	8343	8343	8343	8343	8343	8343	8343	8146	8146	8146	8146	8146	8146	8146	7959	7959	7959	7959	8146	8146	8146	8146	8146	8343	8343	8343	8146	8343	8343	8343	8343	8343	8343	8343	8343	8146	8146	8146	8146	8146	8343	8343	8343	8343	8343	8343	8343	8343	8343	8343	8343	8343	8146	8146	8146	8146	8343	8343	8343	8343	7959	8146	8146	8146	8146	8146	8146	8146	8146	8343	8343	8146	8343	8343	8146	8146	8146	0	0	0	0	3779	3779	3738	3738	3738	3738	3738	3738	3738	3698	3698	3698	3698	3698	3698	3698	3698	3698	3698	3698	3698	3698	3659	3659	3659	3659	3659	3659	3659	3659	3659	3698	3621	3659	3621	3621	3659	3659	3698	3698	3659	3698	3698	3698	3698	3698	3698	3698	3698	3738	3738	3738	3738	3738	3738	3738	3779	3779	3779	3779	3779	3779	3779	3779	3779	3779	3779	3779	3779	3779	3779	3779	3779	0	7959	8146	8146	8146	8146	8146	8146	8146	8146	8146	8343	8146	8146	8146	8146	8146	8146	8146	8146	8343	8343	8343	8343	8550	8550	8550	8343	8343	8343	8343	8146	8343	8343	8343	8550	8550	8343	8550	8343	8146	8343	8146	8146	8343	8343	8146	8343	8343	8343	8550	8343	8550	8343	8343	8343	8343	8343	8146	8146	8146	8146	8146	7959	7959	7959	7959	7959	7959	7959	7959	7959	7959	7959	7959	7959	7959	7959	7959	7959	7959	7779	7959	7779	7779	7779	7959	7959	7959	7959	7959	7959	7959	7959	8146	7959	7959	7959	7959	7959	7779	7779	7779	7959	7959	7959	7959	7959	7959	7959	7959	8146	8146	8146	8146	8146	8146	7959	8146	8146	8146	8146	8146	8146	7959	7959	7959	7959	8146	8146	8146	8146	8146	8146	8146	8343	8343	8343	8146	8146	8146	8146	8146	8146	8146	8146	8343	8343	8146	8343	8146	8146	8146	8146	8146	8146	8146	8146	8146	8146	8146	8146	8343	8343	8343	8550	8550	8550	8550	8146	8146	8146	8146	8146	8146	8343	8343	8343	8550	8767	8767	8767	8550	8550	8550	8550	8550	8550	8550	8343	8343	8343	8550	8550	8550	8550	8550	8550	0	0	0	8146	8146	8146	8146	8550	8343	8550	8550	8550	8146	8550	8550	8146	8146	8343	8146	8146	8343	8146	8146	8146	8146	8146	7959	7959	8146	8146	8146	8146	8146	8146	8146	8146	8146	8343	8343	8343	8146	8343	8343	0	0	0	0	0	0	0	0	0	2551	2551	2551	0	0	0	0	0	0	0	0	0	0	0	0	0	0	0	0	0	0	0	0	0	0	0	0	0	0	0	0	0	0	0	0	0	0	0	0
0	0	0	833	835	837	839	843	845	845	848	852	852	854	862	867	869	869	873	875	875	880	884	889	889	891	891	894	896	898	901	908	913	917	922	925	927	930	932	935	937	940	942	942	945	953	955	958	961	961	963	966	977	985	988	988	997	1000	1003	1006	1011	1011	1014	1014	1023	1033	1033	1033	1036	1042	1048	1061	1068	1068	1068	1071	1071	1074	1074	1074	1074	1071	1074	1074	0	0	0	0	0	0	0	0	0	0	0	0	0	0	0	0	0	0	0	0	1649	1649	1649	1649	1657	1657	1665	1673	1673	1690	1690	1698	1690	1690	1698	1698	1706	1698	1690	1681	1681	1681	1681	1681	1673	1681	1673	1673	1681	1681	1681	1681	1698	1673	1673	1681	1681	1681	1690	1681	1690	1698	1706	1706	1706	1715	1715	1715	1715	0	0	0	0	0	0	0	0	0	0	0	0	8343	8343	8343	8343	8146	8343	8146	8343	8343	8343	8343	8343	8343	8343	8343	8343	8343	8343	8343	8343	8343	8343	8343	8343	8343	8146	8146	8343	8343	8343	8343	8343	8343	8146	8146	8343	8146	8343	8146	8343	8343	8343	8146	8146	8146	8146	8146	8146	7959	8146	8146	8146	8146	8146	8146	8343	8343	8343	8343	8343	8343	8343	8343	8343	8343	8146	8343	8146	8146	8146	8146	8146	8146	8146	8146	8343	8343	8343	8343	8343	8343	8343	8343	8343	8146	8146	8146	8146	8146	8146	8146	8343	8343	8343	8146	8146	8146	8146	8146	8146	8146	8146	8146	8146	8146	8146	8146	8146	8146	8146	0	0	0	0	3779	3738	3738	3738	3738	3738	3738	3738	3698	3738	3738	3698	3698	3698	3698	3698	3698	3698	3698	3698	3698	3659	3659	3659	3659	3621	3659	3659	3659	3659	3659	3621	3659	3659	3659	3659	3659	3698	3738	3698	3698	3698	3698	3698	3698	3698	3738	3738	3738	3738	3738	3738	3779	3779	3779	3779	3779	3779	3779	3779	3779	3779	3779	3779	3779	3779	3779	3779	3779	3779	3779	3779	0	8146	8146	8146	8146	8146	8146	8146	8146	8146	8146	8343	8146	8146	8146	8146	8146	8146	8146	8146	8343	8343	8343	8343	8343	8550	8550	8343	8343	8343	8343	8146	8343	8343	8343	8343	8343	8343	8343	8343	8146	7959	8146	8146	8343	8343	8146	8343	8343	8343	8550	8550	8550	8343	8343	8343	8343	8343	8146	8146	8146	8146	8146	7959	7959	7959	7959	7959	7959	7959	7959	7959	7959	7959	7959	7959	7959	7959	7959	7959	7959	7779	7959	7779	7779	7779	7959	7959	7959	7959	7959	7959	7959	7959	7959	7959	7959	7959	7959	7779	7779	7779	7779	7959	7959	7959	7959	7959	7959	7959	8146	7959	7959	7959	8146	8146	8146	8146	8146	8146	8146	8146	8146	8146	8146	8146	7959	8146	8146	8146	8146	8146	8146	8146	8146	8146	8343	8343	8146	8146	8146	7959	7959	7959	8146	8146	8146	8146	8146	8146	8146	8146	8146	8146	8146	8146	8146	8146	8146	8146	8146	8146	8343	8343	8343	8343	8343	8343	8343	8146	8146	8146	8146	8146	8343	8343	8343	8343	8550	8550	8767	8550	8550	8550	8550	8550	8550	8550	8550	8550	8550	8550	8550	8550	8550	8550	8550	8550	8550	8343	8146	8146	8146	8146	8146	8343	8146	8343	8550	8550	8146	8550	8550	8550	8146	8343	8343	8146	8343	8146	8146	8146	8146	8146	8146	8146	8146	8146	8146	7959	7959	7959	8146	8146	8146	8343	8343	8343	8343	8343	8343	0	0	0	0	0	0	0	0	0	2532	2551	2551	0	0	0	0	0	0	0	0	0	0	0	0	0	0	0	0	0	0	0	0	0	0	0	0	0	0	0	0	0	0	0	0	0	0	0	0
