0	0	0	0	0	0	0	0	1480	1480	1486	1486	1486	1486	1486	1486	1492	1492	1492	1492	1492	1492	1492	1492	1492	1512	1512	1512	1519	1512	1519	1519	1525	1525	1546	1546	1546	1553	1553	1560	1560	1560	1553	1553	1553	1567	1553	1553	1567	1574	1581	1581	1603	1603	1603	1603	0	0	2223	2223	2223	2223	2237	2266	2266	2266	2281	2266	2252	2237	2237	2237	2237	2237	2237	2237	2237	2223	2223	2223	2223	2223	2237	2237	2237	2237	2237	2237	2237	2223	2237	2237	2237	2237	2237	2237	2237	2237	2237	2237	2237	2237	2237	2237	2237	2237	2237	2237	2237	2237	2237	2237	2237	2237	2237	2237	2237	2237	2237	2237	2237	2237	2237	2237	2252	2252	2237	2237	2237	2237	2690	2669	2669	2649	2649	2649	2649	2649	2649	2629	2649	2649	2649	2649	2649	2649	2649	2649	2649	2629	2629	2629	2649	2649	2649	2649	2649	2649	2649	2649	2669	2669	2669	2669	2669	2669	2649	2649	3046	3046	3019	3019	3019	3019	2993	2993	2967	2993	2967	2967	2967	2967	2967	3738	3738	3779	3779	3779	3779	3779	3738	3779	3821	3821	3821	3779	3738	3738	3698	3698	3738	3738	3738	3738	3779	3779	3779	3821	3821	3821	3779	3821	3821	3821	3864	3864	3864	3864	3864	3864	3864	3864	3864	3864	3821	3821	3821	3821	3821	3821	3821	3821	3821	3821	3864	3864	3864	3821	3864	3864	3864	3864	3864	3864	3864	3864	3864	3864	3864	3864	3821	3821	3738	3738	3779	3821	3779	3738	3821	3821	3821	3821	3821	3821	3821	3779	3821	3821	3821	3821	3864	3864	3864	3864	3864	3864	3864	3864	3864	3821	3821	3821	3821	3821	3821	3821	3779	3779	3779	3779	3779	3779	3779	3779	3779	3779	3779	3779	3779	3821	3821	3821	3821	3864	3864	0	0	0	0	0	0	0	3821	3821	3821	3821	3821	3821	3821	3779	3821	3779	3779	3779	3864	3821	3821	3821	3821	3821	3821	3779	3779	3821	3779	3821	3821	3821	3821	3779	3779	3779	3779	3779	3779	3779	3779	3779	3779	3779	3779	3779	3779	3779	3779	3779	3779	3779	3779	3779	3779	3779	3779	3779	3779	3738	3779	3779	3779	3779	3779	3779	3779	3821	3779	3779	3779	3779	3779	3779	3779	3779	3779	3779	3779	3779	3779	3779	3779	3821	3821	3821	3821	3821	3821	3821	3821	3821	3821	3821	3821	3821	3821	3821	3821	3821	3821	3821	3821	3821	3821	3821	3821	3821	3821	3821	3821	3821	3779	3779	3779	3779	3821	3779	3779	3821	3821	3779	3821	3821	3821	3821	3779	3821	3821	3821	3821	3779	3779	3779	3779	3779	3821	3779	3821	3821	3821	3821	3821	3779	3779	3779	3779	3821	3779	3821	3821	3821	3821	3821	3821	3821	3821	3821	3821	3821	3821	3821	3821	3821	3821	3821	3821	3779	3821	3821	3821	3821	3821	3821	3821	3821	3821	3821	3821	3821	3821	3821	3821	3821	3821	3779	3821	3821	3779	3821	3779	3821	3821	3821	3779	3779	3821	3821	3779	3779	3779	3779	3779	3779	3779	3738	3779	3779	3779	3779	3779	3779	3779	3779	3738	3738	3738	3738	3738	3738	3698	3698	3738	3738	3779	3779	3738	3738	3738	3738	3698	3698	3698	3698	3698	3738	3738	3738	3779	3738	3738	3738	3738	3698	3698	3698	3698	3698	3698	3698	3698	3698	3738	3738	3738	3738	3738	3698	3698	3698	3698	3698	3698	3698	3698	3738	3698	3698	3698	3698	3738	3698	3698	3698	3659	3659	3659	3659	3659	3698	3659	3698	3698	3698	3659	3659	3659	3659	3659	3659	3659	3738	3698	3738	3698	3698	3738	3738	3738	0	0	0	0	0	0	0	0	0	0	0	0	0	0	0	0	0	0	0	0	0	0	0	0	0	0	0	0	0	0	0	0	0	0	0
0	0	0	0	0	0	0	0	1486	1486	1492	1492	1492	1492	1492	1492	1499	1499	1499	1499	1499	1499	1499	1519	1512	1512	1512	1512	1519	1519	1519	1519	1525	1525	1546	1546	1546	1539	1546	1546	1546	1546	1546	1546	1553	1553	1567	1553	1574	1581	1581	1596	1603	1603	1611	1611	0	0	2223	2223	2223	2237	2237	2237	2252	2266	2281	2266	2252	2252	2237	2237	2237	2252	2237	2237	2252	2223	2252	2237	2223	2237	2237	2237	2237	2237	2237	2237	2237	2237	2237	2237	2237	2237	2237	2237	2237	2237	2237	2237	2237	2237	2252	2237	2237	2252	2237	2252	2237	2237	2237	2237	2237	2237	2237	2252	2237	2237	2237	2237	2237	2237	2237	2237	2252	2252	2237	2252	2252	2237	2237	2690	2669	2669	2649	2649	2649	2649	2649	2649	2649	2649	2649	2649	2649	2649	2649	2629	2629	2629	2629	2629	2629	2629	2629	2649	2649	2649	2649	2649	2669	2669	2669	2669	2669	2649	2649	2649	3046	3046	3046	3019	3019	3019	2993	2993	2967	2993	2993	2993	2993	2993	3864	3821	3779	3779	3779	3779	3779	3779	3779	3821	3821	3821	3779	3779	3738	3738	3738	3738	3738	3779	3779	3779	3779	3779	3779	3779	3779	3821	3779	3821	3821	3821	3821	3864	3821	3864	3864	3864	3864	3864	3864	3864	3821	3821	3821	3821	3779	3779	3779	3821	3821	3821	3821	3821	3821	3821	3864	3864	3864	3864	3821	3821	3821	3864	3821	3864	3821	3864	3821	3821	3779	3779	3821	3821	3779	3779	3821	3821	3864	3821	3821	3821	3821	3821	3821	3821	3821	3864	3864	3864	3864	3864	3864	3864	3864	3864	3821	3821	3821	3821	3821	3821	3821	3821	3821	3779	3779	3779	3779	3779	3779	3779	3779	3779	3779	3779	3779	3779	3821	0	0	0	0	0	0	0	0	0	0	0	0	0	3821	3779	3779	3779	3779	3779	3738	3779	3779	3821	3821	3821	3821	3821	3821	3821	3821	3821	3779	3821	3821	3821	3821	3821	3779	3779	3779	3779	3779	3779	3779	3738	3779	3779	3779	3779	3779	3779	3779	3779	3779	3779	3779	3779	3779	3779	3779	3779	3779	3779	3779	3779	3779	3779	3779	3779	3779	3779	3779	3821	3779	3779	3779	3779	3779	3779	3779	3779	3779	3779	3779	3779	3779	3779	3779	3821	3821	3821	3821	3821	3821	3821	3821	3821	3821	3821	3821	3821	3821	3821	3779	3821	3821	3821	3821	3821	3821	3821	3821	3821	3821	3821	3779	3779	3779	3779	3779	3779	3779	3779	3821	3779	3779	3779	3821	3821	3821	3821	3821	3821	3821	3821	3821	3779	3779	3779	3779	3821	3821	3779	3821	3821	3821	3821	3821	3821	3779	3821	3821	3821	3821	3821	3821	3821	3821	3821	3821	3821	3821	3821	3821	3821	3821	3821	3821	3821	3821	3821	3821	3821	3821	3821	3821	3821	3821	3821	3821	3821	3821	3821	3821	3821	3821	3821	3821	3821	3821	3821	3821	3821	3779	3821	3821	3821	3821	3821	3821	3779	3821	3821	3779	3779	3779	3779	3779	3779	3738	3738	3779	3779	3779	3779	3779	3779	3779	3779	3779	3779	3779	3738	3738	3738	3698	3738	3698	3698	3738	3738	3738	3738	3738	3738	3698	3698	3698	3698	3698	3738	3738	3738	3779	3779	3738	3698	3779	3698	3698	3698	3698	3698	3698	3738	3738	3738	3738	3738	3738	3738	3738	3698	3698	3698	3698	3698	3698	3698	3698	3698	3698	3698	3698	3698	3698	3698	3698	3659	3659	3659	3659	3659	3659	3659	3659	3659	3698	3659	3659	3659	3659	3659	3659	3659	3659	3738	3698	3738	3698	3738	3738	3738	3738	0	0	0	0	0	0	0	0	0	0	0	0	0	0	0	0	0	0	0	0	0	0	0	0	0	0	0	0	0	0	0	0	0	0	0
0	0	0	0	0	0	0	0	1492	1492	1499	1499	1499	1492	1499	1499	1506	1512	1506	1506	1506	1506	1506	1506	1512	1512	1512	1519	1519	1519	1519	1525	1525	1525	1539	1539	1546	1539	1546	1546	1546	1546	1546	1546	1553	1553	1553	1560	1567	1574	1581	1589	1603	1596	1596	1596	0	0	2223	2223	2223	2237	2252	2266	2266	2266	2281	2266	2266	2266	2252	2252	2252	2252	2237	2237	2237	2237	2237	2237	2237	2237	2252	2252	2252	2237	2252	2237	2237	2237	2237	2237	2237	2237	2237	2237	2237	2237	2237	2252	2252	2252	2252	2252	2252	2252	2252	2252	2237	2237	2237	2252	2252	2252	2252	2266	2252	2252	2252	2252	2252	2252	2252	2252	2252	2252	2252	2252	2252	2266	2266	2690	2690	2669	2649	2649	2649	2649	2649	2649	2649	2649	2649	2669	2649	2649	2649	2649	2629	2629	2629	2629	2629	2629	2629	2629	2649	2629	2649	2649	2669	2669	2669	2669	2669	2649	2649	2649	3046	3046	3046	3046	3019	3019	3019	2993	2993	2993	2993	3019	3019	3046	3046	3821	3821	3821	3821	3779	3779	3779	3779	3779	3821	3821	3779	3779	3779	3779	3779	3779	3738	3779	3779	3779	3738	3821	3821	3821	3779	3779	3821	3821	3821	3864	3864	3864	3821	3864	3864	3864	3864	3864	3864	3864	3821	3821	3821	3779	3779	3779	3779	3821	3821	3821	3821	3821	3821	3821	3864	3864	3821	3821	3821	3821	3821	3821	3821	3821	3821	3821	3821	3821	3779	3779	3821	3821	3821	3821	3821	3864	3864	3864	3864	3821	3821	3821	3821	3821	3821	3864	3864	3864	3864	3864	3864	3864	3864	3864	3864	3821	3821	3864	3821	3821	3864	3821	3821	3779	3779	3779	3779	3779	3779	3779	3779	3779	3779	3779	3779	3779	0	0	0	0	0	0	0	0	0	0	0	0	0	0	0	3779	3779	3779	3779	3779	3779	3738	3738	3779	3779	3779	3779	3779	3779	3821	3821	3779	3779	3821	3821	3821	3821	3821	3864	3821	3779	3779	3779	3779	3779	3779	3779	3779	3779	3779	3779	3779	3779	3779	3779	3779	3779	3779	3779	3779	3779	3779	3779	3779	3779	3779	3779	3779	3779	3779	3779	3821	3779	3779	3779	3779	3779	3821	3779	3779	3779	3779	3779	3779	3779	3779	3779	3779	3779	3821	3779	3821	3821	3821	3821	3821	3821	3821	3821	3821	3821	3821	3821	3821	3821	3821	3821	3821	3821	3821	3821	3821	3821	3821	3779	3779	3779	3779	3779	3779	3779	3779	3779	3779	3821	3779	3821	3779	3821	3779	3821	3779	3779	3779	3779	3821	3821	3779	3779	3821	3821	3821	3821	3821	3821	3821	3821	3821	3821	3779	3779	3821	3779	3779	3821	3821	3821	3821	3821	3821	3821	3821	3821	3821	3779	3821	3821	3821	3821	3821	3821	3821	3821	3821	3821	3821	3821	3821	3821	3821	3821	3821	3821	3821	3821	3821	3821	3821	3821	3821	3821	3821	3821	3821	3779	3779	3779	3779	3779	3821	3779	3779	3821	3821	3779	3779	3779	3821	3779	3779	3779	3779	3821	3779	3779	3779	3779	3779	3779	3779	3779	3779	3779	3738	3738	3738	3738	3738	3698	3698	3738	3738	3738	3738	3738	3738	3738	3698	3698	3698	3698	3738	3738	3738	3779	3738	3738	3698	3698	3698	3698	3738	3738	3698	3698	3698	3738	3738	3738	3698	3738	3738	3738	3698	3698	3698	3698	3738	3698	3698	3698	3698	3698	3698	3698	3698	3698	3659	3659	3659	3659	3659	3659	3659	3659	3659	3659	3698	3698	3698	3698	3659	3659	3659	3659	3659	3659	3698	3698	3698	3698	3738	3738	3738	3738	0	0	0	0	0	0	0	0	0	0	0	0	0	0	0	0	0	0	0	0	0	0	0	0	0	0	0	0	0	0	0	0	0	0	0
0	0	0	0	0	0	0	0	1499	1499	1519	1519	1506	1499	1512	1512	1512	1512	1512	1512	1512	1512	1512	1506	1506	1512	1519	1519	1519	1519	1525	1525	1525	1539	1539	1539	1539	1546	1546	1546	1546	1546	1546	1546	1546	1553	1553	1560	1581	1581	1581	1589	1596	1603	1596	1596	0	0	2223	2237	2237	2237	2252	2252	2252	2252	2266	2266	2266	2266	2252	2252	2252	2266	2252	2252	2237	2237	2237	2237	2237	2237	2252	2252	2252	2252	2252	2252	2252	2252	2237	2237	2237	2237	2237	2237	2252	2252	2252	2252	2252	2266	2252	2252	2252	2252	2252	2252	2252	2252	2252	2252	2266	2266	2266	2266	2266	2281	2252	2252	2252	2252	2266	2266	2266	2266	2266	2266	2266	2266	2281	2281	2690	2669	2649	2649	2649	2649	2649	2649	2649	2649	2649	2649	2649	2649	2649	2649	2649	2629	2629	2629	2629	2629	2629	2629	2649	2629	2649	2649	2669	2669	2669	2669	2669	2669	2649	2649	3073	3046	3046	3046	3046	3019	3019	3019	2993	3019	3019	3019	3019	3046	3073	3073	3101	3779	3779	3779	3779	3779	3738	3779	3779	3779	3779	3738	3779	3779	3738	3779	3738	3738	3779	3738	3738	3738	3738	3738	3738	3779	3779	3821	3821	3821	3864	3821	3821	3864	3864	3864	3864	3864	3864	3864	3821	3821	3821	3779	3779	3779	3779	3779	3821	3821	3821	3821	3821	3779	3821	3821	3864	3864	3821	3821	3821	3821	3821	3821	3821	3821	3821	3821	3821	3821	3821	3864	3864	3821	3821	3864	3864	3864	3864	3821	3821	3821	3821	3821	3821	3864	3864	3864	3864	3864	3864	3864	3864	3864	3821	3821	3821	3821	3821	3821	3821	3821	3821	3779	3779	3779	3779	3779	3779	3779	3779	3779	3779	3779	3779	0	0	0	0	0	0	0	0	0	0	2669	2649	2649	0	0	0	0	0	3779	3779	3779	3779	3738	3779	3779	3779	3779	3779	3779	3779	3779	3821	3779	3779	3821	3821	3821	3821	3864	3864	3821	3779	3779	3779	3779	3779	3779	3779	3779	3779	3779	3779	3779	3779	3779	3779	3779	3779	3779	3779	3779	3779	3779	3779	3779	3779	3779	3779	3779	3779	3779	3779	3779	3779	3821	3779	3779	3779	3821	3779	3821	3779	3779	3779	3779	3779	3779	3779	3779	3779	3821	3779	3779	3821	3821	3821	3821	3821	3821	3821	3821	3821	3821	3821	3821	3821	3821	3821	3821	3821	3821	3821	3821	3821	3821	3779	3779	3779	3779	3779	3779	3779	3779	3779	3779	3821	3821	3821	3821	3821	3779	3821	3779	3779	3779	3779	3779	3779	3779	3779	3779	3779	3779	3779	3779	3821	3821	3821	3821	3821	3779	3779	3779	3779	3779	3779	3821	3821	3821	3821	3821	3821	3821	3821	3821	3779	3821	3821	3864	3821	3821	3821	3821	3821	3821	3821	3821	3821	3821	3821	3821	3821	3821	3821	3821	3821	3821	3821	3779	3821	3821	3821	3821	3821	3821	3821	3821	3821	3821	3821	3779	3779	3821	3821	3821	3779	3779	3779	3821	3821	3779	3779	3821	3821	3821	3779	3779	3779	3779	3779	3779	3779	3779	3738	3738	3738	3698	3698	3698	3698	3698	3738	3698	3738	3698	3698	3698	3698	3698	3698	3698	3698	3738	3738	3738	3738	3738	3738	3659	3659	3698	3698	3698	3698	3738	3738	3738	3738	3738	3738	3738	3738	3738	3738	3698	3698	3698	3698	3698	3698	3698	3698	3659	3698	3698	3698	3659	3698	3659	3659	3659	3659	3659	3659	3659	3659	3659	3659	3698	3698	3698	3698	3659	3659	3659	3659	3659	3659	3659	3698	3698	3698	3738	3738	3738	3738	0	0	0	0	0	0	0	0	0	0	0	0	0	0	0	0	0	0	0	0	0	0	0	0	0	0	0	0	0	0	0	0	0	0	0
0	0	0	0	0	0	0	0	1506	1506	1519	1519	1512	1512	1519	1519	1519	1519	1519	1512	1512	1512	1512	1512	1512	1512	1519	1519	1519	1519	1525	1532	1525	1539	1539	1546	1546	1546	1546	1546	1546	1546	1546	1546	1546	1553	1553	1560	1567	1574	1581	1589	1596	1596	1603	1603	0	0	2237	2237	2237	2252	2252	2252	2266	2266	2266	2266	2266	2266	2252	2252	2252	2266	2252	2252	2237	2237	2237	2237	2237	2237	2252	2252	2266	2266	2266	2252	2252	2252	2252	2237	2237	2237	2237	2252	2281	2281	2266	2266	2266	2281	2266	2266	2266	2266	2266	2252	2252	2252	2252	2266	2266	2266	2266	2266	2266	2266	2266	2266	2266	2266	2266	2266	2266	2266	2266	2266	2266	2281	2281	2266	2266	2649	2649	2649	2649	2649	2649	2649	2649	2649	2649	2649	2649	2649	2649	2649	2649	2629	2629	2629	2629	2629	2629	2629	2649	2629	2649	2649	2669	2669	2669	2669	2669	2649	2649	2649	3046	3046	3046	3046	3046	3046	3046	3019	3046	3046	3046	3046	3046	3046	3073	3101	3101	3779	3779	3779	3779	3779	3738	3738	3779	3738	3738	3738	3779	3779	3779	3779	3738	3779	3779	3779	3738	3738	3698	3738	3738	3738	3738	3779	3779	3821	3821	3821	3821	3821	3821	3864	3864	3864	3864	3864	3821	3821	3821	3779	3779	3779	3779	3779	3821	3821	3821	3821	3821	3821	3864	3864	3821	3864	3864	3821	3864	3821	3821	3821	3821	3821	3821	3821	3738	3821	3821	3821	3821	3821	3821	3864	3864	3864	3864	3821	3821	3821	3821	3821	3864	3864	3864	3864	3864	3864	3864	3864	3864	3864	3864	3821	3821	3821	3821	3821	3821	3821	3821	3779	3779	3779	3779	3779	3779	3779	3779	3779	3779	3779	0	0	0	0	0	0	0	0	0	2669	2669	2669	2669	2669	2649	2649	0	0	0	0	0	0	0	0	3779	3779	3779	3779	3779	3779	3779	3779	3779	3779	3779	3821	3821	3821	3821	3821	3821	3821	3779	3779	3779	3779	3779	3779	3779	3779	3779	3779	3779	3779	3779	3779	3779	3779	3779	3779	3779	3779	3779	3779	3779	3779	3779	3779	3779	3779	3779	3779	3779	3779	3821	3821	3821	3821	3821	3821	3821	3821	3779	3779	3779	3779	3779	3779	3779	3779	3779	3821	3779	3779	3821	3821	3821	3821	3821	3821	3821	3821	3821	3821	3821	3821	3821	3779	3779	3779	3821	3821	3821	3821	3779	3779	3779	3779	3779	3779	3779	3779	3779	3779	3779	3821	3821	3821	3821	3821	3779	3779	3779	3779	3779	3779	3779	3779	3779	3779	3779	3779	3779	3779	3779	3779	3821	3821	3821	3821	3779	3779	3779	3779	3779	3779	3779	3779	3821	3821	3821	3821	3821	3821	3821	3821	3779	3821	3821	3864	3864	3821	3821	3821	3821	3821	3821	3821	3821	3821	3821	3821	3821	3821	3821	3821	3821	3821	3821	3821	3821	3821	3821	3821	3821	3821	3821	3821	3821	3821	3821	3779	3779	3821	3821	3821	3779	3779	3779	3821	3821	3821	3821	3821	3821	3821	3821	3821	3779	3779	3779	3779	3779	3779	3738	3738	3738	3738	3698	3698	3698	3698	3738	3698	3698	3698	3698	3698	3698	3698	3698	3698	3698	3738	3738	3698	3738	3698	3698	3698	3698	3698	3698	3698	3698	3738	3738	3738	3738	3738	3738	3738	3738	3738	3738	3738	3738	3698	3698	3738	3738	3698	3659	3659	3659	3659	3659	3659	3738	3659	3698	3659	3659	3659	3659	3698	3659	3698	3659	3659	3698	3698	3659	3659	3659	3659	3659	3621	3621	3698	3698	3698	3698	3738	3698	3738	3738	0	0	0	0	0	0	0	0	0	0	0	0	0	0	0	0	0	0	0	0	0	0	0	0	0	0	0	0	0	0	0	0	0	0	0
0	0	0	0	0	0	0	0	1519	1519	1525	1525	1539	1539	1525	1525	1525	1525	1519	1519	1519	1519	1519	1512	1512	1519	1519	1519	1519	1519	1532	1532	1532	1532	1539	1546	1539	1546	1539	1539	1546	1546	1546	1546	1546	1553	1553	1560	1567	1574	1581	1581	1589	1589	1589	1589	1589	0	2237	2237	2252	2252	2266	2266	2266	2266	2266	2266	2266	2266	2266	2266	2266	2266	2266	2266	2252	2252	2252	2252	2252	2252	2252	2266	2281	2281	2281	2266	2266	2266	2252	2252	2281	2237	2237	2297	2297	2297	2297	2266	2281	2281	2281	2266	2266	2266	2281	2266	2266	2266	2266	2281	2281	2281	2281	2281	2281	2281	2281	2266	2281	2266	2266	2266	2266	2281	2281	2281	2281	2281	2297	2281	2281	2669	2649	2649	2649	2649	2649	2629	2629	2629	2629	2629	2629	2629	2649	2629	2629	2629	2629	2629	2629	2629	2629	2629	2629	2629	2649	2649	2669	2669	2669	2669	2669	2669	2669	3046	3046	3046	3046	3046	3046	3046	3046	3046	3073	3073	3046	3073	3073	3073	3073	3101	3101	3779	3779	3779	3779	3779	3738	3779	3779	3779	3779	3738	3779	3779	3779	3821	3779	3738	3779	3779	3738	3738	3738	3738	3738	3738	3738	3779	3821	3821	3821	3821	3821	3821	3821	3821	3821	3821	3821	3821	3821	3821	3779	3779	3779	3779	3779	3779	3821	3821	3821	3821	3821	3821	3864	3864	3864	3864	3864	3864	3864	3821	3821	3821	3779	3821	3821	3738	3821	3821	3864	3864	3864	3864	3864	3864	3864	3864	3864	3864	3864	3821	3821	3821	3821	3864	3864	3864	3864	3864	3864	3864	3864	3821	3821	3821	3821	3821	3821	3821	3821	3821	3821	3779	3779	3779	3779	3738	3779	3738	3738	3779	3779	0	0	0	0	0	0	0	0	2669	2669	2669	2669	2669	2669	2669	2669	2690	2690	2690	2690	0	0	0	0	0	0	0	3779	3779	3779	3779	3779	3779	3821	3779	3821	3821	3821	3864	3821	3821	3821	3821	3779	3779	3779	3779	3779	3779	3738	3738	3779	3779	3779	3779	3779	3779	3779	3779	3779	3779	3779	3779	3779	3779	3779	3779	3779	3779	3779	3779	3779	3779	3779	3779	3779	3779	3821	3779	3779	3821	3821	3779	3779	3779	3779	3779	3779	3779	3779	3779	3738	3779	3779	3779	3779	3821	3779	3821	3821	3821	3821	3821	3821	3821	3779	3779	3779	3779	3779	3779	3821	3821	3821	3821	3779	3779	3779	3779	3779	3779	3779	3779	3779	3779	3779	3821	3821	3821	3821	3821	3779	3779	3779	3779	3779	3779	3779	3779	3779	3779	3779	3779	3779	3779	3779	3779	3779	3779	3779	3821	3779	3779	3779	3779	3779	3779	3779	3779	3779	3779	3779	3821	3821	3821	3821	3821	3779	3821	3821	3864	3864	3821	3821	3821	3821	3821	3821	3779	3779	3821	3821	3821	3821	3821	3821	3821	3821	3821	3821	3821	3821	3821	3821	3821	3821	3821	3821	3821	3779	3779	3779	3779	3779	3821	3821	3821	3779	3821	3821	3821	3821	3821	3821	3821	3821	3821	3779	3779	3779	3779	3779	3779	3779	3738	3738	3738	3738	3698	3698	3698	3698	3698	3738	3698	3738	3698	3698	3698	3698	3698	3698	3698	3659	3698	3698	3698	3738	3698	3698	3698	3698	3698	3698	3698	3698	3698	3738	3738	3738	3738	3738	3738	3738	3738	3738	3738	3738	3698	3698	3738	3738	3738	3659	3659	3659	3738	3738	3738	3738	3698	3698	3659	3659	3659	3659	3698	3659	3659	3659	3659	3659	3659	3659	3659	3659	3659	3659	3659	3621	3698	3698	3698	3698	3738	3738	3738	3738	0	0	0	0	0	0	0	0	0	0	0	0	0	0	0	0	0	0	0	0	0	0	0	0	0	0	0	0	0	0	0	0	0	0	0
0	0	0	0	0	0	0	0	1525	1525	1532	1532	1539	1546	1532	1525	1525	1525	1525	1519	1519	1519	1519	1519	1519	1525	1525	1519	1519	1525	1532	1532	1532	1539	1539	1539	1539	1539	1539	1539	1539	1539	1546	1546	1546	1553	1553	1560	1567	1574	1574	1581	1589	1581	1589	1589	1589	0	0	2252	2266	2252	2266	2266	2266	2281	2281	2281	2281	2281	2266	2281	2281	2281	2281	2281	2266	2266	2266	2266	2252	2252	2252	2266	2281	2281	2281	2281	2281	2281	2281	2281	2281	2281	2297	2297	2297	2297	2297	2297	2281	2281	2281	2281	2281	2281	2281	2281	2281	2281	2281	2281	2297	2281	2281	2297	2281	2281	2281	2281	2281	2281	2281	2281	2281	2281	2281	2281	2281	2281	2281	2297	2297	2297	2297	2649	2669	2649	2649	2629	2629	2629	2629	2629	2629	2629	2649	2629	2629	2629	2629	2629	2629	2629	2629	2629	2629	2629	2629	2649	2669	2669	2669	2669	2649	2649	2649	3073	3073	3073	3073	3073	3073	3073	3073	3073	3073	3101	3073	3073	3073	3073	3101	3101	3101	3101	3779	3779	3779	3779	3738	3738	3779	3779	3779	3738	3779	3779	3779	3779	3738	3738	3779	3738	3738	3738	3738	3738	3738	3738	3779	3779	3779	3779	3821	3821	3821	3821	3821	3821	3821	3821	3821	3821	3821	3779	3779	3779	3779	3779	3779	3779	3821	3821	3821	3821	3821	3821	3864	3864	3864	3864	3864	3864	3864	3821	3821	3821	3779	3821	3821	3821	3821	3864	3864	3864	3864	3864	3864	3864	3864	3864	3864	3864	3821	3821	3821	3821	3864	3864	3864	3864	3864	3864	3864	3864	3864	3864	3821	3821	3821	3821	3821	3821	3821	3821	3821	3779	3779	3779	3738	3738	3738	3738	3738	0	0	0	0	0	0	0	0	0	2669	2669	2669	2669	2669	2669	2649	2649	2649	2669	2669	2690	2690	2690	0	0	0	0	0	0	0	3779	3779	3779	3779	3779	3821	3821	3821	3821	3821	3821	3821	3821	3821	3821	3779	3779	3779	3779	3779	3779	3738	3738	3738	3738	3738	3738	3779	3779	3779	3779	3779	3779	3779	3779	3779	3779	3779	3779	3779	3779	3779	3779	3779	3779	3779	3779	3779	3779	3821	3779	3779	3821	3821	3779	3779	3779	3779	3779	3779	3779	3779	3779	3738	3779	3779	3779	3821	3821	3821	3821	3821	3821	3821	3821	3821	3821	3821	3779	3779	3779	3779	3821	3821	3821	3821	3821	3821	3821	3821	3779	3779	3779	3779	3779	3779	3779	3779	3779	3821	3779	3779	3779	3779	3779	3779	3779	3779	3779	3779	3779	3779	3779	3779	3779	3779	3779	3779	3779	3779	3779	3821	3821	3821	3779	3779	3779	3779	3779	3779	3779	3779	3779	3779	3779	3779	3779	3779	3779	3779	3821	3821	3821	3821	3821	3821	3821	3821	3821	3779	3779	3779	3779	3821	3821	3821	3864	3864	3821	3821	3821	3821	3821	3821	3821	3821	3821	3821	3821	3821	3821	3821	3779	3779	3779	3779	3821	3821	3821	3821	3821	3821	3821	3821	3821	3821	3821	3821	3821	3779	3779	3779	3779	3779	3779	3779	3738	3738	3738	3738	3698	3698	3698	3698	3698	3738	3698	3698	3698	3738	3738	3738	3698	3698	3698	3738	3698	3698	3698	3738	3738	3738	3738	3738	3738	3698	3698	3698	3738	3738	3738	3738	3738	3738	3698	3738	3738	3738	3738	3738	3698	3698	3738	3738	3738	3659	3659	3659	3659	3698	3698	3698	3659	3698	3698	3698	3698	3698	3698	3659	3698	3659	3659	3659	3659	3659	3659	3659	3659	3659	3659	3659	3698	3698	3698	3698	3698	3698	3738	3738	0	0	0	0	0	0	0	0	0	0	0	0	0	0	0	0	0	0	0	0	0	0	0	0	0	0	0	0	0	0	0	0	0	0	0
0	0	0	0	0	0	0	0	1532	1532	1539	1539	1539	1546	1532	1525	1525	1525	1525	1519	1519	1519	1519	1519	1532	1532	1532	1532	1532	1532	1532	1532	1532	1532	1532	1539	1539	1539	1539	1539	1539	1539	1546	1546	1546	1553	1553	1560	1567	1574	1574	1581	1581	1581	1581	1581	1589	0	2266	2266	2266	2252	2266	2266	2266	2266	2281	2266	2281	2281	2266	2281	2281	2281	2281	2281	2266	2266	2281	2266	2266	2266	2266	2281	2297	2297	2297	2297	2297	2297	2281	2297	2312	2312	2312	2312	2312	2312	2297	2297	2297	2297	2281	2281	2281	2281	2281	2281	2281	2281	2281	2281	2297	2297	2297	2297	2297	2281	2297	2281	2281	2281	2281	2281	2281	2281	2281	2281	2281	2281	2281	2297	2297	2312	2297	2297	2669	2649	2649	2629	2629	2629	2629	2629	2629	2629	2649	2649	2629	2629	2629	2629	2629	2629	2629	2629	2629	2629	2629	2629	2669	2669	2669	2649	2649	2649	2649	3073	3073	3073	3073	3101	3101	3101	3101	3129	3129	3129	3129	3101	3129	3101	3101	3129	3101	3101	3821	3779	3779	3779	3779	3779	3779	3779	3779	3779	3779	3779	3779	3779	3738	3738	3779	3738	3738	3738	3738	3738	3779	3779	3821	3779	3821	3821	3821	3821	3821	3821	3821	3821	3821	3821	3821	3821	3821	3821	3779	3779	3779	3779	3779	3821	3821	3821	3821	3821	3821	3821	3864	3864	3864	3864	3864	3864	3864	3821	3821	3821	3779	3779	3821	3864	3864	3864	3864	3864	3864	3864	3864	3864	3864	3864	3864	3864	3864	3864	3821	3821	3864	3864	3864	3864	3864	3864	3864	3864	3864	3864	3864	3864	3821	3821	3821	3821	3821	3821	3779	3779	3779	3779	3738	3738	3738	3738	3738	0	0	0	0	0	2669	2669	2669	2669	2669	2669	2669	2669	2669	2669	2649	2649	2669	2669	2669	2690	2690	2690	2690	0	0	0	0	0	0	0	3779	3779	3779	3779	3779	3779	3821	3821	3821	3821	3821	3821	3821	3821	3779	3779	3779	3779	3779	3738	3738	3738	3738	3738	3779	3779	3779	3779	3779	3738	3779	3738	3779	3779	3779	3779	3779	3779	3779	3779	3779	3779	3779	3779	3779	3779	3779	3779	3779	3779	3779	3779	3779	3779	3779	3779	3779	3779	3779	3779	3779	3779	3738	3779	3779	3779	3821	3779	3821	3821	3821	3821	3821	3821	3821	3821	3779	3779	3779	3779	3779	3779	3821	3821	3821	3821	3821	3821	3821	3821	3779	3779	3779	3779	3779	3779	3779	3779	3779	3779	3779	3779	3779	3779	3779	3779	3779	3779	3779	3779	3779	3779	3779	3779	3779	3779	3779	3779	3779	3779	3779	3779	3779	3779	3779	3779	3779	3779	3779	3779	3779	3779	3779	3779	3779	3779	3779	3779	3779	3821	3821	3821	3821	3821	3821	3821	3821	3821	3779	3779	3821	3821	3821	3821	3821	3821	3821	3821	3821	3821	3821	3821	3821	3821	3821	3821	3821	3821	3821	3821	3821	3821	3821	3779	3821	3821	3821	3821	3821	3821	3821	3821	3821	3821	3821	3821	3821	3779	3779	3738	3738	3738	3779	3779	3779	3779	3738	3738	3738	3738	3698	3698	3698	3698	3698	3698	3738	3738	3738	3738	3738	3738	3738	3698	3698	3738	3738	3738	3738	3738	3738	3738	3738	3738	3738	3738	3738	3738	3738	3738	3738	3738	3738	3698	3738	3738	3738	3738	3738	3738	3738	3738	3738	3698	3659	3659	3659	3659	3659	3698	3698	3659	3698	3698	3698	3698	3698	3698	3698	3698	3659	3659	3659	3698	3698	3698	3698	3698	3659	3698	3698	3698	3698	3698	3698	3698	3698	3738	3738	0	0	0	0	0	0	0	0	0	0	0	0	0	0	0	0	0	0	0	0	0	0	0	0	0	0	0	0	0	0	0	0	0	0	0
0	0	0	0	0	0	0	0	1532	1532	1539	1546	1539	1546	1532	1532	1532	1532	1532	1546	1525	1539	1539	1539	1539	1539	1539	1539	1539	1539	1539	1539	1539	1539	1539	1546	1546	1546	1546	1546	1539	1539	1546	1539	1546	1553	1553	1560	1567	1567	1574	1574	1574	1574	1581	1581	0	0	2281	2266	2266	2252	2266	2266	2266	2266	2281	2281	2281	2281	2281	2281	2281	2281	2281	2281	2281	2281	2281	2281	2281	2281	2266	2297	2297	2297	2297	2297	2297	2312	2297	2297	2327	2327	2327	2312	2312	2297	2297	2297	2297	2297	2297	2297	2281	2297	2297	2281	2281	2297	2297	2297	2297	2297	2297	2297	2297	2297	2297	2297	2297	2297	2297	2297	2281	2297	2297	2297	2281	2297	2297	2312	2312	2312	2312	2327	2327	2669	2649	2629	2629	2629	2629	2629	2629	2629	2629	2629	2629	2649	2629	2629	2629	2629	2649	2649	2649	2649	2629	2649	2669	2669	2669	2649	2649	2649	2649	2649	3101	3101	3101	3101	3129	3129	3129	3129	3129	3129	3129	3129	3129	3101	3129	3129	3101	3101	3101	3779	3821	3779	3779	3779	3779	3779	3779	3779	3779	3779	3779	3779	3738	3779	3779	3738	3738	3738	3738	3738	3779	3779	3779	3779	3821	3779	3821	3821	3864	3821	3864	3821	3821	3821	3821	3821	3821	3821	3821	3821	3779	3779	3779	3821	3821	3821	3821	3821	3821	3821	3864	3864	3864	3864	3864	3864	3864	3821	3821	3779	3779	3779	3821	3821	3821	3864	3864	3864	3864	3864	3864	3864	3864	3864	3864	3864	3864	3864	3821	3821	3821	3821	3864	3864	3864	3864	3864	3864	3864	3821	3821	3821	3821	3821	3821	3821	3821	3821	3779	3779	3738	3738	3738	3738	3738	0	0	0	0	0	2649	2649	2649	2649	2649	2669	2669	2669	2669	2669	2649	2669	2649	2669	2669	2669	2690	2690	2690	2690	2690	2690	2690	2690	0	0	0	0	3779	3779	3779	3779	3779	3779	3779	3821	3821	3821	3821	3821	3821	3821	3779	3779	3779	3779	3779	3779	3779	3738	3738	3779	3779	3779	3738	3738	3779	3779	3779	3738	3738	3779	3779	3779	3779	3779	3779	3779	3779	3779	3779	3779	3779	3779	3779	3779	3779	3779	3779	3779	3779	3779	3779	3779	3779	3779	3779	3779	3779	3779	3738	3779	3779	3779	3821	3779	3821	3821	3821	3821	3821	3821	3821	3821	3779	3779	3779	3779	3779	3779	3779	3821	3821	3821	3821	3821	3821	3779	3779	3779	3779	3779	3779	3779	3779	3779	3779	3779	3779	3779	3779	3779	3779	3779	3779	3779	3779	3779	3779	3779	3779	3779	3779	3779	3779	3779	3779	3779	3779	3779	3779	3779	3779	3779	3779	3779	3779	3779	3779	3779	3779	3779	3779	3779	3779	3779	3779	3821	3821	3821	3821	3821	3821	3821	3821	3821	3821	3821	3821	3821	3821	3821	3821	3821	3821	3821	3821	3821	3821	3821	3821	3821	3821	3821	3821	3821	3821	3821	3821	3821	3821	3821	3821	3821	3821	3821	3821	3821	3821	3821	3821	3821	3821	3821	3779	3779	3779	3779	3738	3738	3779	3779	3779	3779	3738	3738	3738	3738	3698	3738	3738	3738	3738	3738	3738	3738	3738	3738	3738	3738	3738	3698	3698	3738	3738	3738	3738	3738	3738	3738	3738	3738	3738	3738	3738	3738	3698	3698	3698	3698	3698	3698	3738	3738	3738	3738	3738	3738	3738	3738	3738	3698	3698	3698	3698	3698	3698	3659	3698	3698	3698	3698	3698	3698	3659	3698	3698	3698	3659	3659	3659	3659	3698	3698	3698	3698	3659	3698	3698	3698	3698	3698	3698	3698	3698	3698	3698	0	0	0	0	0	0	0	0	0	0	0	0	0	0	0	0	0	0	0	0	0	0	0	0	0	0	0	0	0	0	0	0	0	0	0
0	0	0	0	0	0	0	0	1532	1532	1539	1539	1546	1553	1539	1539	1539	1539	1539	1546	1546	1546	1539	1539	1546	1539	1539	1539	1539	1539	1546	1546	1539	1539	1539	1546	1546	1539	1546	1546	1539	1539	1546	1539	1546	1553	1553	1560	1567	1574	1574	1581	1574	1574	1581	1581	1581	0	2281	2297	2281	2266	2266	2266	2281	2281	2281	2281	2281	2297	2297	2281	2281	2281	2281	2281	2281	2281	2281	2281	2281	2281	2281	2297	2312	2297	2312	2312	2312	2312	2312	2327	2343	2343	2343	2327	2327	2312	2312	2297	2297	2297	2297	2297	2297	2297	2297	2297	2297	2297	2297	2297	2297	2297	2297	2297	2297	2312	2312	2297	2297	2297	2297	2297	2297	2297	2297	2297	2297	2297	2297	2312	2312	2312	2327	2343	2343	2649	2649	2629	2629	2629	2629	2629	2629	2629	2629	2629	2629	2649	2629	2649	2629	2629	2649	2649	2649	2649	2649	2649	2669	2669	2669	2649	2649	2649	2649	2649	3101	3101	3101	3129	3129	3129	3129	3129	3129	3129	3129	3129	3129	3129	3129	3129	3129	3101	3101	3821	3821	3779	3779	3779	3779	3779	3779	3779	3779	3779	3779	3779	3698	3779	3779	3738	3738	3738	3738	3738	3779	3779	3779	3779	3821	3821	3821	3821	3821	3821	3821	3821	3821	3821	3864	3821	3821	3821	3821	3821	3821	3821	3779	3821	3821	3821	3821	3821	3821	3821	3864	3864	3864	3864	3864	3864	3864	3821	3821	3821	3779	3821	3821	3821	3821	3864	3864	3864	3821	3864	3864	3864	3864	3864	3864	3864	3864	3864	3821	3821	3821	3821	3864	3864	3864	3821	3864	3864	3864	3864	3821	3821	3821	3821	3821	3821	3821	3779	3779	3779	3779	3738	3738	3738	3738	0	0	0	0	2669	2669	2669	2669	2669	2649	2649	2649	2649	2649	2649	2649	2649	2649	2669	2690	2669	2690	2690	2690	2690	2690	2690	2690	2690	0	0	0	0	3779	3779	3779	3779	3779	3779	3779	3779	3821	3821	3779	3821	3821	3821	3779	3779	3779	3779	3779	3779	3779	3779	3779	3779	3779	3779	3779	3779	3779	3779	3779	3738	3738	3779	3779	3738	3738	3779	3779	3779	3779	3779	3779	3779	3779	3779	3779	3779	3779	3779	3779	3779	3779	3779	3779	3779	3779	3779	3779	3779	3779	3779	3779	3821	3821	3821	3821	3821	3821	3821	3821	3821	3821	3779	3821	3821	3779	3779	3779	3779	3779	3779	3779	3779	3821	3821	3821	3821	3821	3779	3779	3779	3779	3779	3779	3779	3779	3779	3779	3779	3779	3779	3779	3779	3779	3779	3779	3779	3779	3779	3779	3779	3779	3779	3779	3779	3779	3779	3779	3779	3779	3779	3779	3779	3779	3779	3779	3779	3779	3779	3779	3779	3779	3779	3779	3779	3779	3779	3779	3821	3821	3821	3821	3821	3821	3821	3821	3779	3779	3821	3821	3821	3821	3821	3821	3864	3821	3821	3821	3821	3821	3821	3821	3821	3821	3821	3821	3821	3821	3821	3821	3821	3821	3821	3821	3821	3821	3821	3821	3821	3821	3821	3821	3821	3779	3779	3738	3779	3779	3738	3738	3738	3779	3779	3779	3779	3779	3738	3779	3738	3738	3738	3738	3738	3738	3738	3738	3738	3779	3738	3738	3738	3738	3698	3698	3738	3738	3738	3738	3738	3738	3738	3738	3738	3738	3738	3738	3738	3738	3698	3698	3698	3698	3698	3698	3738	3738	3738	3738	3738	3738	3738	3738	3698	3698	3698	3698	3738	3698	3659	3738	3698	3698	3698	3698	3698	3659	3698	3698	3698	3659	3659	3659	3698	3698	3659	3659	3698	3659	3659	3659	3698	3698	3698	3698	3698	3698	3698	3698	0	0	0	0	0	0	0	0	0	0	0	0	0	0	0	0	0	0	0	0	0	0	0	0	0	0	0	0	0	0	0	0	0	0	0
0	0	0	0	0	0	0	0	0	1532	1539	1539	1546	1539	1539	1539	1539	1546	1546	1553	1546	1546	1546	1546	1546	1546	1546	1546	1539	1539	1546	1539	1546	1546	1546	1546	1546	1546	1546	1546	1539	1539	1546	1539	1546	1553	1553	1560	1560	1567	1574	1574	1574	1574	1574	1596	1596	0	2312	2312	2297	2281	2281	2281	2281	2281	2297	2281	2297	2297	2297	2297	2297	2281	2297	2297	2297	2297	2327	2327	2312	2312	2297	2312	2312	2312	2312	2312	2343	2343	2343	2343	2343	2343	2343	2343	2327	2327	2312	2312	2312	2297	2297	2297	2297	2297	2297	2297	2297	2297	2297	2297	2297	2312	2312	2312	2312	2312	2312	2312	2297	2312	2297	2297	2297	2312	2312	2312	2312	2312	2312	2327	2327	2327	2327	2343	2343	2343	2649	2629	2649	2649	2629	2629	2629	2629	2629	2629	2629	2649	2629	2649	2629	2629	2649	2649	2649	2629	2629	2629	2649	2669	2649	2649	2649	2649	2649	2649	3101	3101	3101	3129	3129	3157	3157	3157	3157	3157	3129	3129	3129	3129	3129	3129	3129	3129	3129	3821	3821	3779	3779	3821	3779	3779	3779	3779	3779	3779	3779	3779	3698	3779	3779	3779	3779	3779	3779	3738	3779	3779	3779	3779	3821	3821	3821	3864	3864	3821	3821	3821	3779	3821	3821	3821	3821	3821	3821	3821	3821	3821	3821	3821	3821	3821	3821	3821	3821	3821	3864	3864	3864	3864	3864	3864	3864	3821	3821	3779	3779	3821	3821	3821	3821	3864	3864	3864	3821	3864	3864	3864	3864	3821	3821	3821	3864	3821	3821	3821	3821	3821	3864	3864	3821	3821	3864	3821	3821	3821	3821	3821	3821	3821	3821	3821	3779	3779	3779	3738	3738	3738	3738	3738	0	0	0	0	2669	2669	2669	2669	2669	2649	2649	2649	2649	2649	2649	2649	2649	2649	2649	2669	2690	2690	2690	2690	2690	2690	2690	2690	2690	2690	2690	0	0	0	3779	3779	3779	3779	3779	3779	3779	3779	3821	3779	3779	3821	3821	3821	3779	3779	3779	3779	3779	3779	3779	3779	3779	3779	3779	3779	3779	3779	3779	3779	3779	3779	3779	3779	3779	3779	3779	3779	3779	3779	3779	3779	3779	3779	3779	3779	3779	3779	3779	3779	3779	3779	3779	3779	3779	3779	3779	3779	3779	3779	3779	3779	3779	3821	3821	3821	3821	3779	3821	3821	3821	3821	3821	3821	3779	3779	3779	3779	3779	3779	3779	3779	3779	3779	3821	3821	3821	3821	3821	3779	3779	3779	3779	3779	3779	3779	3779	3779	3779	3779	3779	3779	3779	3779	3779	3779	3779	3779	3779	3779	3779	3779	3779	3779	3779	3779	3779	3779	3779	3779	3779	3779	3779	3779	3779	3779	3779	3779	3779	3779	3779	3779	3779	3779	3779	3779	3779	3779	3779	3779	3821	3821	3821	3821	3821	3821	3821	3779	3779	3821	3821	3821	3821	3821	3821	3864	3821	3821	3821	3821	3821	3821	3821	3821	3821	3821	3779	3821	3821	3821	3821	3821	3779	3779	3821	3821	3821	3821	3821	3821	3821	3821	3821	3779	3779	3738	3738	3738	3779	3738	3738	3738	3738	3779	3779	3779	3779	3738	3779	3738	3698	3738	3698	3698	3738	3738	3738	3738	3738	3738	3738	3738	3698	3698	3698	3738	3738	3738	3738	3738	3738	3738	3738	3738	3738	3738	3738	3738	3738	3698	3698	3698	3698	3698	3738	3738	3738	3738	3738	3738	3738	3738	3738	3698	3698	3698	3698	3738	3738	3738	3738	3698	3698	3659	3659	3659	3659	3659	3659	3659	3659	3659	3659	3659	3659	3659	3659	3659	3659	3698	3698	3698	3698	3698	3698	3698	3738	3738	3738	0	0	0	0	0	0	0	0	0	0	0	0	0	0	0	0	0	0	0	0	0	0	0	0	0	0	0	0	0	0	0	0	0	0	0
0	0	0	0	0	0	0	0	0	1539	1539	1539	1546	1539	1539	1546	1546	1546	1546	1546	1546	1546	1546	1546	1546	1546	1546	1539	1539	1539	1539	1539	1546	1539	1553	1546	1546	1546	1546	1546	1546	1546	1546	1546	1546	1553	1553	1560	1567	1567	1574	1574	1574	1574	1589	1596	1596	0	2327	2327	2312	2297	2297	2297	2297	2297	2312	2297	2312	2312	2312	2297	2297	2297	2297	2312	2297	2312	2312	2327	2327	2327	2312	2327	2327	2359	2327	2327	2343	2359	2359	2359	2343	2359	2343	2327	2327	2327	2327	2312	2312	2312	2297	2297	2312	2297	2297	2297	2297	2297	2312	2297	2312	2312	2312	2312	2312	2327	2327	2327	2312	2327	2312	2312	2312	2312	2312	2312	2327	2343	2327	2343	2343	2327	2343	2359	2359	2359	2359	2359	2629	2629	2629	2629	2629	2629	2629	2629	2629	2629	2629	2629	2629	2649	2649	2649	2649	2649	2629	2629	2669	2669	2649	2649	2649	2649	2649	2649	3129	3129	3101	3129	3129	3157	3157	3157	3157	3157	3157	3157	3157	3129	3157	3157	3157	3129	3129	3821	3821	3821	3779	3821	3779	3779	3779	3779	3779	3779	3779	3779	3738	3779	3779	3779	3779	3779	3779	3779	3779	3779	3821	3821	3821	3821	3821	3864	3864	3821	3821	3821	3779	3779	3821	3779	3779	3779	3821	3821	3821	3821	3821	3821	3821	3821	3821	3821	3821	3821	3864	3907	3864	3864	3864	3864	3864	3821	3821	3821	3779	3821	3821	3821	3821	3864	3864	3864	3821	3864	3864	3821	3821	3821	3821	3821	3864	3821	3821	3821	3821	3821	3821	3821	3821	3821	3821	3821	3821	3821	3821	3821	3821	3821	3821	3821	3821	3779	3779	3779	3779	3779	3738	3738	0	0	2711	2690	2669	2669	2669	2669	2669	2649	2649	2649	2649	2649	2649	2649	2649	2649	2649	2649	2690	2669	2690	2690	2690	2690	2690	2690	2690	2690	2690	0	0	0	3779	3779	3779	3779	3779	3779	3779	3779	3779	3779	3779	3779	3779	3779	3779	3779	3779	3779	3779	3779	3779	3779	3779	3779	3779	3779	3779	3779	3779	3779	3779	3779	3779	3779	3779	3779	3779	3779	3779	3779	3779	3779	3779	3779	3779	3779	3779	3779	3779	3779	3779	3779	3779	3779	3779	3779	3779	3779	3779	3779	3779	3779	3779	3821	3821	3821	3821	3779	3821	3821	3821	3821	3821	3779	3779	3779	3779	3779	3779	3779	3779	3779	3821	3821	3821	3821	3821	3821	3821	3779	3779	3779	3779	3779	3779	3779	3779	3779	3779	3779	3779	3779	3779	3779	3779	3779	3779	3779	3779	3779	3779	3779	3779	3779	3779	3779	3779	3779	3779	3779	3779	3779	3779	3779	3779	3779	3779	3779	3779	3779	3779	3779	3779	3779	3779	3779	3779	3779	3779	3779	3821	3821	3821	3821	3821	3821	3821	3779	3779	3821	3821	3821	3821	3821	3864	3864	3821	3821	3821	3821	3821	3821	3821	3821	3821	3821	3821	3779	3821	3821	3821	3821	3779	3779	3821	3821	3821	3821	3821	3821	3821	3821	3821	3779	3738	3738	3738	3738	3738	3738	3738	3738	3779	3779	3779	3779	3779	3779	3779	3779	3738	3738	3738	3738	3738	3738	3738	3738	3738	3698	3738	3738	3698	3698	3738	3738	3738	3738	3738	3738	3738	3738	3738	3738	3738	3738	3738	3738	3738	3698	3698	3698	3698	3698	3698	3738	3738	3779	3738	3738	3738	3738	3738	3698	3698	3698	3698	3738	3738	3738	3738	3698	3659	3659	3659	3659	3659	3659	3659	3659	3659	3659	3659	3659	3621	3659	3659	3659	3659	3698	3698	3698	3698	3698	3698	3698	3738	3738	3738	0	0	0	0	0	0	0	0	0	0	0	0	0	0	0	0	0	0	0	0	0	0	0	0	0	0	0	0	0	0	0	0	0	0	0
0	0	0	0	0	0	0	0	0	1539	1539	1539	1539	1539	1539	1546	1546	1546	1546	1553	1546	1546	1546	1546	1546	1546	1546	1546	1553	1539	1546	1546	1546	1539	1546	1546	1546	1546	1546	1546	1546	1546	1546	1546	1553	1560	1560	1560	1567	1567	1574	1574	1574	1574	1574	1596	1596	0	2392	2327	2312	2297	2297	2312	2312	2312	2312	2312	2312	2327	2327	2312	2312	2297	2327	2312	2312	2312	2312	2327	2327	2327	2312	2327	2343	2343	2343	2343	2343	2359	2359	2359	2343	2343	2343	2343	2343	2327	2327	2327	2327	2312	2312	2312	2312	2312	2312	2312	2312	2312	2327	2327	2327	2327	2327	2327	2343	2343	2343	2343	2343	2343	2343	2327	2327	2327	2343	2327	2343	2343	2343	2343	2343	2343	2343	2359	2359	2359	2359	2359	2629	2629	2629	2629	2629	2629	2629	2629	2629	2629	2629	2629	2629	2629	2649	2649	2649	2649	2649	2649	2669	2669	2649	2649	2649	2649	2649	2649	3157	3101	3129	3129	3129	3157	3186	3157	3157	3157	3157	3157	3157	3157	3157	3157	3157	3129	3129	3129	3864	3821	3821	3821	3821	3779	3779	3779	3779	3779	3779	3738	3738	3779	3821	3779	3779	3779	3779	3779	3779	3779	3821	3821	3821	3821	3864	3864	3864	3821	3821	3779	3779	3779	3821	3779	3779	3779	3821	3821	3821	3821	3821	3821	3821	3821	3821	3821	3821	3821	3864	3864	3864	3864	3864	3864	3821	3821	3821	3821	3779	3821	3821	3821	3821	3821	3864	3821	3821	3821	3821	3821	3821	3821	3821	3821	3821	3821	3821	3821	3821	3821	3821	3821	3821	3821	3821	3821	3821	3821	3821	3821	3821	3821	3779	3821	3779	3779	3779	3738	3738	3738	0	0	0	0	2711	2690	2669	2669	2669	2669	2669	2669	2649	2649	2649	2629	2649	2649	2649	2649	2649	2649	2669	2669	2690	2690	2690	2690	2690	2690	2690	2669	2669	2690	2690	0	0	3821	3821	3821	3821	3821	3779	3779	3779	3779	3779	3779	3779	3779	3779	3779	3779	3779	3779	3779	3779	3779	3779	3779	3779	3779	3779	3779	3779	3779	3779	3738	3738	3738	3738	3738	3779	3779	3779	3779	3779	3779	3779	3779	3779	3779	3779	3779	3779	3779	3779	3779	3779	3779	3779	3779	3779	3779	3779	3779	3779	3779	3738	3821	3821	3821	3779	3779	3821	3779	3779	3779	3779	3779	3779	3779	3779	3779	3779	3779	3779	3779	3779	3821	3821	3821	3821	3821	3821	3779	3779	3779	3779	3779	3779	3779	3779	3779	3779	3779	3779	3779	3779	3779	3779	3779	3779	3779	3779	3779	3779	3779	3779	3779	3779	3779	3779	3779	3779	3779	3779	3779	3779	3779	3779	3779	3779	3779	3779	3779	3779	3779	3779	3779	3779	3779	3779	3779	3779	3779	3821	3821	3821	3821	3821	3821	3821	3821	3821	3821	3821	3821	3821	3821	3821	3864	3821	3821	3821	3821	3821	3821	3821	3821	3821	3821	3821	3779	3821	3821	3821	3779	3779	3779	3821	3821	3821	3821	3821	3821	3821	3821	3821	3779	3779	3738	3738	3779	3779	3779	3779	3738	3779	3779	3779	3779	3779	3738	3779	3738	3738	3738	3738	3738	3738	3738	3738	3738	3738	3738	3738	3738	3698	3698	3698	3738	3738	3738	3738	3738	3738	3738	3738	3738	3738	3738	3738	3738	3698	3698	3698	3698	3698	3698	3698	3738	3738	3738	3738	3738	3738	3738	3698	3698	3698	3698	3698	3738	3738	3738	3738	3659	3659	3659	3659	3659	3659	3659	3659	3659	3659	3659	3659	3621	3621	3659	3659	3659	3621	3621	3621	3698	3698	3698	3698	3698	3738	3738	3738	0	0	0	0	0	0	0	0	0	0	0	0	0	0	0	0	0	0	0	0	0	0	0	0	0	0	0	0	0	0	0	0	0	0	0
0	0	0	0	0	0	0	0	0	1539	1539	1539	1539	1539	1539	1546	1546	1546	1546	1553	1546	1546	1546	1546	1546	1546	1546	1546	1546	1539	1539	1539	1546	1539	1546	1546	1546	1546	1553	1553	1553	1553	1546	1553	1560	1560	1560	1567	1567	1567	1574	1574	1574	1567	1567	1596	1596	0	2359	2343	2327	2312	2312	2312	2327	2312	2327	2312	2327	2327	2327	2327	2312	2312	2312	2312	2312	2312	2312	2327	2327	2327	2327	2343	2343	2359	2343	2359	2359	2376	2376	2359	2359	2359	2343	2343	2343	2343	2343	2327	2327	2327	2327	2312	2312	2312	2312	2312	2312	2343	2343	2343	2343	2343	2343	2343	2343	2343	2343	2343	2343	2343	2343	2343	2343	2343	2343	2343	2343	2343	2343	2343	2343	2343	2343	2359	2359	2359	2376	2376	2376	2629	2629	2629	2629	2629	2629	2629	2629	2629	2629	2629	2629	2629	2649	2649	2649	2649	2649	2649	2669	2669	2669	2669	2669	2649	2669	2649	2649	3129	3157	3157	3157	3157	3186	3157	3157	3157	3157	3157	3157	3157	3157	3157	3157	3129	3129	3129	3864	3821	3821	3821	3821	3821	3779	3738	3779	3779	3779	3738	3738	3779	3779	3779	3779	3779	3779	3738	3738	3779	3821	3821	3821	3821	3821	3821	3864	3821	3821	3821	3779	3779	3779	3779	3779	3821	3821	3821	3821	3821	3821	3821	3821	3821	3821	3821	3821	3821	3821	3821	3821	3821	3821	3821	3821	3821	3779	3779	3779	3821	3821	3821	3821	3821	3864	3821	3821	3821	3821	3821	3779	3779	3779	3779	3821	3821	3779	3779	3779	3779	3779	3779	3779	3821	3821	3821	3821	3821	3821	3821	3821	3821	3779	3821	3779	3779	3779	3738	3738	3738	0	0	0	0	2711	2690	2690	2669	2669	2669	2669	2649	2649	2629	2629	2629	2629	2649	2629	2649	2649	2649	2690	2669	2669	2690	2690	2690	2690	2690	2690	2690	2690	2690	2690	0	0	3821	3821	3821	3821	3779	3779	3779	3779	3779	3779	3779	3779	3779	3779	3779	3779	3779	3779	3779	3779	3779	3779	3779	3779	3779	3779	3779	3779	3779	3779	3779	3738	3738	3738	3738	3779	3779	3779	3779	3779	3779	3779	3779	3779	3779	3779	3779	3779	3779	3738	3738	3738	3738	3779	3779	3779	3779	3779	3779	3779	3779	3738	3821	3779	3821	3779	3779	3779	3779	3779	3779	3779	3779	3779	3779	3779	3779	3779	3779	3779	3779	3779	3779	3821	3821	3821	3821	3821	3779	3779	3779	3779	3779	3779	3779	3779	3779	3779	3779	3779	3738	3738	3738	3779	3779	3779	3779	3779	3779	3779	3779	3779	3779	3779	3779	3779	3779	3779	3779	3779	3779	3779	3779	3779	3779	3779	3779	3779	3779	3779	3779	3779	3779	3779	3779	3779	3779	3779	3779	3779	3821	3821	3821	3821	3821	3821	3821	3821	3821	3821	3821	3821	3864	3821	3821	3821	3821	3821	3821	3779	3821	3821	3821	3821	3821	3821	3779	3821	3821	3821	3821	3779	3779	3779	3779	3779	3779	3779	3779	3821	3821	3821	3779	3779	3738	3779	3779	3779	3779	3779	3779	3779	3779	3779	3779	3779	3779	3779	3738	3738	3738	3738	3698	3698	3738	3738	3738	3738	3738	3738	3738	3738	3698	3738	3738	3738	3779	3738	3738	3738	3738	3738	3738	3738	3738	3738	3738	3698	3698	3698	3698	3698	3659	3698	3698	3698	3779	3738	3738	3738	3738	3698	3698	3698	3698	3698	3738	3738	3738	3738	3698	3659	3659	3659	3659	3659	3659	3698	3659	3659	3659	3659	3659	3621	3659	3659	3659	3621	3621	3621	3698	3698	3738	3738	3698	3738	3738	3738	0	0	0	0	0	0	0	0	0	0	0	0	0	0	0	0	0	0	0	0	0	0	0	0	0	0	0	0	0	0	0	0	0	0	0
0	0	0	0	0	0	0	0	0	1539	1539	1539	1539	1539	1539	1539	1567	1560	1553	1546	1546	1546	1546	1546	1546	1546	1546	1546	1553	1546	1539	1539	1539	1539	1539	1539	1539	1553	1546	1553	1553	1546	1546	1553	1560	1560	1560	1567	1567	1567	1567	1574	1567	1567	1567	1596	1596	0	2359	2343	2327	2327	2327	2327	2327	2327	2327	2327	2327	2327	2327	2327	2327	2312	2343	2327	2312	2312	2327	2327	2327	2327	2327	2343	2359	2359	2359	2359	2359	2359	2359	2359	2359	2359	2343	2343	2343	2343	2343	2343	2343	2343	2343	2343	2343	2327	2343	2327	2343	2343	2343	2343	2359	2359	2343	2359	2359	2359	2359	2359	2359	2359	2359	2359	2359	2359	2359	2359	2359	2359	2359	2359	2343	2359	2359	2359	2359	2376	2376	2376	2376	2376	2376	2629	2609	2609	2609	2629	2629	2629	2629	2629	2629	2649	2649	2649	2649	2649	2649	2649	2669	2669	2669	2649	2649	2649	2649	2649	2649	3186	3157	3157	3157	3186	3186	3186	3186	3186	3186	3157	3157	3157	3157	3157	3157	3157	3129	3129	3129	3821	3821	3821	3821	3821	3779	3738	3779	3738	3738	3738	3779	3779	3779	3779	3779	3779	3779	3738	3738	3779	3779	3821	3821	3821	3864	3821	3821	3821	3821	3821	3779	3779	3821	3779	3821	3821	3821	3821	3821	3821	3821	3821	3821	3821	3779	3779	3779	3779	3821	3821	3821	3821	3821	3821	3821	3821	3779	3779	3779	3821	3821	3821	3779	3821	3821	3821	3821	3821	3821	3821	3779	3779	3779	3779	3821	3821	3779	3779	3779	3779	3779	3779	3779	3821	3821	3821	3821	3821	3821	3821	3779	3821	3779	3779	3779	3779	3779	3738	3738	0	0	0	2711	2711	2711	2690	2690	2669	2669	2649	2649	2649	2629	2629	2629	2629	2629	2629	2629	2649	2649	2649	2690	2690	2690	2690	2690	2690	2690	2690	2690	2690	2690	2690	2690	0	0	3779	3779	3779	3779	3779	3779	3779	3779	3779	3779	3779	3779	3779	3779	3779	3779	3779	3779	3779	3779	3779	3779	3779	3779	3779	3779	3779	3779	3779	3779	3779	3779	3779	3779	3779	3779	3821	3779	3779	3779	3779	3779	3779	3779	3779	3779	3779	3779	3779	3738	3738	3738	3738	3779	3779	3779	3779	3779	3779	3779	3779	3779	3821	3779	3779	3779	3779	3779	3779	3779	3779	3779	3779	3779	3779	3779	3779	3779	3779	3779	3779	3779	3779	3821	3821	3821	3821	3821	3779	3779	3779	3779	3779	3779	3779	3779	3779	3779	3738	3738	3738	3738	3738	3779	3779	3779	3779	3779	3779	3779	3779	3779	3779	3779	3779	3779	3779	3779	3779	3779	3779	3779	3779	3779	3779	3779	3779	3779	3779	3779	3779	3779	3779	3779	3779	3779	3779	3779	3779	3821	3821	3821	3821	3821	3821	3821	3821	3821	3821	3821	3821	3821	3821	3821	3821	3821	3779	3821	3779	3779	3821	3779	3821	3821	3821	3821	3821	3821	3821	3821	3821	3779	3779	3821	3779	3779	3779	3779	3779	3821	3779	3779	3779	3779	3738	3779	3779	3779	3779	3779	3779	3779	3779	3779	3779	3779	3738	3779	3738	3738	3738	3698	3698	3698	3738	3738	3738	3738	3738	3738	3738	3698	3698	3738	3738	3779	3779	3738	3738	3738	3738	3738	3738	3738	3738	3738	3698	3698	3698	3698	3698	3698	3698	3698	3738	3738	3779	3738	3738	3738	3698	3698	3698	3698	3698	3698	3738	3738	3738	3738	3659	3621	3621	3621	3659	3659	3659	3659	3659	3659	3698	3659	3659	3659	3659	3659	3659	3621	3621	3621	3698	3698	3738	3698	3698	3738	3738	3738	0	0	0	0	0	0	0	0	0	0	0	0	0	0	0	0	0	0	0	0	0	0	0	0	0	0	0	0	0	0	0	0	0	0	0
0	0	0	0	0	0	0	0	0	1539	1539	1539	1539	1539	1539	1546	1546	1546	1546	1546	1546	1546	1546	1546	1546	1546	1546	1546	1546	1539	1539	1539	1539	1539	1539	1539	1539	1546	1546	1546	1546	1546	1546	1546	1553	1560	1560	1567	1567	1567	1567	1567	1567	1567	1567	1596	1596	0	2359	2343	2343	2327	2343	2343	2343	2343	2343	2343	2343	2343	2343	2343	2327	2327	2327	2327	2327	2327	2327	2343	2343	2343	2343	2343	2376	2376	2376	2392	2392	2392	2392	2376	2376	2376	2359	2359	2359	2359	2359	2343	2359	2343	2359	2359	2343	2343	2343	2343	2343	2359	2359	2359	2359	2359	2359	2359	2359	2359	2359	2359	2359	2359	2359	2359	2359	2359	2359	2359	2359	2359	2359	2359	2359	2359	2359	2359	2359	2376	2392	2376	2359	2359	2359	2629	2629	2629	2629	2629	2629	2629	2629	2629	2629	2649	2649	2649	2649	2649	2649	2649	2669	2669	2649	2669	2649	2649	2649	2649	2649	3216	3216	3216	3216	3216	3186	3186	3186	3186	3186	3186	3157	3157	3186	3157	3157	3157	3157	3157	3129	3129	3821	3821	3821	3821	3779	3779	3779	3779	3779	3738	3738	3779	3779	3779	3779	3779	3779	3738	3738	3738	3738	3779	3821	3821	3821	3821	3864	3821	3821	3821	3821	3779	3821	3821	3821	3821	3821	3821	3821	3821	3821	3779	3821	3779	3779	3779	3779	3779	3821	3779	3779	3821	3779	3779	3779	3779	3779	3779	3738	3779	3779	3779	3779	3779	3821	3821	3821	3821	3821	3779	3779	3779	3779	3779	3821	3821	3821	3779	3779	3779	3779	3779	3779	3779	3821	3821	3821	3821	3821	3821	3821	3821	3779	3779	3779	3779	3779	3779	3738	0	0	0	2711	2690	2690	2690	2690	2669	2669	2649	2649	2649	2629	2629	2629	2609	2609	2629	2629	2629	2629	2649	2690	2690	2669	2690	2690	2690	2690	2690	2690	2690	2690	2690	2690	2690	0	3779	3779	3779	3779	3779	3779	3779	3779	3779	3779	3779	3779	3779	3779	3779	3779	3779	3779	3779	3779	3779	3779	3779	3779	3779	3779	3779	3779	3779	3779	3779	3779	3779	3779	3779	3779	3821	3779	3779	3779	3779	3779	3779	3779	3779	3779	3779	3779	3779	3738	3738	3738	3738	3738	3779	3738	3738	3779	3779	3779	3779	3779	3821	3821	3821	3779	3779	3779	3779	3779	3779	3779	3779	3779	3779	3779	3779	3779	3779	3779	3779	3779	3821	3821	3821	3821	3779	3779	3779	3779	3779	3779	3779	3779	3779	3779	3779	3779	3738	3738	3738	3738	3738	3779	3779	3779	3779	3779	3779	3779	3779	3779	3779	3779	3779	3779	3779	3779	3779	3779	3779	3738	3738	3779	3779	3779	3779	3779	3779	3779	3779	3779	3779	3779	3779	3779	3779	3779	3779	3821	3821	3821	3821	3821	3821	3821	3821	3821	3821	3821	3821	3821	3821	3821	3821	3821	3821	3821	3821	3779	3821	3821	3821	3821	3821	3821	3779	3821	3821	3821	3821	3779	3779	3821	3779	3779	3779	3779	3779	3779	3779	3779	3779	3779	3779	3779	3779	3821	3779	3779	3779	3779	3779	3779	3779	3738	3738	3738	3738	3738	3698	3698	3698	3698	3738	3698	3738	3738	3738	3738	3738	3698	3738	3738	3738	3779	3779	3738	3779	3738	3738	3738	3738	3738	3698	3698	3698	3698	3698	3698	3698	3698	3698	3698	3738	3698	3738	3738	3738	3698	3698	3738	3698	3698	3698	3698	3738	3738	3659	3659	3659	3621	3621	3621	3659	3659	3659	3698	3698	3698	3659	3659	3621	3621	3621	3621	3621	3583	3621	3621	3698	3698	3738	3738	3738	3738	3738	3738	0	0	0	0	0	0	0	0	0	0	0	0	0	0	0	0	0	0	0	0	0	0	0	0	0	0	0	0	0	0	0	0	0	0	0
0	0	0	0	0	0	0	0	0	1539	1539	1539	1539	1539	1539	1539	1546	1546	1546	1539	1546	1546	1546	1546	1546	1539	1546	1546	1546	1546	1539	1539	1539	1539	1539	1539	1539	1546	1546	1546	1546	1546	1546	1546	1546	1553	1553	1560	1560	1560	1567	1567	1567	1567	1567	1567	1567	0	0	2359	2359	2343	2343	2343	2359	2343	2343	2343	2359	2359	2392	2392	2359	2343	2343	2343	2343	2343	2343	2359	2359	2359	2359	2392	2392	2392	2392	2392	2392	2392	2392	2392	2392	2376	2359	2359	2359	2359	2359	2359	2359	2343	2359	2359	2359	2359	2359	2359	2359	2359	2359	2359	2359	2359	2359	2359	2359	2359	2359	2359	2359	2359	2359	2359	2359	2359	2359	2376	2376	2359	2359	2359	2359	2359	2359	2359	2376	2376	2392	2392	2392	2392	2392	2392	2649	2649	2629	2629	2629	2629	2629	2629	2629	2629	2629	2629	2629	2629	2629	2629	2649	2669	2649	2669	2669	2649	2649	2649	2649	3186	3216	3216	3216	3216	3216	3216	3186	3186	3186	3186	3186	3186	3186	3186	3186	3186	3186	3157	3157	3157	3157	3821	3821	3779	3779	3779	3779	3821	3779	3738	3779	3779	3779	3779	3779	3738	3738	3738	3738	3738	3779	3821	3821	3821	3821	3864	3864	3821	3821	3821	3821	3821	3821	3821	3821	3821	3821	3821	3821	3821	3821	3779	3779	3779	3779	3779	3779	3738	3821	3779	3779	3779	3779	3779	3779	3779	3779	3738	3738	3738	3738	3779	3779	3779	3821	3821	3821	3821	3821	3821	3779	3779	3779	3779	3821	3779	3779	3779	3821	3779	3821	3779	3821	3821	3821	3821	3821	3821	3864	3864	3821	3821	3821	3779	3779	3779	3779	3779	0	0	0	2733	2711	2690	2690	2690	2690	2669	2669	2649	2649	2649	2629	2629	2629	2629	2629	2629	2629	2629	2629	2649	2669	2669	2669	2690	2669	2690	2690	2690	2690	2690	2690	2690	2690	2690	0	3779	3821	3779	3779	3779	3779	3779	3779	3779	3779	3779	3779	3779	3779	3779	3779	3779	3779	3779	3779	3779	3779	3779	3779	3779	3779	3779	3779	3779	3779	3779	3779	3779	3779	3779	3779	3779	3779	3779	3779	3779	3779	3779	3779	3779	3779	3779	3779	3779	3738	3738	3738	3738	3738	3738	3738	3738	3779	3779	3779	3779	3779	3738	3779	3779	3779	3779	3779	3779	3779	3779	3779	3779	3779	3779	3779	3779	3779	3821	3779	3779	3779	3821	3821	3821	3821	3821	3821	3779	3779	3779	3779	3779	3779	3779	3779	3779	3738	3738	3738	3738	3738	3738	3738	3779	3779	3779	3779	3738	3779	3779	3779	3779	3779	3779	3779	3779	3779	3779	3779	3779	3738	3738	3779	3779	3779	3779	3779	3779	3779	3779	3779	3779	3779	3779	3779	3779	3779	3779	3821	3821	3821	3821	3821	3821	3821	3821	3821	3821	3821	3821	3821	3821	3821	3821	3821	3821	3821	3821	3779	3821	3821	3821	3821	3821	3779	3779	3779	3821	3821	3821	3821	3821	3821	3821	3779	3779	3779	3779	3779	3779	3779	3779	3779	3779	3779	3779	3779	3779	3779	3779	3779	3779	3779	3738	3738	3738	3738	3738	3738	3738	3738	3738	3698	3738	3698	3738	3738	3738	3738	3738	3698	3738	3738	3779	3779	3779	3779	3738	3738	3738	3738	3738	3738	3738	3738	3738	3738	3698	3698	3698	3738	3738	3698	3738	3738	3738	3698	3698	3698	3698	3698	3698	3698	3698	3698	3738	3738	3698	3738	3621	3621	3621	3621	3659	3659	3659	3698	3698	3659	3659	3659	3621	3621	3621	3621	3621	3621	3698	3621	3698	3698	3698	3698	3698	3738	3738	3738	0	0	0	0	0	0	0	0	0	0	0	0	0	0	0	0	0	0	0	0	0	0	0	0	0	0	0	0	0	0	0	0	0	0	0
0	0	0	0	0	0	0	0	0	1539	1539	1539	1539	1539	1539	1539	1539	1546	1539	1539	1539	1539	1546	1546	1539	1539	1539	1546	1546	1539	1539	1532	1532	1532	1532	1532	1539	1539	1539	1546	1546	1546	1546	1546	1546	1553	1553	1553	1553	1560	1567	1567	1567	1567	1574	1574	1567	0	2392	2376	2376	2376	2376	2376	2376	2376	2376	2376	2376	2376	2392	2392	2392	2392	2392	2392	2343	2343	2343	2359	2359	2359	2376	2392	2392	2392	2392	2392	2392	2392	2392	2392	2392	2392	2376	2376	2376	2359	2359	2359	2359	2359	2376	2376	2359	2376	2376	2376	2376	2376	2376	2376	2359	2359	2359	2359	2359	2359	2359	2359	2359	2359	2359	2359	2359	2359	2376	2376	2376	2376	2376	2376	2376	2376	2376	2376	2376	2376	2376	2392	2392	2392	2409	2409	2409	2649	2629	2629	2629	2629	2629	2629	2629	2649	2629	2629	2629	2629	2629	2629	2629	2669	2649	2669	2669	2649	2649	2649	2649	2649	3186	3186	3186	3216	3216	3216	3216	3216	3216	3216	3216	3216	3216	3186	3216	3186	3186	3186	3157	3157	3157	3821	3821	3779	3779	3779	3821	3821	3779	3738	3738	3738	3738	3738	3738	3738	3738	3738	3738	3779	3779	3779	3821	3821	3821	3821	3821	3821	3821	3821	3821	3821	3821	3821	3821	3821	3821	3821	3821	3821	3821	3779	3779	3779	3779	3779	3779	3738	3821	3779	3779	3779	3779	3779	3779	3738	3738	3779	3738	3738	3738	3779	3779	3779	3779	3821	3821	3779	3779	3821	3779	3779	3779	3779	3821	3821	3821	3821	3821	3821	3779	3779	3779	3779	3821	3821	3821	3864	3864	3864	3821	3821	3821	3779	3779	3779	3779	3779	0	0	0	2733	2690	2690	2669	2690	2669	2669	2669	2649	2649	2649	2629	2629	2649	2649	2629	2629	2629	2629	2629	2649	2669	2669	2669	2690	2690	2690	2690	2690	2690	2690	2690	2690	2690	2669	2669	0	3779	3779	3779	3779	3779	3779	3779	3779	3779	3779	3779	3779	3779	3779	3779	3779	3779	3779	3779	3779	3779	3779	3779	3779	3779	3779	3779	3779	3779	3779	3779	3779	3779	3779	3779	3821	3779	3779	3779	3779	3779	3779	3779	3779	3779	3779	3779	3779	3738	3738	3738	3738	3738	3738	3738	3738	3779	3779	3779	3779	3779	3779	3821	3779	3779	3779	3779	3779	3779	3779	3779	3779	3779	3779	3779	3779	3821	3821	3779	3779	3821	3821	3821	3821	3821	3821	3821	3779	3779	3779	3779	3779	3779	3779	3779	3779	3779	3738	3738	3779	3779	3779	3738	3779	3779	3779	3779	3738	3738	3779	3779	3779	3779	3779	3779	3779	3779	3738	3779	3738	3738	3738	3779	3738	3779	3779	3779	3779	3779	3779	3779	3779	3779	3779	3779	3779	3779	3779	3821	3821	3821	3821	3821	3821	3821	3821	3821	3821	3821	3821	3821	3821	3821	3821	3821	3779	3821	3821	3779	3821	3821	3821	3821	3821	3821	3821	3821	3821	3821	3821	3821	3821	3821	3821	3779	3779	3779	3779	3779	3738	3779	3779	3779	3779	3779	3821	3821	3779	3779	3779	3779	3779	3738	3738	3738	3738	3738	3738	3738	3738	3738	3738	3738	3738	3698	3738	3738	3738	3738	3738	3698	3738	3738	3779	3779	3779	3779	3738	3738	3738	3738	3738	3738	3738	3738	3738	3738	3698	3698	3738	3698	3738	3738	3738	3738	3738	3738	3738	3738	3698	3698	3698	3698	3698	3698	3698	3698	3698	3698	3659	3621	3621	3621	3659	3659	3698	3698	3698	3698	3659	3659	3621	3621	3621	3659	3621	3621	3659	3698	3698	3698	3698	3698	3698	3698	3738	3738	0	0	0	0	0	0	0	0	0	0	0	0	0	0	0	0	0	0	0	0	0	0	0	0	0	0	0	0	0	0	0	0	0	0	0
0	0	0	0	0	0	0	0	0	1539	1539	1539	1539	1539	1539	1539	1539	1539	1539	1546	1546	1546	1546	1546	1546	1546	1546	1546	1546	1546	1546	1532	1532	1532	1532	1532	1539	1546	1539	1539	1546	1546	1546	1546	1546	1553	1553	1560	1560	1560	1567	1567	1567	1567	1574	1574	1574	0	2392	2376	2376	2376	2392	2392	2376	2376	2376	2392	2392	2392	2392	2392	2409	2409	2409	2409	2392	2359	2376	2376	2376	2376	2392	2409	2409	2409	2409	2409	2409	2392	2392	2392	2392	2392	2376	2392	2392	2392	2392	2392	2376	2376	2376	2376	2376	2392	2376	2376	2392	2392	2376	2376	2376	2359	2376	2376	2376	2376	2376	2359	2359	2376	2376	2359	2359	2376	2376	2376	2392	2376	2376	2376	2376	2376	2376	2376	2376	2376	2392	2392	2392	2409	2409	2426	2426	2426	2629	2629	2629	2629	2629	2629	2629	2629	2629	2629	2629	2629	2629	2629	2629	2649	2649	2649	2649	2649	2649	2649	2649	3186	3186	3186	3186	3186	3216	3216	3216	3216	3216	3216	3216	3216	3216	3216	3216	3216	3216	3216	3246	3246	3246	3246	3779	3779	3779	3738	3779	3738	3779	3738	3738	3779	3779	3779	3738	3779	3738	3738	3738	3779	3821	3779	3821	3821	3821	3821	3821	3821	3821	3821	3821	3821	3821	3821	3864	3821	3821	3821	3821	3821	3821	3779	3779	3779	3779	3779	3779	3738	3821	3779	3779	3779	3779	3779	3779	3738	3738	3779	3738	3738	3738	3779	3738	3779	3779	3779	3821	3779	3821	3821	3779	3779	3738	3821	3821	3821	3779	3779	3779	3779	3779	3779	3821	3821	3821	3821	3821	3864	3864	3864	3821	3821	3821	3821	3779	3779	3779	3779	0	0	0	0	2690	2690	2669	2669	2669	2669	2669	2649	2649	2649	2629	2629	2649	2649	2629	2629	2629	2629	2629	2649	2669	2669	2669	2690	2690	2690	2690	2690	2690	2690	2690	2690	2669	2669	2669	0	3779	3821	3821	3779	3779	3779	3779	3779	3779	3779	3779	3779	3779	3779	3779	3779	3779	3779	3779	3779	3779	3779	3779	3779	3779	3779	3779	3779	3779	3779	3779	3779	3779	3779	3779	3779	3779	3779	3779	3779	3779	3779	3779	3779	3779	3779	3738	3738	3738	3738	3738	3738	3738	3738	3738	3738	3779	3779	3779	3779	3779	3738	3779	3779	3779	3779	3779	3779	3779	3779	3779	3779	3779	3779	3779	3779	3779	3821	3779	3779	3821	3821	3821	3821	3821	3821	3821	3779	3779	3779	3779	3779	3738	3779	3779	3779	3779	3738	3738	3779	3779	3738	3738	3779	3779	3738	3779	3738	3738	3738	3779	3738	3779	3779	3779	3779	3779	3738	3779	3738	3738	3738	3779	3738	3779	3779	3779	3779	3779	3779	3779	3779	3779	3779	3779	3779	3779	3779	3821	3821	3821	3821	3821	3821	3821	3821	3821	3821	3821	3821	3821	3821	3821	3821	3779	3779	3779	3779	3779	3821	3821	3821	3779	3779	3779	3779	3779	3779	3779	3821	3779	3779	3779	3779	3779	3779	3779	3738	3779	3779	3779	3779	3779	3779	3779	3821	3821	3779	3779	3779	3779	3779	3779	3738	3738	3738	3779	3738	3738	3738	3738	3738	3698	3738	3698	3698	3698	3738	3698	3738	3698	3698	3738	3779	3738	3779	3779	3738	3738	3738	3738	3738	3738	3738	3698	3698	3698	3698	3698	3698	3698	3738	3738	3738	3738	3738	3738	3738	3738	3738	3738	3698	3698	3698	3698	3698	3698	3621	3621	3621	3621	3621	3621	3659	3659	3698	3698	3698	3698	3659	3659	3621	3621	3621	3621	3621	3621	3621	3621	3698	3698	3698	3738	3738	3738	3738	3738	0	0	0	0	0	0	0	0	0	0	0	0	0	0	0	0	0	0	0	0	0	0	0	0	0	0	0	0	0	0	0	0	0	0	0
0	0	0	0	0	0	0	0	0	1539	1539	1539	1539	1539	1539	1546	1546	1553	1546	1546	1546	1546	1546	1546	1546	1546	1546	1546	1546	1539	1539	1532	1525	1532	1532	1532	1539	1539	1546	1546	1546	1539	1546	1546	1546	1546	1553	1553	1553	1560	1567	1567	1567	1574	1574	1574	1574	0	0	2376	2376	2392	2392	2392	2392	2392	2392	2392	2392	2392	2392	2392	2409	2409	2409	2409	2392	2392	2376	2376	2392	2392	2392	2409	2409	2409	2409	2409	2409	2409	2392	2392	2409	2409	2392	2409	2409	2409	2409	2392	2392	2392	2392	2392	2392	2409	2392	2409	2409	2409	2392	2392	2376	2376	2376	2376	2376	2392	2392	2392	2376	2392	2392	2392	2376	2376	2376	2392	2392	2392	2376	2392	2392	2392	2392	2392	2392	2392	2392	2409	2392	2409	2409	2426	2426	2426	2629	2629	2629	2629	2629	2629	2629	2629	2629	2629	2629	2629	2629	2609	2629	2649	2629	2649	2649	2649	2629	2649	2649	3216	3216	3216	3216	3216	3216	3216	3216	3246	3216	3246	3246	3246	3246	3216	3246	3246	3246	3216	3246	3246	3216	3216	3216	3821	3779	3779	3779	3779	3738	3738	3738	3738	3738	3738	3738	3779	3738	3779	3779	3779	3821	3821	3821	3864	3864	3821	3821	3821	3821	3821	3821	3821	3821	3821	3821	3821	3821	3821	3821	3821	3821	3779	3779	3821	3779	3779	3779	3779	3821	3779	3779	3779	3779	3779	3738	3738	3738	3738	3779	3738	3738	3779	3738	3738	3779	3821	3821	3779	3821	3821	3821	3821	3779	3821	3864	3821	3821	3821	3821	3821	3821	3779	3821	3821	3821	3821	3864	3864	3864	3864	3821	3821	3821	3779	3779	3779	3779	3738	3738	0	0	0	2690	2690	2690	2669	2669	2669	2669	2649	2649	2649	2649	2649	2649	2649	2649	2629	2649	2629	2629	2629	2669	2669	2669	2690	2690	2690	2690	2690	2690	2690	2690	2669	2669	2669	2669	3821	3779	3779	3779	3779	3779	3779	3779	3779	3779	3779	3779	3779	3779	3779	3779	3779	3779	3779	3779	3779	3779	3779	3779	3779	3779	3779	3779	3779	3779	3779	3779	3779	3779	3779	3779	3779	3779	3779	3779	3779	3779	3779	3779	3779	3779	3779	3738	3738	3738	3738	3738	3738	3738	3738	3738	3738	3738	3779	3779	3779	3779	3738	3779	3779	3779	3779	3779	3779	3779	3779	3779	3779	3779	3779	3779	3779	3821	3821	3779	3779	3821	3821	3821	3821	3821	3821	3779	3779	3779	3779	3779	3779	3738	3779	3779	3779	3779	3779	3779	3779	3779	3779	3779	3779	3779	3779	3779	3738	3738	3738	3779	3738	3779	3779	3738	3779	3779	3738	3738	3738	3738	3738	3779	3738	3779	3779	3779	3779	3779	3779	3779	3779	3779	3779	3779	3779	3779	3779	3821	3821	3821	3821	3821	3821	3821	3821	3821	3821	3821	3821	3821	3821	3821	3821	3821	3779	3821	3821	3779	3821	3821	3821	3779	3779	3779	3779	3779	3779	3779	3821	3821	3821	3821	3821	3779	3779	3779	3779	3779	3779	3779	3779	3779	3779	3779	3779	3779	3779	3779	3738	3779	3779	3779	3738	3738	3738	3738	3738	3738	3738	3738	3738	3698	3698	3698	3698	3698	3738	3698	3698	3698	3698	3698	3738	3738	3779	3738	3738	3738	3738	3738	3738	3738	3738	3698	3698	3738	3698	3698	3698	3698	3738	3738	3738	3738	3738	3738	3738	3738	3738	3738	3698	3698	3698	3698	3698	3698	3621	3621	3621	3621	3621	3659	3659	3698	3698	3698	3698	3698	3698	3698	3621	3621	3621	3621	3621	3583	3621	3621	3621	3698	3698	3698	3698	3738	3738	3738	0	0	0	0	0	0	0	0	0	0	0	0	0	0	0	0	0	0	0	0	0	0	0	0	0	0	0	0	0	0	0	0	0	0	0
0	0	0	0	0	0	0	0	0	1539	1539	1539	1539	1539	1539	1546	1553	1546	1546	1546	1546	1546	1546	1546	1539	1546	1546	1546	1546	1546	1546	1532	1532	1532	1532	1532	1532	1532	1546	1546	1546	1546	1539	1539	1546	1546	1553	1553	1553	1560	1567	1567	1574	1574	1574	1574	1634	1634	0	2376	2392	2392	2392	2392	2392	2392	2392	2409	2409	2409	2409	2392	2409	2409	2409	2392	2392	2376	2392	2392	2392	2392	2392	2409	2409	2426	2409	2409	2409	2409	2409	2409	2409	2409	2409	2409	2409	2409	2409	2409	2392	2409	2409	2409	2409	2409	2409	2426	2426	2426	2426	2409	2392	2392	2392	2409	2392	2409	2392	2392	2392	2392	2392	2409	2392	2392	2392	2409	2409	2409	2392	2392	2409	2409	2409	2392	2392	2392	2392	2392	2409	2409	2409	2426	2443	2443	2629	2629	2629	2629	2629	2629	2629	2629	2629	2629	2629	2629	2629	2609	2609	2629	2629	2649	2649	2629	2629	2629	2629	3246	3246	3246	3216	3216	3216	3246	3246	3246	3246	3246	3246	3246	3246	3246	3246	3246	3246	3246	3246	3277	3246	3246	3246	3821	3779	3779	3779	3779	3779	3738	3738	3779	3779	3779	3779	3779	3738	3779	3779	3779	3821	3821	3821	3864	3864	3821	3821	3821	3821	3821	3821	3821	3821	3864	3821	3821	3821	3821	3779	3779	3779	3779	3779	3779	3779	3779	3779	3779	3821	3779	3821	3779	3779	3779	3779	3738	3779	3738	3738	3738	3738	3738	3738	3738	3779	3821	3821	3779	3821	3821	3821	3821	3821	3864	3864	3864	3864	3864	3864	3821	3821	3779	3821	3821	3821	3821	3821	3821	3864	3864	3864	3864	3821	3821	3821	3821	3779	3738	3738	0	0	0	2690	2690	2669	2669	2669	2649	2669	2649	2649	2649	2629	2649	2649	2649	2649	2649	2649	2649	2629	2649	2669	2669	2669	2669	2690	2690	2690	2690	2690	2690	2690	2669	2669	2669	0	3821	3779	3779	3779	3779	3779	3779	3779	3779	3779	3779	3779	3779	3779	3779	3779	3779	3779	3779	3779	3779	3779	3779	3779	3738	3738	3738	3779	3779	3779	3779	3779	3779	3779	3779	3779	3779	3779	3779	3779	3779	3779	3779	3779	3779	3779	3779	3779	3779	3738	3738	3738	3738	3738	3738	3738	3738	3738	3738	3738	3738	3738	3738	3779	3779	3779	3779	3779	3779	3779	3779	3779	3779	3779	3779	3821	3779	3821	3821	3821	3779	3821	3821	3821	3821	3821	3821	3779	3779	3779	3779	3779	3738	3738	3779	3779	3779	3738	3779	3779	3779	3779	3779	3779	3779	3779	3779	3779	3738	3738	3738	3738	3738	3738	3738	3738	3738	3738	3738	3738	3738	3738	3738	3738	3738	3738	3779	3779	3779	3779	3779	3779	3779	3779	3779	3779	3779	3779	3779	3821	3821	3821	3821	3779	3779	3779	3779	3779	3779	3821	3779	3821	3821	3779	3821	3779	3779	3779	3779	3779	3821	3821	3821	3779	3779	3779	3779	3779	3779	3779	3821	3779	3821	3821	3821	3779	3779	3779	3779	3779	3738	3738	3779	3779	3779	3779	3779	3779	3738	3779	3738	3779	3738	3738	3779	3738	3738	3738	3779	3738	3738	3738	3738	3738	3738	3698	3698	3698	3738	3698	3698	3698	3698	3698	3738	3738	3738	3738	3738	3738	3738	3738	3738	3738	3738	3738	3738	3738	3738	3738	3698	3698	3738	3738	3738	3738	3738	3738	3738	3738	3738	3738	3698	3698	3698	3698	3698	3698	3621	3621	3621	3621	3621	3698	3659	3698	3698	3698	3698	3698	3698	3698	3621	3621	3621	3621	3621	3621	3659	3659	3659	3698	3698	3698	3698	3738	3738	3738	0	0	0	0	0	0	0	0	0	0	0	0	0	0	0	0	0	0	0	0	0	0	0	0	0	0	0	0	0	0	0	0	0	0	0
0	0	0	0	0	0	0	0	0	1539	1539	1532	1532	1539	1539	1539	1546	1546	1546	1546	1546	1546	1546	1546	1546	1539	1539	1546	1539	1539	1532	1532	1532	1532	1532	1532	1539	1546	1546	1546	1546	1539	1539	1539	1546	1546	1553	1553	1553	1560	1567	1574	1581	1581	1634	1626	1634	1634	1634	0	2392	2409	2392	2392	2392	2392	2392	2409	2409	2426	2409	2409	2409	2409	2409	2392	2392	2392	2392	2392	2392	2409	2409	2426	2426	2426	2426	2426	2426	2409	2409	2426	2426	2426	2409	2409	2426	2409	2409	2409	2409	2409	2409	2409	2409	2426	2409	2426	2426	2426	2426	2426	2409	2426	2409	2392	2409	2409	2409	2392	2392	2409	2409	2409	2409	2392	2409	2409	2409	2409	2409	2409	2409	2409	2409	2409	2409	2409	2409	2409	2409	2409	2409	2426	2426	2443	2443	2629	2629	2629	2629	2629	2629	2629	2629	2629	2629	2609	2609	2609	2609	2629	2629	2629	2629	2629	2629	2629	2629	3246	3246	3246	3246	3216	3246	3246	3246	3246	3246	3246	3277	3277	3246	3246	3277	3277	3246	3277	3277	3277	3277	3246	3246	3821	3779	3779	3821	3821	3779	3738	3738	3738	3779	3779	3779	3779	3779	3779	3779	3779	3779	3821	3821	3821	3821	3821	3821	3821	3821	3821	3821	3821	3821	3864	3864	3821	3821	3821	3821	3779	3779	3779	3779	3779	3779	3821	3821	3779	3864	3821	3821	3821	3821	3779	3779	3779	3779	3779	3738	3738	3738	3738	3738	3738	3779	3779	3821	3779	3821	3821	3864	3864	3864	3907	3864	3864	3864	3864	3864	3821	3864	3779	3821	3821	3821	3821	3821	3821	3821	3821	3821	3821	3779	3779	3779	3779	3779	3738	3738	0	0	0	2669	2690	2669	2669	2669	2669	2669	2649	2649	2649	2649	2669	2669	2669	2649	2649	2649	2649	2649	2649	2649	2690	2711	2711	2690	2711	2690	2690	2690	2690	2690	2690	2669	2669	0	3779	3779	3779	3779	3779	3779	3779	3779	3779	3779	3779	3779	3779	3779	3779	3779	3779	3779	3779	3779	3779	3779	3779	3779	3779	3779	3779	3738	3779	3779	3779	3779	3779	3779	3779	3779	3779	3779	3779	3779	3779	3779	3779	3779	3779	3779	3779	3779	3779	3738	3738	3738	3738	3738	3738	3738	3738	3738	3738	3779	3738	3738	3738	3821	3779	3779	3779	3779	3779	3779	3779	3779	3779	3779	3779	3821	3821	3821	3821	3821	3779	3821	3779	3779	3821	3779	3779	3779	3779	3779	3779	3779	3779	3779	3779	3779	3779	3779	3779	3779	3779	3779	3779	3779	3779	3779	3779	3779	3779	3738	3779	3779	3738	3738	3738	3738	3738	3738	3738	3738	3738	3738	3738	3738	3738	3738	3738	3738	3738	3738	3738	3779	3779	3779	3779	3779	3779	3779	3779	3821	3821	3821	3821	3779	3779	3779	3779	3779	3779	3779	3779	3821	3821	3779	3779	3821	3821	3779	3821	3821	3821	3821	3779	3779	3779	3779	3779	3779	3779	3779	3779	3779	3821	3821	3779	3779	3779	3779	3779	3779	3738	3738	3779	3779	3779	3779	3779	3779	3738	3779	3738	3738	3738	3738	3779	3738	3779	3779	3779	3779	3738	3738	3738	3738	3698	3698	3698	3698	3698	3698	3698	3698	3698	3698	3738	3738	3738	3779	3738	3779	3738	3738	3738	3779	3738	3738	3738	3738	3698	3738	3698	3698	3738	3738	3738	3738	3738	3738	3738	3738	3738	3738	3698	3698	3659	3698	3659	3659	3621	3621	3621	3621	3621	3659	3659	3698	3698	3698	3698	3698	3698	3698	3621	3621	3621	3621	3621	3659	3659	3659	3659	3659	3659	3698	3698	3698	3738	3738	0	0	0	0	0	0	0	0	0	0	0	0	0	0	0	0	0	0	0	0	0	0	0	0	0	0	0	0	0	0	0	0	0	0	0
0	0	0	0	0	0	0	0	0	1532	1532	1532	1532	1532	1532	1539	1539	1539	1546	1546	1546	1546	1546	1546	1546	1546	1539	1539	1539	1539	1532	1532	1532	1532	1532	1532	1532	1546	1546	1546	1546	1539	1539	1546	1546	1546	1553	1553	1553	1553	1567	1574	1581	1581	1626	1626	1634	1634	1634	1634	0	2409	2392	2392	2392	2392	2409	2409	2409	2426	2426	2409	2409	2409	2409	2409	2409	2409	2409	2409	2409	2409	2409	2426	2426	2426	2426	2426	2426	2426	2426	2426	2426	2426	2426	2426	2426	2426	2426	2426	2409	2426	2426	2426	2426	2426	2426	2426	2426	2443	2443	2426	2426	2426	2409	2409	2409	2409	2409	2392	2392	2409	2409	2409	2409	2409	2409	2426	2426	2426	2426	2426	2426	2426	2426	2426	2426	2409	2426	2409	2426	2426	2426	2426	2426	2443	2443	2629	2629	2629	2629	2629	2629	2629	2629	2629	2629	2609	2609	2609	2609	2629	2629	2629	2649	2629	2609	2609	3277	3246	3246	3246	3246	3216	3246	3246	3246	3277	3277	3277	3277	3277	3277	3277	3277	3277	3246	3277	3246	3277	3277	3246	3246	3246	3779	3779	3779	3779	3738	3738	3738	3738	3779	3779	3738	3779	3738	3779	3779	3779	3779	3821	3821	3821	3821	3821	3821	3821	3821	3821	3821	3821	3821	3864	3821	3821	3821	3821	3821	3779	3779	3779	3779	3779	3779	3821	3821	3821	3864	3821	3821	3821	3821	3821	3821	3779	3779	3779	3738	3738	3779	3779	3779	3821	3779	3821	3821	3821	3821	3821	3864	3864	3864	3907	3907	3864	3864	3864	3821	3821	3779	3779	3821	3821	3821	3821	3821	3821	3821	3821	3821	3821	3779	3821	3821	3821	3821	3779	3779	0	0	0	2669	2669	2669	2669	2669	2669	2669	2669	2649	2649	2669	2669	2669	2669	2649	2649	2649	2649	2649	2649	2669	2669	2690	2690	2690	2711	2690	2690	2690	2690	2690	2690	2690	2690	0	3779	3779	3779	3779	3779	3779	3779	3779	3779	3779	3779	3779	3779	3779	3779	3779	3779	3779	3779	3779	3779	3779	3779	3779	3779	3779	3779	3738	3779	3779	3779	3779	3779	3779	3779	3779	3779	3779	3779	3779	3779	3779	3779	3779	3779	3779	3779	3779	3779	3738	3738	3738	3738	3738	3738	3738	3738	3738	3738	3738	3738	3738	3738	3779	3779	3779	3779	3779	3779	3779	3779	3779	3779	3779	3779	3779	3779	3821	3821	3779	3779	3779	3779	3779	3779	3779	3779	3779	3779	3779	3779	3779	3738	3738	3779	3779	3779	3779	3779	3779	3779	3779	3779	3779	3779	3779	3779	3779	3779	3779	3779	3738	3738	3738	3738	3738	3738	3738	3738	3738	3738	3738	3738	3738	3738	3738	3738	3738	3738	3738	3738	3738	3779	3779	3779	3779	3779	3779	3779	3821	3821	3821	3821	3779	3779	3779	3779	3779	3779	3779	3779	3821	3821	3821	3821	3821	3821	3821	3821	3821	3821	3821	3821	3779	3779	3779	3779	3779	3779	3779	3779	3779	3779	3779	3779	3779	3779	3779	3779	3779	3779	3779	3779	3779	3779	3779	3779	3779	3738	3738	3738	3738	3738	3779	3779	3779	3779	3779	3779	3779	3779	3779	3779	3738	3738	3738	3738	3698	3698	3698	3698	3698	3698	3698	3779	3738	3779	3779	3779	3779	3779	3779	3779	3779	3738	3738	3738	3738	3698	3738	3698	3698	3738	3738	3738	3738	3738	3738	3738	3698	3738	3738	3738	3698	3698	3698	3659	3659	3621	3621	3621	3621	3698	3698	3698	3698	3698	3698	3698	3698	3698	3698	3698	3621	3621	3621	3621	3659	3659	3659	3659	3659	3659	3698	3659	3698	3738	3738	0	0	0	0	0	0	0	0	0	0	0	0	0	0	0	0	0	0	0	0	0	0	0	0	0	0	0	0	0	0	0	0	0	0	0
0	0	0	0	0	0	0	0	0	1532	1532	1525	1525	1525	1539	1546	1546	1546	1546	1546	1546	1546	1546	1546	1546	1539	1539	1539	1539	1539	1539	1539	1539	1532	1532	1532	1532	1532	1532	1532	1532	1539	1546	1546	1546	1546	1553	1553	1553	1560	1567	1581	1596	1618	1626	1634	1641	1641	1657	1657	1665	1665	1665	2392	2392	2392	2392	2409	2426	2443	2443	2426	2426	2426	2426	2409	2409	2409	2409	2426	2426	2426	2426	2443	2443	2443	2443	2443	2426	2426	2426	2426	2426	2426	2426	2426	2426	2426	2426	2426	2426	2426	2426	2426	2426	2426	2426	2443	2443	2443	2443	2443	2443	2443	2426	2426	2426	2426	2409	2409	2409	2426	2426	2426	2426	2426	2426	2426	2426	2426	2426	2426	2426	2426	2426	2426	2426	2426	2426	2426	2426	2426	2426	2426	2426	2443	2443	2629	2629	2629	2629	2629	2629	2629	2629	2629	2629	2609	2609	2609	2609	2609	2629	2609	2609	2609	2609	2609	3277	3277	3246	3246	3246	3246	3246	3309	3277	3277	3309	3309	3309	3277	3277	3277	3277	3277	3277	3277	3277	3277	3277	3246	3246	3246	3246	3779	3779	3779	3738	3738	3738	3738	3779	3779	3779	3779	3779	3779	3779	3821	3821	3821	3821	3821	3821	3864	3821	3821	3821	3821	3821	3821	3821	3821	3821	3821	3821	3821	3821	3779	3779	3779	3821	3821	3821	3821	3821	3821	3864	3864	3864	3821	3821	3821	3821	3821	3821	3821	3779	3821	3821	3821	3821	3821	3821	3821	3821	3821	3821	3821	3864	3864	3907	3907	3864	3864	3864	3864	3821	3821	3779	3779	3821	3821	3779	3779	3821	3821	3821	3821	3821	3821	3779	3821	3821	3821	3821	3779	3779	0	0	0	2669	2669	2669	2669	2669	2669	2669	2669	2649	2669	2669	2669	2669	2669	2669	2649	2649	2649	2649	2649	2649	2669	2690	2690	2690	2711	2690	2690	2711	2711	2711	2690	2690	2711	2711	3779	3738	3779	3779	3779	3779	3779	3779	3779	3779	3779	3779	3779	3779	3779	3779	3779	3779	3779	3779	3779	3779	3779	3779	3779	3779	3779	3738	3779	3779	3779	3779	3779	3779	3779	3779	3779	3779	3779	3779	3779	3779	3779	3779	3779	3779	3779	3779	3779	3779	3738	3738	3738	3738	3738	3738	3738	3738	3738	3738	3738	3738	3738	3779	3779	3779	3779	3779	3779	3779	3779	3779	3779	3779	3779	3779	3779	3779	3779	3779	3779	3779	3779	3779	3779	3779	3779	3779	3779	3779	3779	3779	3738	3738	3738	3738	3738	3738	3738	3738	3738	3779	3779	3779	3779	3779	3779	3779	3779	3779	3779	3738	3738	3738	3738	3738	3738	3738	3738	3738	3738	3738	3738	3738	3738	3698	3738	3738	3738	3738	3738	3779	3779	3779	3779	3779	3779	3779	3779	3821	3821	3779	3821	3779	3779	3779	3779	3779	3779	3779	3821	3821	3779	3779	3779	3779	3779	3779	3779	3821	3821	3779	3821	3779	3779	3779	3779	3779	3779	3779	3779	3779	3779	3779	3779	3779	3779	3779	3738	3738	3738	3779	3779	3738	3738	3738	3738	3779	3738	3738	3738	3779	3779	3779	3779	3779	3821	3779	3779	3779	3779	3779	3738	3738	3738	3738	3698	3698	3698	3698	3698	3698	3698	3698	3779	3779	3779	3779	3779	3821	3779	3779	3779	3779	3738	3738	3738	3698	3698	3698	3698	3698	3738	3738	3738	3738	3738	3738	3738	3698	3738	3738	3738	3698	3659	3659	3659	3659	3621	3621	3621	3621	3659	3659	3698	3698	3698	3698	3698	3698	3698	3698	3698	3659	3659	3621	3659	3659	3659	3659	3659	3659	3659	3698	3659	3698	3698	3698	0	0	0	0	0	0	0	0	0	0	0	0	0	0	0	0	0	0	0	0	0	0	0	0	0	0	0	0	0	0	0	0	0	0	0
0	0	0	0	0	0	0	0	0	1525	1525	1525	1525	1525	1532	1546	1546	1546	1546	1546	1546	1546	1546	1546	1539	1539	1539	1546	1546	1539	1539	1539	1539	1539	1532	1532	1532	1532	1532	1532	1532	1539	1539	1546	1546	1546	1546	1553	1553	1560	1574	1589	1596	1618	1626	1634	1641	1641	1649	1657	1657	1657	1657	1657	2392	2409	2409	2426	2443	2443	2443	2426	2443	2443	2443	2426	2426	2426	2443	2443	2443	2426	2443	2460	2460	2460	2443	2443	2443	2443	2443	2443	2426	2426	2443	2443	2443	2426	2426	2426	2426	2426	2426	2426	2426	2426	2443	2478	2460	2478	2460	2460	2460	2460	2460	2443	2443	2426	2426	2426	2426	2426	2426	2443	2443	2426	2426	2426	2426	2426	2426	2426	2426	2426	2426	2426	2443	2426	2426	2426	2426	2426	2426	2426	2443	2443	2478	2478	2629	2629	2629	2629	2629	2629	2629	2629	2629	2629	2609	2609	2609	2629	2629	2609	2609	2609	2609	3309	3309	3277	3277	3277	3277	3277	3309	3309	3277	3309	3309	3309	3309	3277	3277	3277	3309	3277	3277	3277	3277	3277	3277	3246	3277	3246	3246	3246	3779	3738	3738	3698	3738	3738	3738	3779	3779	3779	3779	3779	3779	3821	3821	3821	3821	3821	3821	3821	3821	3821	3821	3821	3821	3821	3821	3821	3821	3821	3821	3821	3821	3779	3779	3779	3821	3821	3821	3821	3821	3821	3864	3864	3864	3821	3821	3821	3821	3821	3821	3821	3821	3821	3821	3821	3821	3821	3821	3821	3821	3821	3821	3821	3821	3864	3864	3864	3864	3864	3864	3864	3821	3779	3864	3779	3779	3779	3779	3821	3821	3821	3821	3821	3821	3779	3779	3821	3821	3821	3821	3779	3779	0	0	0	2690	2690	2669	2669	2669	2669	2669	2669	2669	2669	2669	2669	2669	2669	2649	2649	2649	2649	2649	2649	2649	2669	2690	2690	2690	2690	2690	2690	2711	2711	2711	2690	2711	2711	2711	3738	3738	3738	3779	3779	3779	3779	3779	3779	3779	3779	3779	3779	3779	3779	3779	3779	3779	3779	3779	3779	3779	3779	3779	3779	3779	3779	3738	3779	3779	3779	3779	3779	3779	3779	3779	3779	3779	3779	3779	3779	3779	3779	3779	3779	3779	3779	3779	3779	3779	3738	3738	3738	3738	3738	3738	3738	3738	3738	3738	3738	3738	3738	3779	3779	3779	3779	3779	3779	3779	3779	3779	3779	3779	3779	3779	3779	3779	3779	3779	3779	3779	3779	3779	3779	3779	3779	3779	3779	3779	3779	3779	3779	3779	3779	3779	3779	3738	3738	3738	3738	3779	3738	3779	3779	3779	3779	3779	3779	3779	3779	3738	3738	3738	3738	3738	3738	3779	3738	3738	3738	3738	3738	3738	3738	3698	3738	3738	3738	3738	3738	3738	3779	3779	3779	3779	3779	3779	3779	3779	3779	3779	3779	3779	3779	3779	3779	3779	3779	3779	3821	3821	3779	3779	3779	3779	3779	3779	3779	3779	3779	3779	3779	3779	3779	3738	3738	3738	3779	3779	3779	3779	3779	3779	3779	3779	3738	3738	3738	3738	3779	3779	3779	3779	3779	3779	3779	3738	3738	3738	3738	3779	3779	3779	3779	3779	3779	3779	3779	3779	3779	3738	3738	3738	3738	3698	3698	3698	3698	3698	3698	3698	3698	3698	3779	3738	3779	3779	3779	3821	3779	3821	3779	3738	3738	3738	3698	3698	3698	3698	3698	3698	3738	3738	3738	3738	3738	3738	3738	3738	3738	3738	3738	3698	3659	3659	3659	3621	3621	3621	3621	3621	3621	3659	3698	3659	3659	3698	3698	3698	3659	3698	3698	3698	3698	3659	3659	3659	3659	3659	3659	3659	3659	3698	3659	3698	3698	3698	0	0	0	0	0	0	0	0	0	0	0	0	0	0	0	0	0	0	0	0	0	0	0	0	0	0	0	0	0	0	0	0	0	0	0
0	0	0	0	0	0	0	0	0	1525	1525	1525	1525	1532	1539	1546	1546	1546	1546	1546	1546	1546	1546	1546	1539	1539	1539	1539	1539	1539	1539	1539	1539	1539	1539	1539	1532	1532	1532	1546	1532	1539	1539	1546	1546	1546	1546	1560	1560	1567	1574	1581	1596	1618	1634	1634	1649	1649	1657	1657	1657	1657	1665	1665	1665	2409	2409	2426	2443	2443	2443	2443	2443	2443	2443	2443	2443	2443	2443	2443	2443	2443	2443	2460	2460	2460	2460	2460	2460	2460	2460	2443	2443	2443	2443	2443	2443	2443	2426	2426	2426	2443	2443	2443	2443	2443	2443	2478	2460	2478	2460	2460	2460	2478	2460	2460	2443	2443	2443	2443	2443	2443	2443	2443	2443	2443	2426	2426	2426	2426	2426	2426	2443	2443	2443	2443	2460	2443	2443	2443	2443	2443	2426	2426	2443	2443	2478	2570	2609	2609	2609	2629	2629	2629	2629	2629	2629	2629	2609	2609	2609	2629	2629	2629	2629	2629	2629	3309	3309	3309	3309	3277	3309	3309	3309	3309	3309	3341	3341	3309	3309	3309	3277	3309	3309	3309	3277	3277	3277	3277	3277	3277	3277	3277	3277	3277	3277	3738	3738	3738	3738	3738	3779	3779	3779	3779	3779	3779	3779	3779	3779	3821	3821	3821	3821	3821	3821	3821	3821	3821	3821	3821	3821	3821	3821	3821	3821	3821	3779	3779	3779	3779	3821	3821	3821	3821	3821	3821	3864	3864	3864	3821	3821	3821	3821	3821	3821	3821	3821	3821	3821	3821	3821	3821	3821	3821	3821	3821	3821	3821	3821	3821	3864	3864	3864	3864	3864	3864	3821	3779	3821	3779	3779	3779	3779	3821	3821	3821	3821	3821	3821	3779	3779	3779	3779	3779	3779	3779	3779	3779	0	0	2690	2690	2690	2690	2669	2669	2669	2669	2649	2669	2649	2669	2669	2669	2669	2669	2649	2649	2649	2649	2649	2669	2690	2690	2690	2690	2711	2690	2711	2711	2711	2711	2733	2733	0	3738	3738	3738	3779	3779	3779	3779	3779	3779	3779	3779	3779	3779	3779	3779	3779	3779	3779	3779	3779	3779	3779	3779	3779	3779	3779	3779	3738	3779	3779	3779	3779	3779	3779	3779	3779	3779	3779	3779	3779	3779	3779	3779	3779	3779	3779	3779	3779	3779	3779	3738	3738	3738	3738	3738	3738	3738	3738	3738	3738	3738	3738	3738	3779	3779	3779	3779	3779	3779	3779	3779	3779	3779	3779	3779	3779	3779	3738	3779	3779	3779	3779	3779	3779	3779	3779	3779	3779	3779	3779	3779	3779	3779	3779	3779	3779	3779	3738	3738	3738	3738	3738	3738	3779	3779	3779	3779	3779	3779	3738	3738	3738	3738	3738	3738	3738	3738	3738	3738	3738	3738	3738	3738	3738	3738	3698	3738	3698	3738	3698	3698	3738	3738	3738	3738	3738	3779	3779	3779	3821	3779	3779	3779	3779	3779	3779	3738	3779	3779	3779	3821	3821	3821	3779	3779	3779	3779	3779	3779	3779	3779	3779	3779	3779	3738	3738	3738	3779	3779	3779	3779	3779	3779	3779	3779	3779	3779	3738	3738	3738	3779	3779	3779	3779	3779	3779	3779	3738	3738	3738	3738	3779	3779	3779	3779	3779	3779	3779	3738	3738	3738	3738	3738	3698	3698	3698	3698	3698	3698	3698	3698	3698	3698	3698	3779	3779	3779	3779	3779	3821	3779	3779	3779	3738	3738	3698	3698	3698	3698	3698	3698	3698	3738	3738	3738	3738	3738	3738	3738	3738	3738	3738	3738	3698	3659	3659	3659	3659	3659	3621	3621	3621	3659	3698	3698	3659	3659	3698	3659	3698	3698	3698	3698	3698	3698	3698	3659	3659	3659	3621	3659	3659	3659	3698	3659	3659	3698	3698	0	0	0	0	0	0	0	0	0	0	0	0	0	0	0	0	0	0	0	0	0	0	0	0	0	0	0	0	0	0	0	0	0	0	0
0	0	0	0	0	0	0	0	0	1525	1525	1525	1525	1532	1539	1539	1546	1539	1539	1546	1546	1539	1539	1539	1539	1539	1539	1539	1539	1539	1539	1539	1539	1539	1539	1539	1532	1532	1532	1532	1532	1539	1539	1539	1546	1546	1546	1553	1553	1560	1567	1581	1596	1618	1634	1641	1657	1657	1665	1665	1665	1665	1665	1657	1657	1657	2409	2443	2443	2443	2443	2443	2443	2443	2460	2443	2460	2460	2460	2460	2460	2460	2460	2460	2478	2478	2478	2478	2478	2478	2460	2460	2443	2443	2443	2443	2443	2443	2443	2443	2460	2460	2460	2460	2460	2460	2460	2478	2478	2460	2460	2478	2478	2478	2478	2460	2460	2460	2460	2460	2443	2443	2460	2460	2460	2443	2443	2443	2443	2443	2426	2443	2443	2443	2460	2460	2460	2460	2460	2460	2460	2460	2460	2443	2460	2478	2496	2551	2589	2609	2609	2629	2629	2629	2629	2629	2629	2629	2629	2609	2609	2649	2649	2629	2649	2649	2649	3341	3341	3309	3341	3309	3341	3341	3341	3341	3341	3373	3373	3309	3309	3309	3309	3309	3309	3309	3309	3309	3309	3309	3309	3277	3277	3309	3309	3309	3309	3698	3698	3698	3698	3738	3738	3779	3779	3779	3779	3779	3779	3779	3779	3779	3779	3821	3821	3821	3821	3821	3821	3821	3821	3821	3821	3821	3821	3821	3821	3821	3779	3779	3779	3779	3821	3821	3821	3821	3821	3821	3864	3864	3864	3864	3821	3821	3821	3821	3821	3821	3821	3821	3821	3821	3821	3864	3821	3821	3821	3821	3821	3821	3821	3821	3821	3864	3821	3821	3821	3821	3821	3779	3779	3738	3779	3779	3779	3821	3821	3821	3821	3821	3779	3779	3779	3738	3738	3738	3738	3738	3779	3738	3738	2754	2711	2711	2690	2690	2669	2669	2669	2669	2669	2669	2669	2669	2669	2669	2669	2669	2649	2649	2649	2649	2669	2669	2690	2690	2690	2690	2690	2690	2711	2711	2711	2711	2711	2711	2799	2799	3738	3738	3779	3779	3779	3779	3779	3779	3779	3779	3779	3779	3779	3779	3779	3779	3779	3779	3779	3779	3779	3779	3779	3779	3779	3779	3779	3779	3779	3779	3779	3779	3779	3779	3779	3779	3779	3779	3779	3779	3779	3779	3738	3779	3779	3779	3779	3779	3779	3779	3738	3738	3738	3738	3738	3738	3738	3738	3738	3738	3738	3738	3779	3821	3821	3821	3821	3821	3821	3779	3779	3779	3779	3779	3779	3779	3738	3779	3779	3779	3779	3779	3779	3779	3779	3779	3779	3779	3779	3779	3779	3779	3779	3779	3779	3779	3738	3738	3738	3738	3738	3738	3779	3779	3779	3779	3779	3779	3779	3779	3738	3779	3779	3738	3738	3738	3779	3738	3738	3738	3738	3738	3738	3738	3738	3738	3738	3738	3698	3698	3738	3738	3738	3738	3738	3779	3779	3779	3821	3779	3779	3779	3779	3779	3779	3738	3779	3779	3779	3821	3779	3779	3779	3779	3779	3779	3738	3738	3779	3779	3779	3779	3779	3779	3779	3779	3779	3779	3779	3779	3779	3779	3779	3738	3738	3738	3738	3738	3738	3738	3779	3779	3779	3779	3779	3779	3738	3738	3738	3738	3779	3779	3779	3779	3779	3779	3738	3738	3738	3738	3738	3738	3698	3698	3698	3698	3698	3698	3698	3698	3698	3698	3698	3779	3779	3779	3779	3779	3821	3821	3779	3738	3738	3738	3698	3698	3698	3698	3698	3698	3698	3738	3738	3738	3738	3738	3738	3738	3738	3738	3738	3698	3698	3659	3659	3659	3659	3659	3659	3659	3621	3659	3698	3698	3698	3659	3698	3698	3698	3698	3698	3698	3698	3698	3698	3698	3659	3659	3659	3659	3659	3621	3659	3659	3659	3659	3659	0	0	0	0	0	0	0	0	0	0	0	0	0	0	0	0	0	0	0	0	0	0	0	0	0	0	0	0	0	0	0	0	0	0	0
0	0	0	0	0	0	0	0	0	1525	1525	1525	1525	1525	1532	1532	1539	1539	1539	1539	1539	1539	1539	1546	1539	1546	1539	1539	1539	1539	1546	1539	1539	1539	1539	1532	1532	1532	1532	1539	1539	1539	1539	1539	1546	1546	1546	1546	1553	1560	1567	1581	1603	1618	1634	1641	1657	1657	1665	1665	1665	1665	1673	1665	1665	1673	1673	2443	2460	2460	2460	2460	2460	2460	2460	2460	2460	2460	2478	2460	2460	2460	2460	2460	2478	2478	2478	2478	2478	2478	2478	2460	2460	2460	2460	2460	2460	2460	2460	2460	2460	2478	2478	2478	2478	2478	2478	2478	2478	2478	2478	2478	2478	2478	2478	2478	2478	2460	2460	2478	2460	2460	2460	2478	2460	2460	2460	2460	2460	2443	2443	2443	2460	2460	2478	2478	2478	2478	2478	2478	2478	2478	2478	2478	2478	2478	2496	2532	2589	2589	2609	2629	2629	2629	2629	2629	2629	2629	2609	2609	2609	2649	2649	2649	2649	2649	2649	3341	3341	3309	3309	3309	3309	3341	3309	3341	3309	3373	3341	3341	3309	3309	3309	3309	3309	3309	3309	3309	3309	3309	3309	3309	3309	3309	3341	3341	3341	3698	3738	3738	3738	3738	3738	3738	3738	3779	3779	3779	3779	3779	3779	3779	3779	3779	3821	3821	3821	3821	3821	3821	3821	3821	3821	3821	3821	3821	3821	3821	3779	3779	3779	3779	3779	3821	3821	3821	3864	3821	3864	3864	3864	3821	3821	3821	3821	3821	3779	3821	3821	3821	3821	3821	3821	3864	3821	3864	3864	3864	3864	3821	3821	3821	3821	3821	3821	3821	3821	3821	3821	3779	3779	3779	3779	3779	3821	3821	3821	3821	3821	3821	3779	3779	3738	3738	3738	3738	3738	3738	3738	3738	2754	2754	2711	2690	2690	2690	2690	2669	2669	2669	2669	2669	2669	2669	2669	2669	2669	2649	2629	2649	2649	2669	2669	2669	2690	2690	2690	2690	2690	2690	2711	2711	2711	2733	2733	2754	2799	2799	3738	3779	3779	3779	3779	3779	3779	3779	3779	3779	3779	3779	3779	3779	3779	3779	3779	3779	3779	3779	3779	3779	3779	3779	3779	3779	3779	3779	3779	3779	3779	3779	3779	3779	3779	3779	3779	3779	3779	3779	3779	3779	3738	3779	3779	3779	3779	3779	3779	3779	3738	3738	3738	3738	3738	3738	3738	3738	3738	3738	3738	3738	3779	3821	3779	3779	3779	3779	3821	3779	3779	3779	3779	3779	3779	3779	3738	3738	3779	3779	3779	3779	3779	3779	3779	3779	3779	3779	3779	3779	3779	3779	3779	3779	3779	3738	3738	3738	3738	3698	3738	3738	3779	3779	3779	3779	3779	3779	3779	3779	3779	3779	3779	3779	3779	3779	3779	3738	3738	3738	3738	3738	3738	3738	3738	3738	3738	3738	3698	3698	3698	3738	3738	3738	3738	3738	3779	3779	3821	3779	3779	3779	3779	3779	3779	3779	3779	3779	3821	3821	3821	3821	3779	3779	3779	3779	3738	3738	3779	3779	3779	3779	3779	3779	3779	3779	3779	3738	3738	3738	3779	3779	3738	3738	3738	3738	3738	3738	3738	3779	3779	3779	3779	3779	3779	3779	3738	3738	3738	3738	3779	3779	3738	3779	3779	3779	3738	3738	3738	3738	3738	3738	3738	3738	3698	3698	3698	3698	3698	3698	3698	3698	3698	3738	3779	3779	3779	3779	3779	3821	3779	3738	3738	3738	3698	3698	3698	3698	3698	3698	3698	3738	3738	3738	3738	3738	3738	3738	3738	3738	3738	3698	3698	3659	3659	3659	3659	3659	3621	3621	3621	3659	3698	3698	3698	3698	3698	3698	3698	3698	3698	3698	3698	3698	3698	3698	3659	3659	3659	3659	3659	3621	3659	3621	3659	3621	3621	0	0	0	0	0	0	0	0	0	0	0	0	0	0	0	0	0	0	0	0	0	0	0	0	0	0	0	0	0	0	0	0	0	0	0
0	0	0	0	0	0	0	0	0	1525	1525	1525	1525	1532	1532	1539	1539	1539	1539	1539	1546	1539	1539	1539	1539	1546	1546	1539	1539	1539	1539	1539	1539	1539	1539	1532	1539	1539	1539	1539	1539	1539	1539	1539	1539	1539	1546	1546	1553	1560	1560	1574	1574	1626	1634	1649	1657	1665	1673	1673	1673	1673	1673	1673	1673	1673	1673	0	2443	2443	2460	2460	2460	2460	2460	2460	2478	2478	2478	2478	2478	2478	2478	2478	2478	2496	2478	2478	2478	2478	2478	2478	2460	2478	2478	2478	2478	2478	2478	2478	2478	2478	2478	2478	2478	2478	2496	2496	2496	2478	2478	2478	2478	2478	2478	2478	2478	2478	2478	2478	2478	2478	2478	2478	2478	2478	2478	2478	2478	2478	2478	2478	2478	2496	2496	2496	2496	2478	2496	2496	2496	2478	2478	2478	2478	2478	2496	2514	2551	2570	2589	2609	2609	2609	2609	2609	2609	2629	2609	2609	2629	2649	2649	2649	2649	2649	2649	3373	3341	3341	3341	3341	3341	3341	3341	3309	3309	3373	3341	3341	3309	3309	3341	3341	3341	3341	3341	3341	3341	3341	3341	3309	3341	3341	3341	3341	3341	3698	3698	3698	3738	3738	3738	3738	3738	3738	3738	3738	3779	3738	3779	3738	3779	3779	3779	3779	3779	3821	3821	3821	3821	3821	3821	3821	3821	3821	3779	3779	3779	3779	3779	3779	3821	3821	3864	3864	3864	3821	3864	3864	3864	3864	3821	3821	3821	3821	3779	3821	3821	3821	3821	3821	3864	3864	3864	3864	3864	3864	3864	3821	3821	3821	3821	3821	3779	3779	3779	3779	3779	3779	3779	3738	3779	3779	3821	3821	3821	3821	3821	3821	3779	3779	3738	3738	3738	3738	3738	3738	3738	2777	2777	2754	2733	2711	2711	2690	2690	2669	2669	2669	2669	2669	2669	2669	2669	2669	2649	2649	2629	2649	2649	2669	2669	2690	2690	2690	2690	2690	2690	2690	2711	2711	2711	2733	2733	2754	2777	2777	3738	3738	3779	3779	3779	3779	3779	3779	3779	3779	3779	3779	3779	3779	3779	3779	3779	3779	3779	3779	3779	3779	3779	3779	3779	3779	3779	3779	3779	3779	3779	3779	3779	3779	3779	3779	3779	3779	3738	3738	3738	3738	3738	3779	3738	3779	3779	3779	3779	3779	3738	3738	3738	3738	3738	3738	3738	3738	3738	3738	3738	3738	3738	3779	3779	3779	3779	3779	3779	3779	3779	3779	3779	3779	3779	3779	3738	3738	3779	3779	3779	3779	3779	3779	3779	3779	3779	3779	3779	3779	3779	3779	3779	3779	3779	3779	3738	3698	3698	3698	3698	3738	3738	3738	3738	3779	3779	3779	3779	3779	3779	3779	3779	3738	3779	3738	3779	3738	3738	3738	3738	3738	3738	3738	3738	3738	3738	3738	3698	3698	3738	3738	3738	3738	3738	3738	3779	3779	3779	3779	3779	3779	3779	3779	3779	3779	3779	3779	3821	3821	3779	3821	3779	3779	3779	3779	3738	3738	3738	3779	3779	3779	3779	3779	3779	3779	3779	3779	3738	3738	3779	3779	3738	3738	3738	3738	3738	3779	3738	3779	3779	3779	3779	3779	3779	3779	3738	3738	3738	3738	3738	3779	3738	3779	3738	3779	3738	3738	3738	3738	3738	3738	3738	3738	3738	3698	3698	3698	3698	3698	3698	3698	3698	3738	3738	3779	3779	3779	3779	3779	3779	3738	3738	3698	3698	3698	3698	3698	3698	3698	3698	3738	3738	3738	3738	3738	3738	3738	3698	3698	3698	3698	3698	3698	3698	3698	3659	3659	3621	3698	3621	3659	3698	3698	3698	3698	3698	3659	3698	3698	3698	3698	3659	3698	3698	3698	3659	3659	3659	3659	3659	3621	3621	3621	3659	3659	3659	0	0	0	0	0	0	0	0	0	0	0	0	0	0	0	0	0	0	0	0	0	0	0	0	0	0	0	0	0	0	0	0	0	0	0
0	0	0	0	0	0	0	0	0	1525	1525	1525	1532	1532	1539	1546	1546	1539	1539	1539	1539	1539	1539	1539	1539	1539	1539	1539	1539	1539	1539	1539	1539	1539	1532	1532	1539	1539	1539	1539	1539	1539	1539	1539	1546	1546	1546	1546	1553	1560	1560	1567	1574	1626	1649	1649	1665	1665	1673	1673	1681	1681	1681	1681	1673	1673	1673	0	2426	2426	2443	2443	2460	2460	2460	2460	2478	2478	2478	2478	2478	2478	2478	2478	2496	2496	2496	2496	2496	2496	2478	2478	2478	2478	2478	2478	2478	2478	2478	2478	2478	2496	2496	2478	2496	2496	2496	2496	2496	2496	2496	2496	2496	2496	2496	2496	2496	2478	2496	2496	2496	2478	2478	2478	2478	2478	2478	2478	2496	2496	2496	2496	2496	2496	2496	2496	2496	2496	2496	2496	2496	2496	2496	2496	2496	2496	2496	2514	2514	2551	2570	2589	2589	2609	2609	2609	2609	2629	2629	2609	2629	2649	2649	2649	2649	2649	3373	3373	3373	3341	3341	3341	3373	3373	3309	3309	3341	3373	3373	3341	3341	3341	3341	3341	3341	3341	3373	3373	3341	3373	3341	3341	3341	3341	3341	3373	3373	3698	3698	3698	3738	3738	3738	3738	3738	3738	3738	3738	3738	3738	3779	3738	3779	3779	3821	3779	3821	3821	3821	3821	3821	3779	3779	3779	3779	3779	3779	3779	3779	3821	3821	3779	3821	3821	3864	3864	3821	3821	3864	3864	3864	3821	3864	3821	3821	3821	3821	3821	3821	3821	3821	3821	3821	3864	3864	3864	3864	3864	3821	3821	3821	3821	3821	3779	3779	3779	3779	3779	3779	3779	3779	3779	3779	3779	3821	3821	3821	3821	3821	3821	3821	3821	3779	3738	3779	3779	3738	3738	3738	2799	2777	2777	2754	2733	2711	2690	2690	2669	2669	2669	2669	2669	2669	2669	2649	2649	2649	2649	2629	2649	2649	2649	2690	2690	2690	2690	2690	2690	2690	2690	2711	2711	2711	2733	2733	2754	2777	2777	0	3738	3779	3779	3779	3779	3779	3779	3779	3779	3779	3779	3779	3779	3779	3779	3779	3779	3779	3779	3779	3779	3779	3779	3779	3779	3779	3779	3779	3779	3779	3779	3779	3779	3779	3779	3779	3779	3779	3779	3738	3738	3738	3738	3738	3779	3779	3779	3779	3779	3779	3738	3738	3738	3738	3738	3738	3738	3738	3738	3738	3738	3779	3779	3779	3779	3779	3779	3779	3779	3779	3779	3779	3779	3779	3779	3738	3738	3779	3779	3779	3779	3779	3779	3779	3779	3779	3779	3779	3779	3779	3779	3779	3779	3779	3738	3738	3698	3698	3698	3698	3698	3738	3779	3738	3738	3779	3779	3779	3779	3779	3779	3779	3779	3738	3738	3779	3779	3779	3779	3779	3779	3779	3779	3738	3738	3738	3738	3698	3698	3738	3738	3738	3738	3738	3738	3738	3738	3779	3779	3779	3779	3779	3738	3779	3779	3779	3779	3779	3779	3779	3821	3779	3779	3779	3779	3738	3738	3738	3779	3779	3779	3779	3779	3779	3779	3779	3738	3738	3738	3779	3779	3738	3738	3738	3738	3738	3779	3738	3779	3779	3779	3779	3779	3779	3738	3738	3738	3698	3738	3738	3779	3738	3779	3738	3738	3738	3738	3738	3738	3698	3698	3738	3738	3738	3698	3698	3698	3698	3698	3698	3698	3698	3738	3738	3738	3738	3738	3738	3738	3738	3738	3738	3698	3698	3698	3698	3698	3698	3698	3698	3738	3738	3698	3698	3698	3698	3738	3698	3698	3698	3698	3698	3698	3698	3659	3659	3659	3659	3659	3621	3659	3659	3659	3659	3659	3659	3659	3659	3659	3659	3659	3659	3659	3659	3659	3659	3621	3621	3659	3659	3621	3621	3621	3659	3659	3659	0	0	0	0	0	0	0	0	0	0	0	0	0	0	0	0	0	0	0	0	0	0	0	0	0	0	0	0	0	0	0	0	0	0	0
0	0	0	0	0	0	0	0	0	1519	1525	1525	1532	1532	1539	1546	1539	1539	1539	1546	1539	1539	1539	1539	1539	1539	1539	1539	1539	1539	1539	1539	1539	1539	1539	1539	1539	1539	1539	1546	1546	1539	1539	1539	1546	1546	1539	1546	1553	1560	1567	1574	1574	1618	1634	1649	1665	1673	1681	1681	1681	1681	1681	1681	1690	1690	1690	0	2409	2426	2443	2460	2460	2460	2478	2460	2478	2478	2478	2478	2478	2478	2478	2496	2496	2496	2496	2496	2496	2496	2496	2496	2496	2496	2496	2496	2496	2496	2496	2496	2496	2496	2496	2496	2496	2496	2496	2496	2496	2496	2514	2514	2496	2496	2496	2496	2496	2496	2496	2496	2496	2496	2478	2478	2478	2478	2478	2496	2496	2496	2514	2496	2496	2496	2496	2496	2496	2496	2496	2496	2496	2496	2496	2496	2496	2496	2496	2514	2514	2532	2551	2570	2570	2589	2589	2609	2609	2609	2609	2609	2609	2649	2649	2649	2649	2669	2669	3406	3373	3373	3373	3373	3373	3373	3373	3373	3373	3406	3406	3373	3373	3373	3373	3373	3373	3373	3373	3373	3341	3373	3341	3373	3341	3341	3373	3373	3186	3659	3698	3698	3698	3738	3738	3738	3738	3738	3738	3738	3738	3738	3779	3779	3779	3779	3821	3821	3821	3821	3821	3821	3821	3821	3779	3779	3779	3779	3779	3779	3779	3821	3821	3821	3821	3821	3864	3864	3821	3821	3864	3864	3864	3821	3821	3821	3821	3821	3779	3779	3779	3821	3821	3821	3821	3821	3821	3821	3864	3864	3821	3821	3779	3779	3779	3779	3779	3779	3779	3779	3779	3738	3779	3779	3779	3779	3821	3821	3821	3821	3821	3821	3821	3821	3738	3738	3738	3738	3738	3738	3738	2777	2777	2777	2754	2733	2733	2711	2690	2690	2669	2669	2669	2669	2669	2669	2649	2649	2649	2629	2629	2649	2649	2669	2669	2690	2690	2690	2669	2690	2690	2690	2690	2711	2711	2733	2733	2754	2777	2799	2799	3738	3738	3779	3779	3779	3779	3779	3779	3779	3779	3779	3779	3779	3779	3779	3779	3779	3779	3779	3779	3779	3779	3779	3779	3779	3779	3779	3779	3779	3779	3779	3779	3779	3779	3779	3779	3779	3738	3738	3738	3738	3738	3738	3738	3779	3779	3779	3779	3779	3738	3738	3738	3738	3738	3738	3738	3738	3738	3738	3738	3738	3779	3779	3779	3779	3779	3779	3779	3779	3779	3779	3779	3779	3779	3779	3779	3779	3779	3779	3779	3779	3779	3779	3779	3779	3779	3779	3779	3779	3779	3779	3779	3779	3779	3779	3738	3738	3698	3698	3698	3738	3738	3779	3738	3779	3779	3779	3779	3779	3779	3779	3779	3779	3779	3779	3779	3779	3779	3779	3779	3779	3779	3779	3779	3738	3738	3738	3738	3738	3738	3738	3738	3698	3698	3698	3698	3738	3779	3779	3779	3779	3779	3738	3738	3738	3738	3779	3779	3779	3779	3821	3779	3779	3738	3738	3738	3738	3738	3738	3779	3779	3779	3738	3738	3779	3779	3738	3738	3738	3738	3738	3738	3738	3738	3738	3738	3779	3779	3779	3779	3779	3779	3738	3779	3738	3738	3738	3738	3738	3738	3779	3738	3779	3738	3738	3738	3738	3738	3738	3698	3698	3698	3738	3738	3698	3698	3698	3698	3698	3698	3698	3698	3738	3738	3738	3738	3738	3738	3738	3738	3698	3698	3698	3698	3698	3698	3698	3698	3698	3698	3698	3698	3698	3698	3698	3698	3698	3698	3698	3698	3698	3698	3698	3698	3698	3659	3659	3621	3659	3621	3621	3659	3659	3659	3659	3659	3659	3659	3659	3659	3659	3621	3621	3659	3659	3621	3659	3659	3659	3659	3621	3621	3621	3659	3659	3659	0	0	0	0	0	0	0	0	0	0	0	0	0	0	0	0	0	0	0	0	0	0	0	0	0	0	0	0	0	0	0	0	0	0	0
