0	0	775	782	782	784	786	786	789	791	793	793	798	798	802	806	808	810	814	814	817	821	821	823	823	829	835	839	845	848	848	848	850	852	854	858	858	865	869	869	873	880	882	889	891	891	894	896	903	903	908	913	915	917	922	925	930	930	930	940	945	948	950	953	955	958	961	963	963	983	988	991	991	997	1000	1003	1008	1014	1020	1030	1033	1036	1039	1039	1039	1048	1055	1068	1071	1074	1074	1078	1081	1085	1091	1098	1098	1105	1105	1109	1113	1109	1113	1113	0	0	0	0	0	0	0	0	0	6235	6235	6349	6349	6235	6468	6468	6468	6592	6592	6592	6592	6720	6720	6853	0	0	0	6992	6992	6992	6992	6853	6853	6992	6992	6992	6992	6992	6992	6992	6992	6992	0	0	0	0	0	0	0	0	0	0	0	0	0	0	0	0	0	0	0	0	8146	7959	7959	7959	0	0	0	0	0	0	0	0	0	0	1804	1814	8550	8550	8343	8146	8146	8146	7959	8146	8146	8146	8343	8343	8343	8343	8343	8146	8146	8343	8343	8146	8146	8146	8146	8146	8146	8146	8146	8146	8146	8146	8146	8146	8146	8146	8146	8146	8146	8146	8146	8146	8146	0	0	0	3277	3277	3277	3277	3277	3277	3277	3277	3246	3246	3277	3277	3277	3309	3309	3341	3341	3341	3341	3309	3309	3309	3277	3277	3277	3246	3246	3246	3246	3246	3246	3246	3216	3246	3246	3216	3216	3216	3216	3216	3216	3216	3216	3216	3216	3246	3246	3246	3246	3246	3246	3246	3246	3277	3277	3277	3277	3277	3277	3277	3277	3309	3309	3309	3341	3341	3373	3373	3373	3373	3341	3341	3341	3341	3309	3341	3309	3309	3309	3309	3309	3309	0	0	8146	8146	8146	8146	8343	8343	8343	8550	8550	8550	8550	8343	8343	8550	8550	8343	8146	8343	8343	8343	8343	8343	8343	8343	8343	8343	8550	8343	8343	8550	8343	8550	8343	8343	8343	8343	8343	8343	8343	8146	8146	8146	8146	8146	8343	8343	8343	8343	8343	8343	8343	8343	8146	8146	8146	8146	8343	8343	8146	8146	8146	8343	8343	8343	8146	8146	8343	8343	8343	8343	8146	8146	8146	8343	8343	8343	8146	8343	8343	8343	8550	8550	8550	8343	8550	8146	8146	8146	8146	8343	8343	8343	8343	8343	8343	8343	8146	8146	8146	8146	8146	8146	8146	8146	8146	8146	8146	8146	8146	8146	8146	8146	8146	8146	8146	8146	8146	8146	8146	8146	8146	8146	8146	7959	8146	8146	8146	8146	8146	7959	8146	8146	8146	8146	8146	8146	8146	8146	8146	8146	8146	8146	8146	8146	8146	7959	7959	7959	7959	7959	7959	7959	7959	7959	8146	8146	8146	8146	8146	8146	8146	8146	8146	8146	8146	8146	8146	8146	8146	8146	8343	8146	8146	8146	7959	7959	7959	7959	8146	7959	7959	7959	8146	8146	8146	8146	8146	8146	8146	8146	8146	8146	8146	8343	8146	7959	8343	8146	8343	8343	8146	8343	8343	8146	8146	8146	8146	8146	8146	8146	8146	8146	8343	8343	8343	8343	8343	8343	8343	8343	8343	8343	8343	8343	8343	8343	8146	8343	8343	8343	8550	8550	8343	8550	8550	8550	8343	8146	8146	8146	8343	8343	8343	8343	8343	8550	8550	8343	8343	8343	8343	8343	8343	8343	8146	8343	8343	8343	8343	8343	8343	8343	8343	8343	8343	8343	8343	8343	8343	8343	8146	8343	8343	8146	8146	8146	8343	8343	8343	8343	8343	8343	8343	8343	8343	8343	8343	8343	8343	0	0	0	0	0	0	0	0	0	0	0	0	0	0	0	0	0	0	0	0	0	0	0	0	0	0	0	0	0	0	0	0	0	0	0	0	0	0	0	0	0
0	0	0	782	784	784	786	788	789	791	793	795	797	798	798	804	804	812	815	815	817	821	823	823	825	829	837	839	843	845	845	848	848	860	854	856	865	867	869	869	871	880	882	887	891	894	894	894	903	903	910	913	917	917	925	935	935	935	937	942	945	948	950	950	953	955	955	961	972	983	985	991	991	997	1000	1006	1011	1017	1020	1030	1036	1036	1039	1042	1042	1048	1055	1068	1071	1074	1078	1081	1081	1091	1091	1095	1098	1102	1105	1109	1113	1109	1113	1113	0	0	0	0	0	0	0	0	0	6235	6235	6235	6235	6235	6349	6349	6468	6468	6468	6592	6592	6720	6853	6853	0	0	0	0	6992	6992	6992	6853	6853	6992	6992	6992	6992	7137	7137	7137	7137	7137	0	0	0	0	0	0	0	0	0	0	0	0	0	0	0	0	0	0	8343	8146	8146	8146	7959	8146	8146	8343	8146	8146	0	0	0	0	0	0	0	0	8767	8767	8343	8146	8146	8146	7959	7959	8146	8146	8146	8146	8146	8146	8146	8146	8343	8343	8343	8343	8146	8343	8343	8343	8146	8146	8343	8146	8146	8146	8146	8146	8146	8146	8146	8146	8146	8146	8146	8146	8146	8146	0	0	3277	3277	3277	3277	3277	3277	3277	3277	3246	3246	3246	3277	3277	3309	3309	3341	3341	3341	3341	3309	3309	3277	3277	3277	3277	3246	3246	3246	3246	3246	3246	3246	3216	3216	3246	3216	3216	3216	3216	3216	3216	3216	3216	3216	3216	3216	3216	3216	3246	3246	3246	3246	3277	3277	3277	3277	3277	3277	3277	3277	3277	3309	3309	3309	3341	3373	3373	3373	3373	3373	3341	3341	3341	3341	3341	3309	3309	3309	3309	3309	3309	3309	0	0	8146	8146	8146	8146	8146	8146	8343	8550	8550	8550	8550	8550	8550	8550	8550	8343	8343	8343	8343	8343	8343	8343	8343	8550	8550	8550	8550	8550	8343	8343	8343	8343	8343	8343	8343	8343	8343	8343	8343	8146	8146	8146	8146	8146	8343	8343	8343	8343	8343	8343	8343	8343	8146	8343	8343	8343	8343	8343	8343	8343	8146	8343	8146	8146	8146	8146	8146	8343	8146	8343	8343	8146	8343	8343	8343	8343	8343	8343	8343	8343	8550	8550	8550	8343	8343	8146	8146	8146	8146	8146	8146	8343	8343	8343	8146	8146	8146	8146	8146	8146	7959	8146	8146	8146	8146	8146	8146	8146	8146	8146	8146	8146	8146	8146	8146	8146	8146	8146	8146	7959	8146	8146	8146	7959	8146	8146	8146	8146	8146	8146	8146	8146	8146	8146	8146	8146	8146	8146	8146	8146	8146	8146	8146	8146	8146	7959	7959	7959	7959	7959	7959	7959	7959	8146	8343	8146	8343	8146	8146	8146	8146	8146	8146	8146	8146	8146	8146	8146	8146	8146	8146	8146	8146	8146	7959	7959	7959	8146	7959	7959	7959	7959	7959	8146	8146	8146	8146	8146	8146	8146	8146	8146	8146	8146	8146	8146	8146	8146	8343	8343	8343	8343	8343	8146	7959	8146	8146	8146	8146	8146	8146	8343	8343	8343	8343	8343	8343	8343	8343	8146	8146	8146	8343	8343	8343	8343	8146	8343	8343	8343	8550	8550	8550	8550	8550	8550	8550	8146	8146	8146	8343	8343	8343	8550	8550	8550	8343	8343	8343	8343	8343	8343	8343	8343	8343	8343	8550	8146	8343	8343	8343	8550	8343	8343	8343	8343	8343	8343	8343	8343	8343	8343	8343	8146	8146	8343	8343	8343	8343	8343	8343	8343	8343	8343	8146	8146	8146	8343	8343	0	0	0	0	0	0	0	0	0	0	0	0	0	0	0	0	0	0	0	0	0	0	0	0	0	0	0	0	0	0	0	0	0	0	0	0	0	0	0	0	0
0	0	0	782	784	784	786	788	789	791	793	795	797	800	800	808	808	810	815	815	819	821	823	823	827	827	835	841	845	845	845	845	848	858	854	856	865	867	869	869	871	880	880	884	894	896	896	898	903	905	910	913	915	917	927	935	937	937	940	942	945	948	950	950	953	953	953	966	966	983	985	991	991	997	1000	1003	1008	1017	1023	1030	1033	1036	1039	1042	1042	1052	1058	1068	1071	1074	1078	1081	1085	1088	1091	1095	1098	1098	1105	1109	1109	1109	1113	1113	0	0	0	0	0	0	0	0	0	6235	6235	6349	6235	6349	6349	6349	6349	6349	6349	6468	6468	6468	6468	6853	0	0	0	0	6992	6992	6992	6853	6992	6992	6992	6992	6992	7137	7137	7137	7287	7287	7287	0	0	0	0	0	0	0	0	0	0	0	0	0	0	0	0	0	8146	8146	8146	7959	7959	8146	8146	8146	8146	8146	0	0	0	0	0	0	0	0	8343	8550	8343	8146	8146	8146	8146	7959	7959	8146	8343	8146	8146	8343	8146	8146	8146	8343	8343	8343	8146	8146	8343	8343	8146	8146	8146	8146	8146	8146	8146	8146	8146	8146	8343	8146	8146	8146	8146	8146	8146	8146	0	0	3277	3277	3277	3277	3277	3277	3277	3277	3277	3277	3246	3277	3277	3277	3309	3341	3341	3341	3341	3309	3309	3277	3277	3277	3277	3246	3246	3246	3246	3246	3246	3246	3246	3246	3246	3216	3216	3216	3216	3216	3216	3216	3216	3216	3216	3216	3216	3216	3246	3246	3246	3277	3277	3277	3246	3277	3277	3277	3277	3277	3277	3309	3309	3309	3341	3341	3373	3373	3373	3373	3341	3341	3309	3309	3309	3309	3309	3309	3309	3309	3309	3309	3309	0	7959	7959	8146	8146	8343	8343	8550	8550	8550	8550	8550	8550	8343	8343	8343	8343	8343	8343	8343	8343	8343	8343	8343	8550	8550	8550	8550	8550	8550	8343	8343	8343	8343	8343	8550	8343	8343	8343	8343	8343	8146	8146	8146	8146	8146	8343	8343	8343	8343	8343	8343	8146	8146	8146	8146	8146	8343	8343	8146	8146	8343	8146	8146	8146	8146	8146	8146	8146	8343	8343	8343	8343	8343	8343	8343	8343	8343	8343	8343	8343	8550	8550	8343	8343	8343	8146	8146	8146	8146	8146	8146	8343	8343	8343	8146	8146	8146	8146	8146	8146	8146	8146	8146	8146	8146	8146	8146	8146	8146	8146	8146	8146	8146	8146	8146	8146	8146	8146	8146	8146	7959	8146	8146	7959	8146	8146	8146	8146	8146	8146	8146	8146	8146	8146	8146	8146	8146	8146	8146	8146	8146	8146	8146	8146	8146	7959	7959	7959	7959	7959	7959	7959	7959	8146	8343	8146	8343	8146	8146	8343	8146	8146	8146	8146	8146	8146	8146	8146	8146	8146	8146	8146	8146	8146	7959	7959	8146	8146	8146	8146	8343	8146	8146	8146	8146	8146	8146	8146	8146	8146	8146	8146	8146	8146	8146	8146	8146	8343	8343	8146	8146	8343	8146	8343	7959	7959	7959	8146	8146	8146	8146	8146	8343	8146	8343	8343	8343	8343	8343	8146	8146	8146	8343	8343	8343	8343	8146	8343	8343	8343	8343	8550	8550	8550	8550	8550	8343	8146	8146	7779	8343	7959	8343	8550	8550	8550	8550	8343	8343	8343	8343	8343	8343	8343	8343	8343	8343	8343	8343	8550	8343	8343	8343	8343	8343	8343	8343	8343	8343	8343	8343	8343	8343	8343	8146	8343	8343	8343	8343	8343	8343	8343	8343	8343	8343	8146	8146	8343	8343	0	0	0	0	0	0	0	0	0	0	0	0	0	0	0	0	0	0	0	0	0	0	0	0	0	0	0	0	0	0	0	0	0	0	0	0	0	0	0	0	0
0	0	0	777	779	784	786	788	791	793	795	795	798	798	800	808	810	814	815	815	819	821	823	823	823	827	833	839	845	845	845	848	850	854	856	858	867	869	871	873	878	878	880	884	891	894	896	896	905	905	908	910	913	920	920	937	937	940	940	942	945	948	948	950	955	953	963	969	977	980	983	988	991	997	1000	1006	1014	1017	1020	1030	1033	1036	1039	1042	1045	1055	1061	1068	1071	1074	1078	1081	1081	1085	1088	1088	1095	1095	1105	1109	1109	1109	1109	1109	0	0	0	0	0	0	0	0	0	6235	6235	6349	6349	6349	6349	6349	6349	6349	6349	6468	6349	6349	6349	0	0	0	0	0	0	6992	6853	6853	6853	6992	6992	6992	6992	7137	7137	7287	7287	7287	7287	0	0	0	0	0	0	0	0	0	0	0	0	0	0	0	0	8146	8146	8146	8146	8146	7959	8146	7959	8146	8146	8146	8146	0	0	0	0	0	7959	8343	8343	8343	8146	8146	8343	8343	8343	8343	8146	8146	8343	8146	8146	8146	8146	8146	8146	8146	8146	8146	8146	8146	8146	8146	8146	8146	8146	8146	8146	8343	8146	8146	8146	8146	8146	8146	8146	8146	8146	8146	7959	7959	0	0	3277	3277	3277	3277	3277	3277	3277	3277	3246	3277	3246	3246	3277	3277	3309	3341	3341	3341	3341	3309	3309	3309	3277	3277	3246	3246	3246	3246	3246	3246	3246	3246	3246	3246	3246	3246	3216	3216	3216	3216	3216	3216	3216	3216	3216	3216	3216	3246	3246	3246	3246	3246	3246	3246	3246	3277	3277	3277	3277	3277	3277	3309	3309	3309	3341	3341	3373	3373	3373	3373	3341	3341	3309	3309	3309	3309	3309	3309	3309	3309	3309	3309	3309	7444	7779	7959	8146	8146	8146	8146	8550	8550	8550	8550	8550	8550	8343	8343	8343	8343	8343	8343	8343	8343	8550	8550	8550	8550	8550	8550	8550	8550	8343	8343	8343	8343	8343	8550	8550	8550	8550	8343	8343	8343	8343	8343	8343	8146	8146	8343	8343	8343	8146	8146	7959	7959	8146	8146	8146	8146	8146	8146	8146	8146	8146	8146	8146	8146	8146	8343	8146	8146	8146	8146	8146	8146	8146	8343	8343	8343	8343	8343	8343	8343	8550	8343	8343	8343	8343	8146	8146	8146	8146	8343	8343	8343	8343	8343	8343	8343	8343	8146	8146	8146	8146	8146	8146	8146	8146	8146	8146	8146	8146	8146	8146	8146	8146	8146	8146	8146	8146	8146	8146	8146	8146	8146	8146	8146	8146	8146	8146	8146	8146	8146	8146	8146	8146	8146	8146	8146	8146	8146	8146	8146	8146	7959	7959	7959	7959	7959	7959	7959	7959	7959	7959	7959	8146	8343	8343	8146	8343	8146	8146	8146	8146	8146	8146	8146	8146	8146	8146	8146	8146	8146	8146	8146	7959	8146	7959	8146	7959	8146	8146	8146	8146	8146	8146	8146	8146	8146	8146	8146	8146	8146	8146	8146	8146	8146	8146	8146	8146	8146	8146	8146	8146	8146	8146	8146	7959	7959	7959	7959	8146	8146	8146	8146	8146	8146	8146	8146	8146	8146	8146	8146	8146	8146	8146	8146	8146	8146	8146	8343	8550	8343	8550	8550	8550	8550	8550	8550	8343	8343	8343	8146	8343	8146	8343	8343	8343	8550	8343	8343	8343	8343	8550	8343	8343	8550	8343	8343	8343	8343	8343	8343	8550	8550	8343	8343	8343	8343	8343	8343	8343	8343	8343	8343	8343	8343	8146	8343	8343	8343	8343	8343	8343	8343	8343	8343	8343	8146	8146	8343	8343	0	0	0	0	0	0	0	0	0	0	0	0	0	0	0	0	0	0	0	0	0	0	0	0	0	0	0	0	0	0	0	0	0	0	0	0	0	0	0	0	0
0	0	772	775	777	777	786	788	791	793	797	798	798	800	802	810	810	815	815	817	819	819	823	823	825	827	831	839	845	845	848	850	852	854	856	856	858	871	873	873	878	880	882	887	891	894	896	898	903	905	908	910	913	917	917	937	940	940	940	942	945	948	950	955	958	961	969	972	980	983	985	988	994	997	1000	1006	1011	1014	1017	1023	1030	1030	1039	1042	1045	1052	1061	1068	1071	1074	1078	1081	1085	1085	1088	1095	1102	1102	1109	1113	1113	1113	1113	1113	1113	0	0	0	0	0	0	0	0	6235	6235	6235	6235	6235	6235	6235	6349	6349	6349	6349	6349	6349	6349	0	0	0	0	0	0	6992	6992	6992	6992	6992	6992	6992	6853	6992	7137	7137	7287	7287	7287	0	0	0	0	0	0	0	0	0	0	0	0	0	0	0	0	8146	8146	8146	8146	8146	7959	8146	8146	8343	8343	8146	8146	8146	8343	8343	8343	7959	7959	8343	8343	8343	8343	8146	8343	8550	8343	8343	8343	8146	8343	8146	8146	8146	8146	8146	8146	8343	8343	8343	8146	8146	8146	8343	8146	8146	8146	8146	8343	8343	8146	8146	8146	8146	8146	8146	8146	8146	8146	8146	8146	8146	0	0	3277	3277	3277	3277	3277	3277	3277	3277	3246	3246	3246	3277	3277	3277	3277	3277	3309	3309	3309	3277	3277	3277	3277	3277	3277	3246	3246	3246	3246	3246	3246	3246	3246	3246	3246	3216	3246	3246	3216	3216	3216	3186	3216	3216	3216	3216	3216	3246	3216	3246	3246	3246	3246	3246	3246	3277	3277	3277	3277	3309	3277	3309	3309	3341	3341	3373	3373	3373	3373	3373	3341	3309	3309	3309	3309	3309	3309	3309	3341	3309	3309	3309	0	7608	7779	7959	8146	8146	8146	8146	8550	8550	8550	8550	8343	8343	8343	8343	8343	8343	8343	8343	8550	8343	8550	8550	8343	8343	8343	8343	8550	8550	8550	8343	8343	8343	8343	8550	8550	8550	8550	8550	8550	8343	8343	8343	8146	8146	8146	8146	8146	8146	8146	8146	8146	8146	8146	8146	8146	8146	8146	8146	8146	8146	8146	8146	8146	8146	8146	8146	8146	8146	8146	8146	8146	8146	8146	8146	8146	8146	8146	8146	8146	8146	8550	8343	8343	8343	8343	8146	8146	8146	8146	8343	8343	8146	8146	8343	8343	8343	8343	8146	8146	8146	8146	8146	8146	8146	8146	8146	8146	8146	8146	8146	8146	8146	8146	8146	8146	8146	8146	8146	8146	8146	8146	8146	8146	8146	8146	8146	8146	8146	8146	8146	8146	8146	8146	8146	8146	8146	8146	8146	8146	8146	7959	7959	7959	7959	7959	7959	7959	7959	7959	7959	7959	7959	7959	8146	8343	8146	8343	8146	8146	8146	8146	8146	8146	8146	8146	8146	8146	8146	8146	8343	8343	8343	8343	8146	8146	8146	8146	8146	8146	8146	8343	8343	8146	8146	8146	8146	8146	8146	8146	8343	8146	8146	8146	8146	8146	8146	8146	8146	8146	8146	8146	8146	8146	8343	7959	7959	7959	8146	8146	7959	7959	8146	8146	8146	8146	8146	8146	8146	8146	8146	8146	8146	8146	8146	8146	8146	8146	8343	8343	8343	8343	8550	8550	8550	8550	8550	8550	8343	8343	8343	8550	8146	8343	8343	8343	8550	8550	8550	8343	8343	8767	8343	8343	8550	8550	8343	8343	8343	8343	8343	8343	8343	8343	8343	8343	8343	8146	8343	8146	8146	8146	8343	8146	8146	8146	8343	8343	8343	8343	8343	8343	8343	8343	8343	8343	8343	8146	7959	7959	7959	0	0	0	0	0	0	0	0	0	0	0	0	0	0	0	0	0	0	0	0	0	0	0	0	0	0	0	0	0	0	0	0	0	0	0	0	0	0	0	0
0	0	772	775	775	775	784	786	791	795	798	800	802	804	806	810	810	815	815	817	819	819	823	823	825	829	833	841	843	845	848	850	852	854	856	856	856	869	873	875	880	880	882	887	889	894	896	894	901	901	905	908	910	917	917	937	940	940	940	942	945	950	953	955	961	961	966	972	977	983	983	985	991	994	1000	1003	1011	1011	1011	1017	1017	1030	1039	1045	1048	1055	1061	1064	1071	1074	1078	1081	1085	1085	1088	1098	1102	1105	1109	1113	1113	1113	1113	1113	1113	0	0	0	0	0	0	0	0	6235	6235	6235	6235	6349	6235	6235	6349	6349	6349	6349	6235	6235	0	0	0	0	0	0	0	0	6992	6992	6992	6992	6992	6992	6853	6992	7137	7137	7137	7287	7287	0	0	0	0	0	0	0	0	0	0	0	0	0	0	0	7959	7959	8146	8146	8146	8146	8146	8146	8146	8146	8343	8146	8146	8146	8146	8146	8146	8146	8146	8343	8343	8343	8146	8146	8343	8550	8343	8343	8343	8343	8343	8146	8146	8146	8146	8146	8146	8146	8343	8343	8146	8146	8146	8343	8146	8343	8146	8146	8343	8343	8146	8146	8146	8146	8146	8146	8146	8146	8146	8146	8146	8146	0	0	3277	3277	3277	3277	3277	3277	3277	3246	3246	3246	3246	3246	3277	3277	3277	3309	3309	3309	3309	3277	3277	3277	3277	3277	3277	3277	3277	3246	3246	3246	3216	3216	3246	3216	3216	3216	3246	3216	3216	3246	3216	3216	3216	3216	3216	3216	3216	3246	3216	3216	3246	3246	3246	3277	3277	3277	3277	3277	3309	3309	3277	3309	3309	3341	3341	3341	3341	3341	3341	3341	3341	3309	3341	3309	3309	3309	3309	3309	3309	3309	3309	3309	0	7779	7779	7779	8146	8146	8343	8343	8550	8550	8550	8550	8550	8550	8343	8343	8343	8550	8550	8550	8550	8550	8550	8550	8343	8343	8343	8343	8343	8550	8550	8343	8343	8343	8343	8343	8550	8343	8343	8550	8550	8343	8343	8343	8146	8146	8146	8146	8146	8146	8146	8146	8146	8146	7959	8146	8146	8343	8343	8146	8146	8146	8343	8146	8146	8146	8146	8146	8146	8146	8343	8146	8146	8146	8146	8146	8146	8146	8146	8146	8146	8146	8550	8343	8343	8343	8343	8146	8146	8146	8146	8146	8343	8343	8343	8343	8343	8343	8343	8146	8146	8146	8146	8146	8146	8146	8343	8343	8146	8146	8146	8146	8146	8146	8146	8146	8146	8146	8146	8146	8146	8146	8146	8146	8146	8146	8146	8146	8146	8146	8146	8146	8146	8146	8146	8146	8146	8146	8146	8146	8146	7959	7959	7959	7959	7959	7959	7959	7959	7959	7959	7959	7959	7959	7959	8146	8343	8146	8343	8146	8146	8343	8146	8146	8146	8146	8146	8146	8146	8146	8146	8343	8343	8343	8343	8146	8146	8146	8146	8146	8146	8146	8343	8343	8343	8146	8146	8146	8146	8146	8146	8146	8146	8146	8146	8146	8146	8146	8146	8146	8146	8146	8146	8146	8146	8343	8146	7959	7959	7959	7959	7959	8146	8146	8146	8146	8146	8146	8146	8146	8146	8146	8146	8146	8146	8146	8146	8146	8146	8343	8343	8343	8343	8343	8343	8343	8550	8550	8550	8343	8550	8550	8550	8343	8343	8343	8343	8550	8550	8550	8343	8550	8550	8550	8550	8550	8343	8343	8343	8343	8343	8343	8343	8343	8343	8343	8343	8343	8343	8146	8146	8146	8146	8146	8146	8146	8146	8146	8343	8343	8343	8343	8343	8343	8343	8343	8343	8343	7959	7959	7959	7959	0	0	0	0	0	0	0	0	0	0	0	0	0	0	0	0	0	0	0	0	0	0	0	0	0	0	0	0	0	0	0	0	0	0	0	0	0	0	0	0
0	0	772	773	775	775	784	786	793	798	800	802	804	806	808	810	812	815	817	817	819	819	823	823	825	829	833	839	841	845	845	850	852	854	856	856	856	871	873	878	880	880	882	884	889	891	894	894	896	901	901	908	910	917	920	937	937	940	942	942	945	950	953	955	958	961	966	969	974	980	980	985	985	997	1000	1003	1011	1014	1014	1017	1026	1026	1039	1042	1048	1058	1061	1064	1068	1071	1074	1081	1085	1088	1095	1098	1102	1105	1109	1113	1113	1113	1113	1113	0	0	0	0	0	0	0	0	0	6235	6235	6349	6235	6235	6235	6235	6349	6349	6349	6349	6349	6349	6349	0	0	0	0	0	0	0	0	6853	6992	6992	6992	6992	6853	6992	7137	7137	7137	7287	7287	0	0	0	0	0	0	0	0	0	0	0	0	0	7959	7959	7959	7959	8146	8146	8146	8146	8146	8146	8146	8343	8343	8146	8146	8146	8343	8146	8146	8146	8146	8146	8146	8146	8146	8146	8343	8343	8343	8343	8343	8146	8146	8146	8146	8146	8146	8146	8146	8146	8343	8343	8146	8146	8146	8343	8146	8343	8146	8146	8146	8146	8146	8146	8146	8146	8146	8146	8146	8146	8146	8146	8146	8146	8146	0	3309	3277	3277	3277	3277	3277	3277	3246	3246	3246	3246	3246	3277	3277	3277	3309	3309	3309	3309	3277	3277	3277	3277	3277	3246	3277	3277	3246	3246	3246	3246	3216	3246	3216	3216	3246	3246	3246	3246	3246	3216	3216	3216	3246	3216	3216	3246	3246	3246	3246	3246	3246	3246	3277	3277	3277	3277	3277	3277	3277	3309	3309	3309	3309	3341	3341	3341	3341	3341	3373	3373	3341	3341	3309	3309	3309	3309	3309	3309	3309	3309	3309	0	7779	7779	7959	7959	8146	8146	8146	8146	8343	8343	8550	8343	8343	8343	8343	8343	8550	8550	8550	8550	8550	8550	8550	8550	8550	8343	8550	8343	8550	8343	8343	8343	8343	8343	8550	8550	8343	8343	8550	8550	8343	8146	8146	8343	8343	8146	8343	8343	8343	8146	8146	8146	8146	7959	8146	8146	8343	8343	8146	8146	8343	8343	8343	8343	8146	8146	8343	8146	8146	8343	8146	8146	8146	8146	8146	8146	8146	8146	8146	8343	8146	8343	8343	8343	8343	8343	8146	8146	8146	8146	8343	8343	8343	8343	8343	8343	8343	8343	8146	8146	8146	8146	8146	8146	8343	8343	8343	8146	8146	8146	8343	8146	8146	8146	8146	8146	8146	8146	8146	8146	8146	8146	8146	8146	7959	8146	8146	8146	8146	8146	8146	8146	8146	8146	7959	8146	8146	8146	8146	8146	7959	7959	7959	7959	7959	7959	7959	7959	7959	7959	7959	7959	7959	8146	8146	8146	8146	8343	8146	8146	8146	8146	8146	8146	8146	8146	8146	8146	8146	8146	8146	8343	8343	8146	8146	8146	8146	8343	8343	8343	8343	8343	8343	8343	8146	8146	8146	7959	7959	7959	7959	7959	7959	8146	8146	7959	7959	7959	8146	8146	8343	8146	8146	8343	8343	8146	7959	7959	7959	7959	7959	7959	8146	8146	8146	8146	8146	8146	8146	8146	8146	8146	8146	8146	7959	7959	8146	8146	8343	8343	8343	8343	8343	8550	8550	8550	8550	8550	8550	8550	8550	8550	8343	8343	8343	8550	8550	8343	8343	8343	8550	8550	8550	8550	8550	8550	8343	8343	8343	8343	8343	8343	8343	8343	8343	8343	8343	8343	8343	8343	8343	8146	8343	8146	8146	8343	8343	8343	8343	8343	8343	8343	8343	8343	8343	8343	8343	7959	7959	7959	7959	0	0	0	0	0	0	0	0	0	0	0	0	0	0	0	0	0	0	0	0	0	0	0	0	0	0	0	0	0	0	0	0	0	0	0	0	0	0	0	0
0	0	772	772	773	773	773	773	773	804	804	804	808	810	810	814	814	815	817	819	821	821	823	825	827	829	833	839	841	845	848	850	854	854	856	856	856	869	871	878	880	882	882	887	889	891	894	894	898	901	905	908	913	920	922	935	935	937	937	945	948	950	950	955	958	961	966	969	972	980	983	985	994	997	997	1003	1014	1014	1014	1017	1023	1023	1036	1042	1052	1058	1061	1064	1068	1071	1071	1074	1081	1085	1098	1102	1102	1105	1109	1113	1113	1113	1113	1113	0	0	0	0	0	0	0	0	6235	6235	6235	6235	6235	6235	6235	6235	6235	6235	6349	6349	6349	6468	6468	0	0	0	0	0	0	0	0	6853	6992	6853	6992	6992	6853	7137	7137	7287	7287	7287	7287	0	0	0	0	0	0	0	0	0	0	0	8146	8146	7959	8146	8146	8146	8146	8146	8146	8146	8146	8146	8146	8343	8343	8146	8146	8146	8146	8146	8146	8146	8146	8146	8146	8146	8146	8146	8343	8550	8343	8343	8343	8343	8146	8146	8146	8146	8146	8146	8146	8146	8146	8146	8146	8146	8146	8146	8146	8343	8146	8146	8146	8146	8146	8146	8146	8146	8146	8146	8146	8146	8146	8146	8146	8146	8146	0	3277	3277	3277	3277	3277	3277	3246	3246	3246	3277	3246	3246	3277	3277	3277	3309	3309	3309	3277	3277	3277	3277	3277	3277	3246	3246	3246	3277	3246	3246	3246	3216	3246	3216	3216	3246	3246	3216	3246	3246	3216	3216	3216	3216	3216	3216	3216	3246	3246	3246	3216	3246	3246	3246	3277	3277	3277	3277	3277	3277	3277	3309	3309	3341	3341	3309	3341	3341	3341	3341	3341	3341	3309	3309	3309	3309	3309	3309	3309	3309	3277	3277	0	7959	7959	7959	7959	8146	8146	8146	8146	8343	8343	8343	8343	8343	8343	8343	8343	8550	8550	8550	8550	8550	8550	8343	8343	8343	8343	8343	8343	8343	8343	8343	8343	8343	8343	8550	8550	8343	8550	8550	8550	8343	8146	8146	8146	8146	8146	8146	8343	8146	8146	8146	7959	7959	7959	8146	8146	8343	8146	8146	8146	8343	8343	8146	8146	8146	8343	8343	8146	8146	8343	8343	8146	8146	8146	8146	8146	8146	8146	8146	8146	8146	8146	8343	8343	8343	8343	8343	8343	8343	8343	8343	8343	8343	8343	8343	8343	8343	8343	8146	8146	8146	8146	8146	8146	8146	8146	8146	8146	8343	8343	8343	8146	8146	8146	8146	8146	8146	8146	8146	8146	8146	8146	7959	7959	7959	8146	8146	8146	8146	8146	8146	8146	8146	8146	7959	8146	8146	8146	8146	8146	7959	7959	7959	7959	7959	7959	7959	7959	7959	7959	7959	7959	7959	7959	8146	8146	8146	8343	8146	8146	8343	8146	8146	8146	8146	8146	8146	8146	8146	8146	8146	8146	8146	8146	8146	8146	8146	8343	8343	8343	8343	8343	8343	8343	8146	8146	8146	7959	7959	7959	7959	7959	7959	8146	8146	8146	7959	8146	8146	8146	8343	8146	8146	8146	8146	8146	7959	8146	7959	7959	7959	8146	8146	8146	8146	8146	8146	8146	8146	8146	8146	8146	8146	8146	8146	8343	8343	8343	8550	8550	8550	8343	8343	8343	8550	8550	8550	8550	8550	8550	8550	8550	8343	8343	8550	8550	8550	8343	8343	8343	8343	8550	8550	8550	8550	8550	8343	8550	8343	8343	8343	8343	8343	8343	8343	8550	8343	8343	8343	8343	8343	8146	8146	8146	8343	8343	8343	8343	8343	8343	8343	8343	8343	8343	8146	8146	7959	7779	7959	7959	7959	0	0	0	0	0	0	0	0	0	0	0	0	0	0	0	0	0	0	0	0	0	0	0	0	0	0	0	0	0	0	0	0	0	0	0	0	0	0	0	0
0	0	772	773	775	775	775	775	804	806	806	806	808	808	810	812	814	817	817	817	819	821	823	825	827	829	831	837	839	841	848	852	854	854	854	854	856	869	871	878	880	882	882	887	889	891	894	894	898	903	905	908	910	913	917	917	932	937	937	942	948	953	955	958	958	961	963	966	972	980	983	988	994	997	997	1000	1006	1014	1017	1017	1020	1026	1036	1042	1048	1058	1058	1064	1064	1068	1068	1071	1085	1091	1098	1098	1102	1105	1109	1113	1113	1113	1113	0	0	0	0	0	0	0	0	0	6235	6235	6235	6349	6235	6349	6235	6235	6235	6235	6235	6349	6468	6592	6592	0	0	0	0	0	0	0	0	0	6992	6853	6992	6992	7137	7137	7137	7287	7137	7287	7287	0	0	0	0	0	0	0	0	0	7959	8146	8146	8146	8146	8146	8146	8146	8146	8146	8146	8146	8146	8146	8146	8343	8343	8146	8146	8146	8146	8343	8146	8146	8146	8146	8146	8146	8146	8343	8343	8343	8343	8343	8343	8343	8146	8146	8146	8146	8146	8146	8146	8146	8146	8146	8146	8146	8146	8146	8146	8146	8146	8146	8146	8146	8146	8146	8146	8146	8146	8146	8146	8146	8146	8146	8146	8146	0	0	3277	3277	3277	3277	3277	3277	3277	3277	3277	3246	3246	3277	3277	3277	3277	3309	3309	3309	3277	3277	3277	3277	3277	3246	3246	3246	3246	3277	3246	3246	3246	3246	3246	3246	3216	3246	3246	3246	3246	3246	3216	3216	3246	3246	3216	3216	3216	3246	3246	3246	3216	3216	3246	3246	3246	3246	3246	3277	3277	3277	3277	3277	3309	3309	3309	3309	3309	3309	3341	3341	3341	3341	3341	3309	3309	3309	3309	3309	3309	3309	3309	3309	0	7959	8146	8146	8146	8146	8146	7959	8343	8343	8343	8343	8343	8550	8550	8550	8550	8550	8550	8550	8550	8550	8550	8343	8343	8343	8343	8343	8343	8343	8343	8343	8343	8343	8343	8550	8550	8343	8550	8550	8550	8343	8146	8146	8146	8146	8146	8146	8343	8343	8146	8146	8146	8146	8146	8146	8146	8146	8146	8146	8146	8146	8343	8146	8146	8146	8146	8343	8146	8146	8343	8343	8146	8146	8146	8146	8146	7959	7959	7959	7959	8146	8343	8343	8146	8343	8343	8146	8146	8146	8343	8343	8343	8343	8146	8146	8146	8146	8146	8146	8146	8146	8146	8146	8146	8146	8146	8146	8146	8146	8146	8343	8146	8146	8146	8146	8146	8146	8146	8146	8146	8146	8146	7959	7959	7959	7959	7959	8146	8146	8146	8146	8146	8146	8146	7959	8146	8146	8146	8146	8146	8146	7959	7959	7959	7959	7959	7959	7959	7959	7959	7959	7959	7959	7959	8146	8146	8146	8146	8146	8146	8146	8146	8146	8146	8146	8146	8146	8146	8146	8146	8146	8146	8146	8146	8146	8146	8146	8343	8343	8343	8343	8343	8343	8343	8146	8146	8146	8146	7959	7959	7959	7959	8146	8146	8146	8146	8146	8146	8146	8146	8146	8146	8146	8146	7959	8146	7959	7959	7959	7959	7959	8146	8146	8146	8146	8146	8146	8146	8146	7959	7959	8146	8146	8146	8146	8343	8343	8343	8550	8343	8550	8343	8343	8550	8550	8343	8343	8550	8550	8550	8550	8550	8550	8550	8550	8550	8550	8343	8550	8343	8550	8550	8550	8550	8550	8550	8343	8550	8550	8343	8343	8343	8343	8343	8343	8343	8343	8146	8343	8343	8343	8343	8146	8146	8146	8343	8343	8343	8343	8343	8343	8343	8343	8343	8146	7959	7959	7779	7779	7959	7959	0	0	0	0	0	0	0	0	0	0	0	0	0	0	0	0	0	0	0	0	0	0	0	0	0	0	0	0	0	0	0	0	0	0	0	0	0	0	0	0
0	0	0	773	773	773	773	773	804	804	808	806	808	810	810	812	814	815	815	817	817	819	823	827	829	829	831	835	837	839	852	852	854	854	856	856	856	869	871	878	878	880	880	882	889	891	894	894	898	901	903	905	910	913	917	932	932	935	937	942	948	950	955	958	958	961	963	963	972	977	983	988	994	994	997	1000	1011	1014	1017	1017	1020	1023	1036	1042	1048	1058	1061	1064	1064	1068	1068	1071	1081	1088	1095	1098	1102	1102	1109	1113	1113	1116	1116	0	0	0	0	0	0	0	0	0	6235	6235	6235	6235	6235	6349	6235	6235	6349	6349	6349	6349	6592	6592	6592	0	0	0	0	0	0	0	0	0	6992	6992	6992	6992	7137	7137	7137	7137	7137	7137	7137	0	0	0	0	0	0	0	0	0	7959	8146	7959	8146	8146	8146	8146	8146	8146	8146	8146	8146	8146	8146	8146	8343	8343	8146	8146	8146	8146	8146	8146	8146	8146	8146	8146	8146	8146	8343	8343	8343	8343	8343	8343	8146	8146	8146	8146	8146	8146	8146	8146	8146	8146	8146	8146	8146	8146	8146	8146	8146	8146	8146	8146	8146	8146	8146	8146	8146	8146	8146	8146	8146	8146	8146	8146	8146	0	0	0	3309	3277	3277	3277	3277	3277	3277	3277	3246	3277	3277	3277	3277	3277	3309	3309	3309	3277	3277	3277	3277	3277	3246	3246	3246	3246	3246	3246	3246	3246	3246	3246	3246	3246	3246	3246	3246	3246	3246	3216	3216	3216	3246	3216	3216	3216	3246	3216	3216	3216	3216	3246	3246	3246	3246	3246	3277	3277	3277	3277	3277	3309	3309	3309	3309	3309	3341	3341	3341	3341	3341	3309	3309	3309	3309	3309	3309	3309	3309	3309	3309	0	8146	8146	8146	8146	8146	8146	8146	8146	8343	8343	8343	8343	8550	8550	8343	8550	8550	8550	8550	8550	8550	8550	8343	8343	8343	8343	8343	8343	8343	8343	8343	8343	8343	8343	8343	8343	8343	8343	8550	8550	8343	8146	8146	8146	8146	8146	8146	8146	8146	8146	8146	8146	8146	8146	8146	8146	8146	8146	8146	7959	8146	8146	8146	8146	8146	8343	8343	8146	8146	8343	8146	8146	8146	8146	8146	8146	7959	7959	7959	8146	8146	8146	8146	8146	8343	8343	8343	8343	8343	8343	8343	8343	8343	8343	8343	8343	8146	8146	8146	8146	8146	8146	8146	8146	8146	8146	8146	7959	8146	8146	8146	8146	8146	8146	8146	8146	8146	8146	8146	8146	8146	8146	8146	7959	8146	8146	8146	8146	7959	8146	8146	7959	8146	8146	7959	8146	8146	8146	8146	8146	8146	7959	7959	7959	7959	7959	7959	7959	7959	7959	7959	7779	7959	7779	7959	7959	7959	8146	8146	8146	8146	8146	8146	8146	8146	8146	8146	8146	8146	8146	8146	8146	8146	8146	8146	8146	8146	8343	8343	8343	8343	8343	8343	8343	8146	8146	8146	8146	7779	7779	7779	7959	7959	7959	7959	7959	8146	8146	8146	8146	8146	8146	8146	8146	8146	8146	7959	8146	8146	8146	8146	8146	8343	8343	8343	8146	8146	8146	8146	7959	7959	8146	8146	8146	8146	8343	8343	8343	8550	8343	8550	8343	8343	8550	8550	8550	8343	8343	8550	8550	8550	8550	8550	8550	8550	8550	8550	8550	8343	8550	8550	8550	8550	8550	8550	8550	8550	8550	8550	8343	8343	8343	8343	8343	8343	8343	8343	8146	8343	8146	8343	7959	8146	7959	8146	8146	8343	8343	8343	8343	8343	8343	8343	8343	8146	8146	7959	7959	8146	8146	8146	0	0	0	0	0	0	0	0	0	0	0	0	0	0	0	0	0	0	0	0	0	0	0	0	0	0	0	0	0	0	0	0	0	0	0	0	0	0	0	0
0	0	0	773	773	773	773	773	0	806	808	806	808	810	810	812	814	815	815	815	817	819	823	827	829	829	831	837	839	839	848	852	854	854	856	856	862	869	873	875	875	875	880	882	889	894	894	896	898	903	903	908	910	915	925	932	932	935	937	942	948	955	955	958	958	961	963	966	972	977	983	988	991	994	997	997	1011	1006	1017	1020	1020	1026	1036	1039	1045	1055	1058	1064	1064	1068	1068	1071	1074	1088	1098	1102	1102	1105	1109	1113	1113	1113	1113	0	0	0	0	0	0	0	0	0	6235	6235	6349	6349	6235	6349	6235	6349	6349	6349	6235	6235	6592	6592	6592	0	0	0	0	0	0	0	0	0	6992	6992	7137	7137	7137	7137	7137	7137	7137	7137	7137	0	0	0	0	0	0	0	0	0	7959	7959	7959	7959	7959	7959	8146	8146	8146	8146	8146	8146	7959	8146	8146	8343	8343	8146	8146	8146	8343	8343	8146	8146	8146	8146	8146	8146	8146	8146	8146	8146	8146	8146	8146	8146	8146	8146	8146	8146	8146	8146	8146	8146	8146	8146	8146	8146	8146	8146	8146	8146	8146	8146	8146	8146	8146	8146	8146	8146	8146	8146	8146	8146	8146	8146	8146	8146	0	0	3341	3309	3277	3277	3277	3277	3277	3277	3277	3246	3277	3277	3277	3277	3277	3309	3309	3277	3277	3277	3277	3277	3246	3246	3246	3246	3246	3246	3246	3246	3246	3246	3246	3246	3246	3246	3246	3246	3246	3246	3216	3216	3216	3216	3186	3186	3216	3216	3216	3216	3216	3216	3246	3246	3246	3246	3246	3277	3277	3277	3277	3277	3309	3309	3309	3309	3309	3309	3309	3341	3341	3341	3341	3309	3309	3309	3309	3309	3309	3309	3309	3277	3277	8146	8146	8146	8146	8343	8146	8146	8343	8343	8343	8343	8343	8550	8550	8550	8550	8550	8550	8550	8550	8343	8343	8343	8343	8343	8343	8343	8343	8343	8343	8343	8343	8343	8343	8343	8343	8343	8343	8550	8550	8343	8343	8146	8146	8146	8146	8146	8146	8343	8146	8146	8146	8146	8146	8146	8146	8146	8146	8146	8146	8146	8146	8146	8146	8343	8343	8343	8146	8343	8343	8146	8146	8343	8146	8146	8146	7959	7959	8146	8146	8146	8343	8146	8146	8146	8343	8146	8146	8146	8343	8343	8343	8343	8343	8343	8343	8343	8343	8146	8146	8146	8146	8146	8146	8146	8146	7959	7959	8146	7959	8146	8146	8146	8146	8146	8146	8146	8146	8146	8146	8146	8146	7959	7959	7959	7959	7959	7959	7959	7959	7959	7959	7959	7959	7959	8146	8146	8146	8146	8146	8146	7959	7959	7959	7959	7959	7959	7959	7959	7959	7779	7779	7779	7779	7959	7959	7959	8146	7959	7959	8146	8146	8146	8146	8146	8146	8146	8146	7959	7959	7608	7608	8146	8146	8146	8146	8343	8343	8343	8343	8343	8343	8343	8343	8146	7959	7959	7608	7608	7608	7608	7608	7779	7779	7779	7779	7959	8146	8146	8146	8146	8146	8146	8146	8146	8146	8146	8146	8146	8146	8146	8146	8343	8343	8343	8343	8343	8146	8146	8146	8146	8146	8146	8146	8146	8146	8146	8146	8343	8343	8343	8343	8343	8550	8550	8550	8343	8550	8550	8550	8550	8550	8550	8343	8343	8550	8343	8550	8550	8550	8550	8550	8550	8550	8550	8550	8343	8343	8343	8343	8146	8146	8343	8550	8343	8343	8343	8343	8343	8146	8146	8146	8146	8146	8146	8146	8343	8343	8343	8343	8550	8343	8343	8146	8146	7959	7779	7779	8146	8343	8343	0	0	0	0	0	0	0	0	0	0	0	0	0	0	0	0	0	0	0	0	0	0	0	0	0	0	0	0	0	0	0	0	0	0	0	0	0	0	0	0
0	0	0	775	775	773	773	0	0	808	808	806	808	808	810	812	814	815	815	817	817	819	823	827	829	831	831	837	839	843	845	848	852	852	856	858	865	867	871	873	875	875	880	882	889	896	896	898	901	903	905	910	913	917	927	932	932	935	940	942	948	953	955	955	955	961	963	966	972	980	983	988	991	994	994	997	1011	1014	1017	1020	1023	1030	1036	1039	1045	1055	1058	1061	1064	1068	1068	1071	1071	1088	1098	1102	1102	1105	1109	1113	1109	1109	1109	0	0	0	0	0	0	0	0	0	0	6235	6349	6349	6349	6349	6349	6349	6349	6349	6235	6235	6349	6468	6468	0	0	0	0	0	0	0	0	6853	6992	6992	7137	7137	7137	7137	7137	7287	7287	0	0	0	0	0	0	0	0	0	0	0	0	7959	7959	7959	7959	7959	8146	8146	8146	8146	8146	8146	7959	8146	8146	8343	8146	8146	8146	8146	8146	8146	8146	8146	8146	8146	8146	8146	8146	8146	8146	8146	8146	8146	8146	8146	8146	8146	8146	8343	8343	8146	8146	8146	8146	8146	8146	8146	8146	8146	8146	8146	8146	8146	8146	7959	7959	7959	7959	7959	7959	8146	8146	8146	8343	8343	8343	8343	0	0	3373	3309	3277	3277	3277	3277	3246	3246	3246	3246	3277	3277	3277	3277	3277	3309	3309	3277	3277	3277	3277	3277	3277	3277	3246	3246	3246	3246	3246	3246	3246	3246	3246	3246	3246	3246	3246	3246	3246	3216	3216	3216	3246	3216	3216	3216	3216	3216	3216	3216	3216	3246	3246	3246	3246	3246	3246	3277	3277	3277	3277	3277	3277	3309	3309	3309	3309	3309	3309	3341	3341	3341	3341	3309	3309	3309	3309	3309	3309	3309	3309	3277	3277	0	8146	8146	8146	8343	8146	8146	8146	8343	8343	8343	8343	8343	8550	8550	8550	8550	8550	8550	8550	8550	8550	8550	8550	8343	8550	8550	8550	8343	8343	8343	8343	8146	8343	8343	8343	8343	8343	8550	8550	8343	8343	8146	8146	7959	7959	8146	8146	8343	8146	8146	8146	8343	8146	8343	8343	8343	8146	8146	8146	8146	8146	8146	8146	8343	8343	8343	8146	8343	8550	8343	8146	8343	8146	8146	8146	8146	8146	8146	8146	8146	8343	8146	8146	8146	8146	8343	8146	8146	8343	8343	8343	8343	8343	8550	8550	8343	8343	8343	8343	8146	8146	8146	7959	8146	8146	7959	8146	8146	8146	8146	8146	7959	7959	7959	8146	8146	8146	8146	7959	8146	8146	7959	7959	7959	8146	8146	8146	7959	7959	7959	7959	7959	7959	7959	7959	7959	7959	7959	7959	7959	7959	7959	7959	7959	7959	7959	7959	7959	7959	7779	7779	7779	7779	7959	7959	7779	7779	7608	7608	7959	8146	8146	8343	8146	8146	8146	4771	4706	4706	4771	4771	4771	8146	8146	8146	8146	8343	8343	8146	8146	8146	7959	7959	7959	7959	7608	7608	7444	7444	7444	7608	7608	7779	7779	7779	7959	8146	8146	8146	7959	7959	7959	7959	7959	8146	7959	8146	8146	8146	8146	8146	8343	8343	8343	8343	8343	8146	8146	8146	8146	8146	8146	8146	8146	8146	8146	8146	8343	8343	8343	8343	8343	8343	8550	8550	8343	8343	8550	8550	8550	8550	8343	8343	8550	8343	8343	8343	8343	8550	8550	8550	8550	8767	8550	8550	8550	8343	8343	8343	8343	8343	8343	8343	8343	8343	8343	8343	8343	8146	8146	7959	7959	7959	7959	8146	8146	8343	8343	8343	8343	8343	8146	8146	7959	7779	7779	7779	7959	7959	7959	0	0	0	0	0	0	0	0	0	0	0	0	0	0	0	0	0	0	0	0	0	0	0	0	0	0	0	0	0	0	0	0	0	0	0	0	0	0	0	0
0	0	0	779	779	0	0	0	0	808	806	806	808	810	810	812	814	815	815	815	817	817	825	827	827	831	837	837	839	843	848	848	854	856	858	862	865	869	869	873	873	873	873	882	889	896	901	901	905	905	908	910	913	915	920	925	935	937	942	945	948	950	955	955	955	961	963	969	974	983	985	988	991	994	994	997	1011	1014	1020	1023	1026	1030	1036	1039	1042	1052	1055	1061	1061	1064	1068	1068	1071	1085	1098	1105	1105	1105	1105	1109	1109	1109	1109	0	0	0	0	0	0	0	0	0	0	6349	6349	6349	6349	6349	6349	6349	6349	6349	6349	6349	6592	6592	6592	6720	0	0	0	0	0	0	0	6853	6853	6992	7137	7137	7287	7287	7287	7287	7287	0	0	0	0	0	0	0	0	0	0	0	0	0	7959	7779	7959	7959	8146	8146	8146	8146	8146	7959	7959	7959	7959	8146	8146	8146	8146	8146	8146	8146	8146	8146	8146	8146	8146	8146	8146	8146	8146	8146	8146	8146	8146	8146	8146	8146	8146	8146	8146	8146	8146	8146	8146	8146	8146	8146	8146	8146	8146	8146	8146	8146	8146	7959	7959	7959	7959	7959	7959	8146	8146	8146	8343	8343	8343	8343	0	0	3373	3277	3277	3277	3277	3277	3277	3277	3246	3246	3277	3277	3277	3277	3277	3309	3309	3277	3277	3277	3277	3277	3277	3277	3246	3246	3246	3246	3246	3246	3216	3246	3246	3246	3246	3216	3216	3246	3216	3216	3216	3216	3216	3216	3186	3186	3216	3216	3216	3216	3216	3216	3246	3246	3246	3246	3277	3277	3277	3277	3277	3277	3277	3309	3309	3309	3309	3309	3309	3309	3309	3309	3309	3309	3309	3309	3309	3309	3309	3309	3277	3277	3277	0	8146	8146	8343	8343	8343	8343	8146	8343	8343	8343	8343	8343	8550	8343	8550	8343	8550	8550	8343	8343	8343	8343	8550	8343	8550	8343	8550	8343	8343	8343	8343	8146	8343	8343	8343	8343	8550	8550	8550	8343	8343	8146	8146	7959	7959	7959	7959	8146	7959	8146	8146	8343	8343	8343	8343	8343	8343	8343	8343	8146	8146	8146	8146	8146	8146	8343	8343	8146	8343	8343	8343	8343	8343	8146	8146	8146	8146	8146	4706	4706	8146	8146	8146	8146	8146	8146	8146	8146	8146	8343	8343	8550	8550	8550	8550	8343	8343	8343	8343	8146	8146	8146	8146	7959	7959	7959	7959	7779	7779	7779	7779	7959	7959	7959	8146	8146	8146	8146	8146	8146	8146	8146	8146	8146	8146	8146	8146	8146	8146	8146	7959	7959	7959	7959	7959	7959	7959	7959	7959	8146	7959	7959	7959	7959	7959	7959	7959	7959	7959	7959	4838	4838	4838	7959	7608	7608	7608	7444	7608	7959	7959	4706	4706	4643	4643	4771	4771	4706	4706	4771	4771	4706	4706	4581	4581	4581	8146	4521	4581	4581	7959	7959	7959	4706	4706	4706	4706	4706	4706	4706	4771	4771	7608	7779	7779	7779	8146	7959	8146	8146	8146	7959	7959	7779	7959	7959	7959	7959	8146	8146	8146	8343	8343	8343	8343	8343	8343	8146	8146	8146	8146	7959	8146	8146	8146	8146	8146	8343	8343	8343	8343	8343	8343	8343	8343	8343	8343	8343	8343	8550	8550	8343	8343	8550	8550	8343	8343	8343	8550	8550	8550	8550	8550	8550	8550	8550	8343	8343	8343	8343	8343	8343	8343	8343	8343	8343	8343	8343	8146	8146	8146	7959	7959	7959	7959	8146	8146	8146	8343	8343	8343	8146	8146	7959	7959	7779	7959	8343	8146	8146	0	0	0	0	0	0	0	0	0	0	0	0	0	0	0	0	0	0	0	0	0	0	0	0	0	0	0	0	0	0	0	0	0	0	0	0	0	0	0	0
0	0	0	773	773	0	0	0	0	0	804	804	804	810	810	812	814	815	815	815	817	821	827	827	829	831	833	833	835	843	850	850	852	856	858	862	867	869	871	873	873	873	873	882	889	894	901	901	905	905	908	910	913	913	925	925	930	940	945	945	948	950	955	955	958	961	963	969	972	980	985	988	991	994	994	997	1011	1014	1020	1023	1026	1030	1036	1039	1045	1055	1055	1061	1061	1064	1068	1068	1074	1085	1095	1102	1105	1109	1109	1109	1109	1113	1113	1113	0	0	0	0	0	0	0	0	0	6349	6349	6349	6349	6349	6349	6349	6349	6349	6349	6349	6349	6592	6592	6720	0	0	0	0	0	0	0	6992	6992	6992	7137	7287	7287	7287	7287	7287	0	0	0	0	0	0	0	0	0	0	0	0	0	7608	7608	7779	7779	7959	7959	8146	8146	8146	8146	8146	7959	7959	7959	8146	8146	8146	8343	8146	8343	8146	8343	8343	8343	8146	8146	8146	8146	8146	8146	8146	8146	8146	8146	8146	8146	8146	8146	8146	8146	8146	8146	8146	8146	8146	8146	8146	8146	8146	8146	8146	8146	8146	7959	7959	7959	7959	7959	7959	7959	8146	8146	8343	8343	8343	8343	8343	8343	0	0	3277	3277	3277	3277	3277	3277	3277	3246	3246	3246	3277	3277	3277	3277	3309	3309	3309	3309	3309	3277	3277	3277	3277	3246	3246	3246	3246	3246	3246	3216	3216	3246	3246	3246	3246	3246	3216	3216	3216	3216	3216	3216	3186	3186	3186	3186	3216	3216	3216	3216	3216	3216	3216	3246	3246	3246	3277	3277	3277	3277	3277	3309	3309	3309	3309	3309	3309	3309	3309	3309	3309	3341	3309	3309	3309	3309	3309	3309	3309	3277	3277	3277	0	8343	8343	8343	8343	8343	8343	8343	8343	8343	8343	8343	8343	8550	8343	8550	8343	8550	8550	8550	8343	8550	8550	8550	8550	8550	8343	8550	8343	8343	8343	8146	7959	7959	8343	8550	8550	8550	8550	8550	8550	8343	8146	8146	8146	7959	7959	8146	8343	8146	8146	8343	8343	8343	8343	8343	8343	8146	8343	8146	8146	8146	4771	4838	4838	4838	4838	4838	8146	8343	8146	8146	8343	8343	8146	8146	4771	4771	4771	4771	4771	4771	4771	8146	8146	8146	8146	7959	4771	4706	4706	4771	4838	4838	8550	8550	8343	8343	8343	8343	8146	8146	4977	4838	4838	4771	4771	7444	7608	7444	7608	7779	7779	7779	7779	7959	8146	4643	4643	4643	8343	8343	8146	8146	8343	8343	8343	8343	8146	8146	8146	7959	7959	4521	4581	4521	4581	4581	4643	4643	7959	7959	7959	7959	7959	7959	7959	7959	7959	4771	4771	4771	4771	4838	4838	4838	7608	7608	7444	7608	4706	4706	4706	4706	4643	4706	4706	4706	4706	4706	4706	4706	4706	4706	4643	4643	4581	4581	4581	4581	4643	4643	4643	4643	4706	4706	4643	4643	4706	4706	4706	4771	4771	4771	4771	4771	4771	4771	8146	4706	4706	8146	8146	7959	7779	7959	8146	8146	8146	8146	8146	8146	8343	8343	8343	8343	8343	8146	7959	7959	7959	8146	7959	8146	8146	8146	8146	8146	8343	8343	8343	8343	8343	8343	8343	8343	8343	8343	8550	8343	8343	8343	8343	8343	8550	8343	8343	8343	8343	8550	8550	8550	8550	8550	8550	8550	8550	8343	8343	8343	8343	8343	8343	8343	8343	8343	8343	8343	8343	8146	8146	8146	8146	7959	7959	7959	8146	8146	8146	8343	8343	8343	8146	8146	7959	7959	7959	7959	7959	8146	8550	8550	8767	8767	8767	0	0	0	0	0	0	0	0	0	0	0	0	0	0	0	0	0	0	0	0	0	0	0	0	0	0	0	0	0	0	0	0	0	0	0	0
0	0	0	773	773	0	0	0	0	0	806	804	808	810	812	814	814	815	815	815	817	827	829	829	831	833	833	833	835	841	848	850	852	856	860	865	867	869	871	871	871	873	873	882	889	894	901	901	903	905	905	910	910	913	927	927	930	932	940	945	948	950	955	955	958	961	966	969	972	980	985	991	991	994	997	997	1011	1014	1023	1026	1026	1030	1036	1039	1045	1055	1058	1061	1064	1068	1068	1071	1074	1085	1091	1102	1102	1105	1105	1109	1109	1113	1109	1109	1109	1113	0	0	0	0	0	0	0	0	6349	6349	6468	6468	6468	6349	6349	6349	6349	6349	6349	0	0	0	0	0	0	0	0	0	6853	6992	6992	7137	7287	7287	7444	7444	7444	0	0	0	0	0	0	0	0	0	0	0	0	0	0	7608	7608	7779	7779	7959	7959	7959	8146	8146	8146	7959	7959	7959	7959	8146	8146	8146	8146	8146	8146	8146	8146	8146	8343	8146	8146	8343	8146	8146	8343	8343	8146	8146	8146	8343	8146	8146	8146	8343	8146	8146	8146	8146	8146	8146	8146	8146	8146	8146	8146	8146	8146	8146	8146	7959	7959	7959	7959	7959	7959	8146	8146	8343	8343	8343	8343	8343	8343	8343	0	3277	3277	3277	3277	3277	3246	3277	3246	3246	3246	3277	3277	3277	3246	3277	3309	3309	3309	3309	3277	3277	3277	3277	3277	3246	3246	3216	3216	3246	3246	3246	3246	3246	3246	3246	3246	3216	3216	3216	3216	3216	3216	3216	3216	3216	3216	3216	3216	3216	3216	3216	3216	3246	3246	3246	3246	3277	3277	3277	3277	3277	3309	3309	3309	3309	3309	3309	3309	3309	3309	3309	3309	3309	3309	3309	3309	3309	3309	3309	3277	3277	3277	0	8343	8343	8343	8343	8343	8343	8343	8343	8343	8343	8343	8343	8550	8550	8550	8550	8550	8550	8550	8550	8550	8550	8550	8550	8550	4906	4771	4706	4706	4706	4581	4581	4706	4581	4581	8550	8550	8550	8550	8550	8550	8343	8146	8146	8146	7959	8146	8343	4771	4771	4771	4771	4706	4706	8343	8343	8146	8146	8343	8146	4771	4771	4771	4771	4771	4771	4771	4771	4771	8146	8343	8343	8343	4706	4706	4771	4771	4771	4771	4838	4838	4838	4838	4771	4771	4771	4838	4771	4771	4771	4771	4771	4771	4838	4838	8550	8343	4838	4838	4838	4838	4838	4838	4838	4706	4706	4706	4706	4706	7608	7779	7779	7608	4706	4643	4643	4581	4581	4643	4643	8343	8343	4406	4350	4350	4406	4406	4406	8146	8146	7959	4463	4463	4521	4463	4521	4521	4581	4643	4643	7959	7959	7959	4771	4706	4771	4771	4706	4771	4771	4771	4771	4771	4771	4706	4706	4706	4643	4643	4706	4706	4706	4706	4643	4706	4706	4706	4706	4706	4771	4706	4706	4706	4706	4706	4643	4581	4581	4643	4643	4643	4643	4706	4706	4706	4706	4706	4706	4706	4706	4771	4771	4771	4771	4771	4771	4771	4771	4706	4706	4643	4643	4581	4581	7959	7959	8146	8146	8146	8146	8146	8146	8343	8343	8343	8343	8343	8146	8146	8146	8146	8146	8146	8146	8146	8146	8146	8343	8343	8343	8343	8343	8343	8343	8343	8343	8343	8550	8343	8343	8343	8343	8343	8343	8343	8343	8343	8343	8550	8550	8550	8550	8550	8550	8550	8343	8343	8343	8343	8343	8343	8343	8343	8343	8343	8146	8343	8343	8146	8146	7959	7959	7779	7959	7959	7959	8146	8146	8146	8146	8146	8146	8146	7959	7959	7959	7959	8146	8343	8550	8550	8550	8767	8767	0	0	0	0	0	0	0	0	0	0	0	0	0	0	0	0	0	0	0	0	0	0	0	0	0	0	0	0	0	0	0	0	0	0	0	0
0	0	0	0	0	0	0	0	0	0	806	804	808	810	814	814	814	814	815	815	817	825	829	831	833	835	837	837	839	841	841	843	854	858	862	867	869	869	871	871	871	873	878	882	891	894	898	898	901	903	905	910	910	920	925	927	927	932	937	942	948	950	953	955	958	961	966	969	972	974	980	988	991	997	997	1000	1011	1014	1023	1026	1026	1030	1033	1039	1045	1055	1058	1058	1064	1064	1068	1071	1074	1081	1088	1102	1102	1105	1105	1105	1109	1113	1109	1113	1113	1113	0	0	0	0	0	0	0	0	0	0	6468	6468	6468	6468	6468	6235	6235	6349	6235	6235	0	0	0	0	0	0	0	0	6992	6992	6992	6992	7137	7287	7287	7444	7444	0	0	0	0	0	0	0	0	0	0	0	0	0	0	7608	7608	7608	7444	7779	7959	7959	8146	7959	8146	7959	7959	7959	7959	8146	8146	8146	8146	8146	8146	8146	8146	8146	8146	8146	8146	8146	8146	8146	8343	8343	8146	8146	8146	8343	8146	8146	8343	8343	8343	8343	8343	8146	8343	8146	8146	8146	8146	8146	8146	8146	8146	8146	8146	7959	7959	7959	7959	7959	7959	8146	8146	8343	8343	8343	8343	8343	8343	8343	0	3246	3277	3246	3246	3246	3246	3246	3246	3246	3246	3246	3246	3246	3246	3309	3277	3277	3277	3277	3277	3277	3277	3277	3277	3216	3216	3216	3216	3216	3216	3246	3246	3246	3246	3246	3246	3246	3246	3216	3216	3216	3216	3216	3216	3216	3216	3216	3216	3216	3216	3216	3216	3216	3246	3246	3246	3277	3277	3277	3277	3277	3309	3309	3309	3309	3309	3309	3309	3309	3309	3309	3309	3309	3309	3309	3309	3309	3309	3309	3309	3309	3309	0	8343	8343	8343	8343	8343	8343	8343	8343	8343	8343	8343	8343	8343	8343	8550	8550	8550	8550	8550	8550	8550	4906	4977	4977	4906	4906	4771	4706	4771	4706	4581	4581	4706	4581	4706	4706	4706	4706	4706	4706	4706	4643	4643	4643	4643	4643	4706	4706	4706	4771	4771	4706	4706	4771	4771	4771	4706	4706	4643	4706	4643	4771	4771	4771	4771	4771	4771	4771	4771	4771	4771	4771	4706	4706	4706	4706	4706	4706	4706	4771	4838	4838	4838	4771	4771	4771	4771	4771	4771	4771	4771	4771	4771	4838	4838	4771	4771	4838	4838	4838	4771	4771	4771	4771	4706	4706	4706	4706	4706	4706	4706	4706	4706	4706	4643	4643	4643	4643	4643	4521	4463	4406	4406	4406	4406	4406	4406	4406	4406	4406	4463	4463	4463	4463	4463	4463	4463	4521	4643	4643	4771	4706	4706	4771	4706	4706	4771	4706	4771	4706	4771	4706	4771	4771	4771	4706	4706	4706	4643	4771	4706	4706	4706	4706	4706	4706	4706	4706	4706	4706	4706	4706	4706	4706	4706	4643	4706	4643	4643	4643	4643	4643	4706	4706	4706	4706	4706	4706	4706	4706	4706	4706	4771	4771	4706	4706	4706	4706	4706	4706	4643	4643	4643	4643	4706	4706	8146	8146	8146	8146	8146	8343	8343	8343	8343	8343	8146	8146	8146	8146	8146	7959	8146	8146	8146	8146	8146	8146	8343	8343	8343	8343	8343	8343	8343	8343	8343	8550	8343	8343	8343	8343	8343	8343	8343	8343	8343	8343	8550	8550	8550	8550	8550	8550	8550	8550	8343	8343	8343	8343	8343	8343	8343	8343	8343	8146	8146	8146	8146	7959	7779	7779	7779	7959	7959	7959	8146	8146	8146	8146	8146	8146	8146	7959	7959	7959	8343	8343	8343	8343	8343	8550	8550	8550	0	0	0	0	0	0	0	0	0	0	0	0	0	0	0	0	0	0	0	0	0	0	0	0	0	0	0	0	0	0	0	0	0	0	0	0
0	0	0	0	0	0	0	0	0	0	808	804	808	810	814	814	814	814	815	817	821	827	829	831	833	833	837	837	839	839	839	852	854	858	862	865	867	869	871	871	871	873	873	896	896	896	898	898	898	903	905	910	913	922	927	927	930	932	937	940	945	950	953	953	958	961	969	972	974	974	980	985	991	994	1000	1003	1008	1011	1023	1026	1026	1030	1033	1039	1045	1055	1058	1064	1064	1068	1068	1071	1071	1074	1085	1098	1105	1105	1105	1109	1109	1113	1113	1113	1113	1113	0	0	0	0	0	0	0	0	0	0	6468	6468	4771	6235	6235	6235	6235	6349	6349	6349	0	0	0	0	0	0	0	0	6992	6992	6992	6992	7287	7287	7287	0	0	0	0	0	0	0	0	0	0	0	0	0	0	0	0	7608	7444	7608	7444	7779	7959	7959	8146	7959	8146	7959	7959	7959	7959	8146	8146	8146	8146	8146	8146	8146	8146	8146	8146	8146	8146	8146	8146	8146	8343	8343	8343	8146	8343	8343	8146	8343	8343	8343	8343	8343	8343	8343	8343	8343	8343	8343	8343	8146	8343	8146	8146	8146	8146	8146	8146	7959	7779	8146	8146	8146	8146	8343	8343	8343	8343	8343	8343	8343	0	3246	3246	3246	3246	3246	3246	3246	3246	3246	3246	3246	3246	3246	3246	3246	3277	3277	3277	3246	3277	3246	3246	3246	3246	3216	3216	3216	3216	3216	3216	3246	3246	3246	3246	3246	3246	3246	3246	3216	3216	3216	3216	3216	3216	3246	3216	3216	3216	3216	3216	3216	3216	3216	3246	3246	3246	3277	3277	3277	3277	3277	3309	3309	3309	3309	3309	3309	3309	3309	3309	3309	3309	3309	3309	3309	3309	3309	3309	3309	3309	3309	3309	0	8343	8343	8550	8343	8343	8343	8343	8343	8343	8343	8343	8343	8550	8550	8550	8550	8550	8550	8550	8550	4906	4906	4906	4906	4838	4838	4771	4771	4771	4771	4581	4581	4706	4706	4706	4706	4706	4706	4706	4706	4706	4706	4706	4706	4706	4706	4706	4706	4771	4706	4771	4706	4706	4706	4706	4771	4706	4706	4706	4706	4643	4771	4771	4771	4771	4771	4771	4771	4771	4771	4771	4771	4706	4706	4706	4706	4706	4706	4706	4771	4838	4838	4838	4838	4771	4771	4771	4771	4838	4838	4838	4771	4771	4838	4838	4771	4706	4771	4771	4838	4771	4771	4771	4771	4706	4706	4706	4706	4706	4706	4706	4706	4706	4706	4643	4643	4643	4581	4581	4463	4463	4406	4406	4406	4406	4406	4406	4406	4406	4406	4406	4406	4406	4406	4406	4406	4406	4406	4463	4521	4706	4643	4771	4706	4706	4706	4706	4706	4771	4706	4706	4706	4771	4771	4706	4706	4706	4706	4706	4706	4771	4706	4706	4706	4706	4706	4706	4706	4706	4706	4706	4706	4706	4706	4706	4706	4706	4643	4706	4706	4643	4706	4706	4706	4706	4706	4706	4706	4706	4706	4706	4706	4771	4771	4706	4706	4771	4643	4706	4706	4706	4706	4706	4706	4706	4706	4706	7959	8146	8146	8146	8146	8343	8343	8343	8343	8343	8146	8146	8146	8146	7959	8146	8146	8146	8146	8146	8343	8343	8343	8343	8343	8343	8343	8343	8343	8343	8550	8550	8550	8343	8343	8343	8343	8343	8343	8343	8343	8550	8550	8550	8550	8550	8550	8550	8550	8343	8343	8343	8343	8343	8343	8343	8343	8343	7959	8146	8146	8146	7959	7779	7779	7779	7959	7959	7959	7959	8146	8146	8146	8146	8146	8146	7959	8146	8146	8343	8343	8343	8343	8343	8550	8550	8550	0	0	0	0	0	0	0	0	0	0	0	0	0	0	0	0	0	0	0	0	0	0	0	0	0	0	0	0	0	0	0	0	0	0	0	0
0	0	0	0	0	0	0	0	0	0	808	808	812	814	814	814	814	814	815	817	821	825	829	831	833	835	837	837	839	841	839	852	854	856	858	865	867	867	871	871	871	873	878	891	896	896	898	898	901	905	908	913	913	925	930	930	930	932	937	940	942	945	950	953	955	966	969	972	974	974	980	983	988	1000	1003	1006	1011	1011	1017	1026	1030	1033	1036	1039	1042	1042	1061	1064	1068	1068	1068	1071	1071	1081	1088	1091	1102	1105	1105	1109	1109	1113	1113	1113	1113	0	0	0	0	0	0	0	0	0	4706	4706	4771	4771	4771	4771	4771	6235	6235	6235	6235	6235	0	0	0	0	0	0	0	0	6992	6992	6992	6992	7287	7287	7287	0	0	0	0	0	0	0	0	0	0	0	0	0	0	0	0	0	7444	7444	7444	7779	7959	7959	8146	8146	8146	7959	7959	7959	7959	7959	8146	8146	8343	8146	8146	8146	8343	8146	8146	8146	8146	8343	8343	8343	8343	8343	8146	8146	8146	8146	8146	8146	8343	8343	8343	8146	8146	8146	8343	8343	8343	8343	8343	8146	8343	8146	8146	8146	8146	8146	8146	7959	8146	8146	8146	8146	8146	8146	8343	8343	8146	8146	8146	8146	0	0	3246	3246	3246	3246	3216	3216	3246	3216	3216	3246	3246	3246	3246	3277	3277	3277	3277	3246	3246	3246	3246	3246	3246	3216	3246	3216	3216	3216	3216	3216	3246	3246	3246	3246	3246	3246	3246	3246	3216	3216	3216	3246	3246	3246	3216	3216	3216	3216	3216	3216	3216	3216	3246	3246	3277	3277	3277	3277	3277	3277	3309	3309	3309	3309	3309	3309	3309	3309	3309	3309	3309	3309	3309	3309	3309	3309	3309	3309	3341	3341	3309	8343	8343	8343	8550	8343	8343	8343	8343	8550	8343	8343	8343	8343	8550	8550	8550	8550	8550	8550	8550	4906	4906	4906	4838	4838	4838	4771	4771	4771	4771	4771	4706	4706	4771	4771	4771	4771	4706	4706	4706	4706	4706	4706	4706	4706	4643	4706	4706	4706	4706	4706	4771	4706	4706	4706	4706	4706	4706	4706	4706	4771	4706	4771	4771	4706	4706	4771	4771	4771	4771	4771	4771	4771	4706	4706	4706	4706	4706	4706	4771	4838	4838	4838	4838	4838	4838	4771	4771	4771	4838	4838	4838	4771	4838	4771	4771	4771	4706	4771	4771	4771	4771	4771	4771	4771	4706	4771	4706	4771	4706	4706	4706	4706	4706	4643	4643	4643	4581	4581	4521	4463	4406	4406	4406	4406	4350	4350	4406	4406	4406	4406	4406	4406	4406	4406	4406	4406	4406	4463	4521	4581	4643	4643	4706	4706	4643	4706	4643	4706	4771	4706	4706	4706	4771	4771	4771	4706	4706	4771	4706	4706	4771	4706	4771	4706	4706	4706	4706	4706	4706	4706	4706	4706	4706	4706	4706	4706	4706	4643	4706	4706	4706	4706	4706	4706	4706	4706	4706	4706	4706	4706	4706	4706	4706	4706	4706	4706	4706	4706	4706	4706	4706	4706	4706	4706	4706	4706	4706	8146	7959	8146	8146	8146	8146	8343	8343	8343	8343	8146	8146	8146	8146	7959	8146	8146	8146	8146	8146	8343	8343	8343	8343	8343	8343	8343	8343	8343	8343	8343	8343	8343	8343	8343	8343	8343	8343	8343	8343	8343	8343	8550	8550	8550	8550	8550	8550	8343	8343	8343	8343	8343	8343	8343	8343	8146	7959	7779	7959	7959	8146	7959	7779	7779	7779	7959	7959	7959	7959	8146	8146	8146	8146	8146	8146	8146	8146	8146	8146	8146	8343	8343	8343	8550	8550	8550	0	0	0	0	0	0	0	0	0	0	0	0	0	0	0	0	0	0	0	0	0	0	0	0	0	0	0	0	0	0	0	0	0	0	0	0
0	0	0	0	0	0	0	0	0	0	0	808	814	814	814	814	812	812	814	815	817	829	829	831	833	833	837	837	839	841	841	854	854	856	858	862	865	867	871	871	871	873	878	889	891	896	898	898	901	901	905	910	910	925	930	930	930	935	937	940	942	945	950	950	953	961	969	972	974	974	980	985	991	1000	1003	1006	1011	1011	1017	1026	1030	1033	1036	1039	1042	1042	1061	1064	1068	1068	1071	1071	1071	1081	1088	1091	1098	1105	1102	1105	1109	1113	1113	1113	1113	0	0	0	0	0	0	0	0	4706	4706	4706	4771	4771	4771	4771	4771	0	6235	6235	6235	6235	0	0	0	0	0	0	0	0	6992	6992	6992	6992	4643	4643	7287	0	0	0	0	0	0	0	0	0	0	0	0	0	0	0	0	0	0	7444	7779	7779	7959	7959	7959	7959	8146	7959	7959	7959	7959	8146	8146	8146	8146	8146	8146	8146	8343	8343	8343	8343	8343	8343	8343	8343	8343	8343	8146	8146	8146	8146	8146	8146	8343	8343	8343	8343	8146	8146	8146	7959	7959	8146	8146	8146	8146	8146	8146	8146	8146	8146	8146	7959	8146	8146	8146	8146	8146	8146	8146	8343	8146	8146	8146	8343	8343	0	3246	3246	3246	3216	3216	3246	3216	3216	3216	3246	3246	3246	3246	3277	3277	3277	3277	3246	3246	3246	3246	3246	3246	3216	3246	3216	3216	3216	3216	3216	3216	3246	3246	3246	3246	3216	3246	3246	3216	3216	3216	3246	3246	3246	3246	3216	3216	3216	3216	3216	3216	3216	3246	3246	3277	3277	3277	3277	3277	3277	3277	3277	3309	3309	3309	3309	3309	3309	3309	3309	3309	3309	3309	3309	3309	3309	3309	3309	3309	3341	8343	8343	8343	8343	8550	8550	8343	8343	8343	8550	8343	8343	8343	8550	8550	8550	8550	8550	8550	8550	4838	4906	4906	4906	4838	4838	4838	4771	4771	4771	4771	4771	4771	4771	4771	4771	4771	4771	4771	4771	4771	4706	4706	4706	4706	4706	4706	4706	4706	4706	4706	4771	4771	4706	4771	4706	4771	4771	4771	4771	4771	4771	4771	4706	4706	4706	4706	4771	4771	4771	4771	4771	4771	4771	4771	4706	4706	4706	4706	4771	4771	4838	4838	4838	4838	4838	4771	4838	4838	4838	4838	4838	4771	4771	4771	4771	4771	4771	4706	4706	4771	4771	4771	4771	4706	4771	4706	4706	4706	4706	4643	4643	4643	4643	4643	4643	4643	4581	4581	4581	4463	4406	4406	4406	4406	4406	4350	4350	4406	4406	4350	4350	4406	4406	4406	4406	4406	4406	4406	4406	4463	4521	4581	4581	4643	4643	4643	4706	4643	4706	4706	4706	4706	4706	4771	4771	4771	4706	4706	4771	4706	4706	4706	4706	4706	4706	4706	4706	4706	4706	4706	4706	4706	4706	4706	4643	4643	4706	4706	4706	4706	4706	4771	4706	4706	4706	4706	4706	4706	4706	4706	4706	4706	4706	4706	4706	4706	4706	4706	4706	4771	4771	4771	4771	4771	4771	4771	4771	4771	7959	7959	8146	8146	8146	8146	8343	8343	8343	8343	8146	8146	8146	8146	7959	8146	8146	8146	8146	8146	8343	8343	8343	8343	8343	8343	8343	8343	8343	8343	8343	8343	8343	8343	8343	8343	8343	8343	8343	8343	8343	8343	8550	8550	8550	8550	8550	8550	8343	8343	8343	8343	8343	8343	8343	8146	8146	7959	7779	7959	8146	8146	7959	7779	7779	7779	7959	7959	7959	7959	7959	7959	8146	8146	8146	8146	8146	8146	8146	8146	8146	8146	8146	8343	8343	8343	0	0	0	0	0	0	0	0	0	0	0	0	0	0	0	0	0	0	0	0	0	0	0	0	0	0	0	0	0	0	0	0	0	0	0	0	0
0	0	0	0	0	0	0	0	0	0	804	804	804	814	814	814	812	812	814	814	814	831	831	831	831	833	835	837	837	839	839	852	854	856	856	860	860	862	869	871	871	873	880	889	891	894	896	898	898	901	905	910	910	917	927	930	927	932	935	940	942	945	950	953	958	969	969	972	972	972	972	985	991	1000	1006	1006	1011	1017	1017	1026	1030	1033	1036	1039	1042	1055	1064	1068	1068	1071	1071	1074	1074	1085	1088	1091	1095	1102	1102	1102	1109	1113	1116	1116	1116	0	0	0	0	0	0	0	0	4706	4706	4771	4771	4771	4771	4771	4771	4643	4643	0	0	0	0	0	0	0	0	0	0	0	0	4838	4838	4643	4643	4643	4643	4706	4706	4706	0	0	0	0	0	0	0	0	0	0	0	0	0	4706	4643	4581	4581	4581	7959	7959	7959	8146	8146	8146	7959	7959	7959	8146	8146	8146	8146	8146	8146	8146	8343	8343	8146	8146	8146	8146	8146	8146	8146	8343	8146	8146	8146	8146	8146	8146	8343	8343	8343	8146	8146	8146	8146	7959	7959	8146	8146	8146	8146	8146	8146	8146	8146	8146	7959	8146	8146	8146	8146	8146	8146	8146	8146	8146	8146	8146	8146	8146	8146	8146	3246	3246	3186	3216	3216	3246	3216	3216	3216	3216	3246	3246	3246	3277	3277	3277	3277	3277	3246	3246	3246	3246	3246	3216	3216	3216	3216	3216	3216	3216	3216	3246	3246	3246	3246	3246	3246	3246	3216	3216	3216	3246	3246	3246	3186	3246	3216	3216	3216	3216	3216	3216	3246	3246	3246	3277	3277	3277	3277	3277	3277	3277	3277	3309	3309	3309	3309	3309	3309	3309	3309	3309	3309	3309	3309	3309	3309	3309	3309	3309	8343	8146	8146	8343	8343	8343	8343	8343	8343	8343	8343	8343	8343	8550	8550	8550	8550	8550	8550	8550	4838	4906	4906	4838	4838	4838	4838	4771	4771	4771	4771	4771	4771	4771	4771	4771	4771	4771	4771	4771	4771	4771	4771	4706	4706	4706	4706	4706	4771	4771	4771	4771	4771	4771	4771	4771	4771	4771	4771	4706	4706	4771	4771	4771	4771	4771	4771	4771	4771	4771	4771	4706	4771	4771	4771	4706	4706	4706	4706	4706	4771	4771	4838	4838	4838	4838	4838	4838	4838	4838	4838	4838	4838	4771	4771	4771	4771	4706	4706	4706	4771	4771	4706	4706	4706	4771	4706	4706	4706	4706	4643	4643	4643	4643	4643	4643	4581	4581	4521	4521	4406	4406	4406	4350	4350	4350	4350	4350	4350	4350	4406	4406	4406	4406	4406	4406	4406	4406	4350	4406	4406	4463	4581	4581	4643	4706	4643	4643	4643	4706	4706	4643	4643	4643	4706	4771	4771	4706	4706	4771	4771	4706	4706	4706	4706	4706	4706	4706	4706	4706	4706	4706	4706	4706	4706	4643	4706	4706	4706	4706	4706	4706	4771	4706	4706	4771	4706	4706	4706	4706	4706	4706	4706	4706	4706	4706	4706	4706	4706	4706	4706	4706	4706	4771	4771	4771	4771	4771	8146	8146	8146	8146	8146	8146	8146	8343	8343	8146	8146	8146	8146	8146	8146	7959	7959	8146	8146	8146	8146	8343	8343	8343	8343	8343	8343	8343	8343	8343	8343	8343	8550	8343	8343	8343	8343	8343	8343	8343	8343	8343	8343	8343	8550	8343	8343	8343	8343	8343	8343	8343	8343	8343	8146	8146	8146	8146	7959	7959	7959	8146	8146	7959	7959	7959	7959	8146	8146	7959	7959	8146	8146	8146	8146	8146	8146	8146	8146	8146	8146	8146	8146	8146	8146	8146	8146	0	0	0	0	0	0	0	0	0	0	0	0	0	0	0	0	0	0	0	0	0	0	0	0	0	0	0	0	0	0	0	0	0	0	0	0	0
0	0	0	0	0	0	0	0	0	0	800	800	800	814	814	814	812	812	814	814	814	829	829	831	831	831	835	835	837	839	839	852	854	856	856	860	860	862	867	869	873	875	882	889	891	894	896	898	898	901	903	908	910	915	927	930	927	930	932	937	940	942	948	948	961	966	972	974	977	972	983	988	994	1003	1006	1006	1011	1017	1020	1026	1030	1036	1036	1039	1042	1048	1055	1064	1068	1071	1071	1074	1078	1085	1088	1088	1095	1098	1102	1102	1102	1105	1105	1105	1105	0	0	0	0	0	0	0	0	4706	4706	4838	4838	4771	4771	4771	4771	4706	4706	0	0	0	0	0	0	0	0	0	0	0	0	4771	4643	4643	4771	4771	4771	4771	4706	4706	0	0	0	0	0	0	0	0	0	0	0	4706	4706	4706	4706	4643	4643	4643	4643	7959	7959	8146	8146	8146	8146	7959	8146	8146	8146	8146	8146	8146	8146	8146	8146	8146	8146	8146	8146	8146	8146	8146	8146	8146	8146	8146	8146	8146	8146	8146	8146	8343	8146	8146	8146	8146	8146	7959	7959	8146	8146	8146	8146	8146	8146	8146	8146	8146	8146	8146	8146	8146	8146	8146	8146	8146	8146	8146	8146	8146	8146	8146	8146	8146	0	3186	3186	3216	3216	3216	3216	3216	3216	3216	3246	3246	3246	3277	3277	3277	3277	3246	3246	3246	3246	3246	3246	3216	3216	3246	3216	3216	3216	3216	3216	3246	3246	3246	3246	3246	3246	3246	3216	3216	3246	3246	3246	3246	3186	3246	3216	3216	3216	3216	3216	3216	3246	3246	3277	3277	3277	3277	3277	3277	3277	3277	3277	3309	3309	3309	3309	3309	3309	3309	3309	3309	3309	3309	3309	3309	3309	3309	3309	3309	0	8146	8146	8146	8343	8343	8343	8343	8343	8550	8343	8343	8343	8343	8550	8550	8550	8550	8343	4906	4838	4906	4838	4838	4838	4771	4771	4771	4771	4771	4771	4771	4771	4771	4771	4771	4771	4771	4771	4771	4771	4771	4771	4706	4706	4706	4706	4706	4771	4706	4771	4771	4771	4771	4706	4771	4771	4771	4706	4706	4706	4771	4771	4706	4706	4706	4771	4771	4771	4771	4771	4771	4771	4771	4771	4706	4706	4706	4771	4771	4771	4838	4838	4838	4838	4838	4838	4838	4838	4838	4838	4838	4838	4838	4838	4771	4771	4706	4706	4706	4706	4706	4706	4706	4771	4771	4771	4706	4706	4706	4643	4643	4643	4581	4581	4581	4581	4581	4463	4463	4406	4406	4406	4350	4350	4350	4350	4350	4406	4406	4406	4406	4463	4463	4406	4406	4406	4406	4350	4350	4406	4463	4521	4581	4643	4706	4706	4643	4643	4643	4706	4643	4643	4643	4706	4706	4771	4706	4706	4771	4771	4771	4706	4706	4706	4706	4706	4706	4706	4706	4706	4706	4706	4706	4706	4643	4706	4706	4706	4706	4706	4706	4706	4706	4706	4706	4706	4706	4706	4706	4706	4706	4706	4706	4706	4706	4706	4643	4706	4706	4706	4706	4706	4706	4771	4771	4706	4706	8343	8343	8146	8146	8146	8146	8146	8146	8146	8146	8146	8146	8146	8146	8146	7959	7959	8146	8146	8146	8146	8343	8343	8343	8343	8343	8343	8343	8343	8343	8343	8343	8343	8343	8343	8343	8343	8343	8343	8550	8343	8550	8343	8343	8343	8343	8343	8343	8343	8343	8343	8343	8343	8343	8146	8146	8146	8146	8146	7959	8146	8146	8146	8146	7959	7959	7959	8146	8146	8146	8146	8146	8146	8343	8343	8343	8343	8146	8343	8343	8343	8146	8146	7959	7959	7959	7959	0	0	0	0	0	0	0	0	0	0	0	0	0	0	0	0	0	0	0	0	0	0	0	0	0	0	0	0	0	0	0	0	0	0	0	0	0
0	0	0	775	775	779	780	780	782	798	798	798	800	798	798	814	812	814	814	814	814	814	827	831	831	831	835	839	839	839	839	852	854	856	856	860	860	862	867	867	869	873	887	891	894	896	896	898	901	901	903	908	910	915	927	927	930	930	932	937	940	942	953	972	963	969	972	974	977	977	985	991	994	1000	1003	1006	1011	1017	1020	1026	1030	1033	1036	1036	1039	1045	1052	1058	1068	1071	1071	1074	1078	1085	1088	1091	1098	1102	1102	1102	1102	1105	1105	1105	1105	0	0	0	0	0	0	0	0	4771	4771	4838	4838	4838	4838	4838	4771	4706	4706	0	0	0	0	0	0	0	0	0	0	0	7287	4706	4706	4643	4771	4771	4771	4771	4706	4706	0	0	0	0	0	0	0	0	0	0	4838	4771	4771	4771	4706	4706	4706	4706	4706	0	7959	8146	8146	7959	7959	7959	7959	8146	8146	8146	8146	8146	8146	8146	8146	8146	8146	8146	8146	8146	8146	8146	8146	8146	8146	8146	8146	8146	8146	8146	8146	8146	8146	8146	8146	8146	7959	7959	7959	8146	8146	8146	8146	8146	8146	8146	8146	8146	8146	8146	8146	8146	8146	8146	8146	8146	8146	8146	8146	8146	8146	8146	8146	0	0	3186	3186	3186	3216	3216	3216	3216	3216	3216	3246	3246	3246	3246	3277	3277	3277	3277	3246	3246	3246	3246	3246	3216	3216	3246	3246	3216	3216	3216	3246	3246	3246	3246	3246	3246	3246	3246	3246	3246	3246	3246	3246	3246	3216	3216	3216	3216	3216	3216	3216	3246	3246	3246	3246	3277	3246	3277	3246	3277	3277	3277	3277	3309	3309	3309	3309	3309	3309	3309	3309	3309	3309	3309	3309	3309	3309	3309	3309	3309	0	8146	8146	8343	8343	8343	8343	8343	8343	8343	8343	8343	8343	8343	8550	8550	8550	8550	8343	4838	4771	4771	4771	4771	4771	4771	4771	4771	4771	4771	4771	4771	4771	4771	4771	4771	4771	4771	4771	4771	4771	4771	4771	4771	4771	4706	4706	4771	4771	4771	4771	4771	4771	4771	4706	4771	4706	4706	4706	4706	4706	4771	4771	4706	4771	4771	4771	4771	4771	4771	4771	4706	4706	4706	4771	4706	4771	4771	4706	4771	4706	4771	4771	4771	4838	4838	4838	4838	4838	4838	4838	4838	4838	4838	4838	4771	4771	4771	4706	4706	4706	4706	4706	4706	4771	4771	4771	4706	4706	4706	4643	4643	4581	4581	4581	4581	4581	4521	4463	4463	4463	4406	4406	4406	4406	4406	4406	4406	4406	4406	4406	4463	4463	4463	4463	4406	4406	4406	4406	4350	4406	4463	4581	4643	4706	4706	4706	4643	4643	4643	4706	4643	4643	4643	4706	4771	4771	4706	4706	4771	4771	4706	4706	4706	4706	4706	4706	4706	4706	4706	4706	4706	4706	4706	4706	4706	4706	4706	4706	4706	4706	4706	4771	4706	4706	4706	4706	4706	4706	4706	4706	4706	4706	4706	4706	4706	4706	4706	4706	4706	4706	4706	4706	4706	4706	4706	4706	4706	4706	8343	8146	8146	8146	8146	8146	8146	8146	8146	8146	8146	8146	8146	8146	7959	7959	8146	8146	8146	8146	8343	8343	8343	8550	8343	8343	8343	8343	8343	8343	8343	8343	8343	8550	8550	8550	8550	8343	8550	8343	8343	8343	8343	8343	8343	8343	8343	8343	8343	8343	8343	8343	8343	8146	8146	8146	8146	8146	8343	8146	8146	8146	8146	8146	7959	8146	8146	8146	8343	8146	8146	8146	8343	8343	8343	8343	8343	8146	8343	8146	8146	7959	7959	7779	7779	7959	0	0	0	0	0	0	0	0	0	0	0	0	0	0	0	0	0	0	0	0	0	0	0	0	0	0	0	0	0	0	0	0	0	0	0	0	0
0	0	0	775	775	777	779	780	780	797	797	795	795	798	798	814	812	814	814	814	815	819	825	829	829	829	837	839	839	839	841	856	854	854	856	860	860	862	867	869	871	873	882	889	891	891	896	896	901	901	903	905	910	915	930	930	930	930	935	937	940	942	961	969	966	969	972	974	977	977	985	988	991	997	1000	1006	1008	1017	1020	1026	1030	1033	1036	1036	1039	1045	1052	1061	1068	1071	1074	1074	1081	1088	1091	1095	1098	1102	1102	1102	1102	1105	1105	1127	1127	0	0	0	0	0	0	0	0	4838	4838	4838	4838	4838	4838	4838	4771	4771	4771	4771	0	0	0	0	0	0	0	0	0	0	4706	4706	4706	4838	4838	4771	4771	4771	4706	4706	4706	0	0	0	0	0	0	0	0	4838	4838	4771	4771	4771	4706	4771	4706	4771	4771	4771	7959	8146	8146	7959	7959	7959	7959	8146	8146	8146	8146	8146	8146	8146	8146	8146	8146	8146	8146	8343	8343	8146	8146	8146	8146	8146	8146	8146	8146	8146	8146	8146	8146	8146	8146	8146	7959	7959	7959	8146	8146	7959	8146	8146	8146	8146	8146	7959	7959	8146	8146	8146	8146	8146	8146	8146	8146	8146	8146	8146	8146	8146	8146	0	0	3186	3186	3216	3216	3216	3216	3216	3246	3246	3246	3246	3246	3246	3277	3277	3277	3277	3246	3246	3246	3246	3246	3246	3246	3246	3246	3246	3216	3216	3216	3246	3216	3216	3246	3246	3246	3246	3216	3216	3216	3216	3216	3216	3216	3216	3216	3216	3216	3216	3216	3246	3246	3246	3277	3277	3277	3277	3277	3277	3277	3277	3277	3309	3309	3309	3309	3309	3309	3309	3309	3309	3309	3277	3277	3309	3277	3277	3277	3277	0	7959	8146	8146	8343	8343	8343	8343	8343	8550	8550	8343	8343	8343	8343	8550	8550	8343	8146	8146	4771	4771	4771	4838	4771	4771	4771	4771	4771	4771	4771	4771	4771	4771	4771	4771	4771	4771	4771	4771	4838	4771	4838	4771	4771	4706	4771	4771	4771	4771	4771	4771	4771	4771	4771	4771	4771	4706	4706	4706	4706	4706	4706	4706	4771	4771	4771	4771	4771	4771	4706	4706	4706	4706	4771	4706	4706	4706	4706	4771	4706	4771	4771	4771	4771	4838	4838	4838	4838	4838	4838	4838	4838	4771	4838	4771	4771	4771	4706	4706	4771	4706	4771	4771	4771	4771	4771	4771	4706	4706	4643	4643	4581	4581	4581	4521	4521	4463	4463	4463	4463	4406	4406	4406	4406	4406	4406	4406	4406	4406	4406	4463	4463	4463	4463	4406	4406	4406	4406	4406	4463	4521	4581	4643	4706	4706	4706	4643	4643	4643	4706	4706	4643	4643	4706	4771	4706	4706	4706	4706	4771	4706	4706	4706	4706	4706	4706	4706	4706	4706	4706	4706	4706	4706	4706	4706	4706	4706	4706	4706	4706	4706	4771	4706	4706	4706	4706	4706	4706	4706	4706	4706	4706	4706	4706	4706	4706	4706	4706	4706	4706	4706	4706	4706	4706	4706	4706	8146	8146	8146	8146	8146	8146	8146	8146	8146	8146	8146	8146	8146	8146	8146	8146	8146	7959	7959	8146	8146	8146	8343	8343	8343	8550	8343	8343	8343	8343	8343	8343	8343	8343	8343	8550	8550	8550	8550	8343	8343	8343	8343	8343	8343	8343	8343	8343	8343	8343	8343	8343	8343	8550	8343	8146	8146	8146	8343	8343	8343	8146	8146	8146	8146	8146	7959	8146	8146	8146	8343	8343	8343	8146	8343	8343	8343	8343	8146	8146	8146	8146	7959	7959	7959	7779	7779	0	0	0	0	0	0	0	0	0	0	0	0	0	0	0	0	0	0	0	0	0	0	0	0	0	0	0	0	0	0	0	0	0	0	0	0	0	0
0	0	0	775	777	777	779	779	791	795	797	797	797	798	806	814	810	812	814	814	815	819	823	829	829	829	831	839	841	841	845	850	854	856	858	858	860	865	867	871	871	873	880	889	891	894	896	901	901	901	903	903	905	905	930	932	932	932	935	937	937	942	953	966	966	969	972	974	974	977	983	985	991	994	997	1003	1011	1014	1020	1023	1030	1033	1033	1036	1042	1048	1055	1061	1068	1071	1074	1078	1085	1088	1095	1098	1098	1102	1102	1102	1105	1109	1123	1127	1127	0	0	0	0	0	0	0	0	4771	4838	4838	4838	4771	4771	4771	4771	4706	4706	4706	0	0	0	0	0	0	0	0	0	0	4706	4706	4906	4838	4838	4771	4771	4771	4706	4643	4643	4643	0	0	0	0	0	0	0	4838	4771	4771	4771	4771	4771	4771	4771	4771	4838	4838	0	8146	8146	8146	7959	7959	7959	8146	8146	8146	8146	8146	8146	8146	8146	8146	8146	8343	8146	8343	8343	8146	8146	8146	8146	8146	8146	8146	8146	8146	8146	8146	8146	8146	8146	8146	7959	7779	7959	7959	8146	8146	7959	8146	8146	8146	8146	8146	8146	8146	8146	8146	8146	8146	8146	8146	8146	8146	8146	8146	8146	8146	8146	0	0	3186	3186	3186	3216	3216	3216	3216	3216	3216	3246	3246	3246	3246	3277	3277	3277	3277	3246	3277	3246	3246	3246	3246	3246	3246	3246	3246	3216	3216	3246	3246	3216	3216	3216	3216	3216	3216	3216	3216	3216	3216	3216	3216	3216	3216	3216	3216	3216	3216	3216	3246	3246	3246	3246	3246	3246	3246	3246	3277	3277	3277	3309	3309	3309	3309	3309	3309	3309	3309	3309	3309	3309	3277	3277	3309	3277	3277	3277	3277	0	8146	8146	8343	8343	8343	8343	8146	8343	8343	8343	8146	8146	8146	8343	8343	8146	8146	8146	8146	4771	4771	4771	4771	4771	4771	4771	4771	4771	4771	4771	4771	4771	4771	4771	4771	4771	4771	4771	4771	4838	4838	4838	4771	4771	4771	4771	4771	4771	4771	4771	4771	4771	4771	4771	4771	4706	4706	4706	4706	4706	4706	4706	4706	4771	4771	4771	4771	4771	4771	4706	4706	4706	4706	4706	4706	4706	4706	4771	4771	4771	4771	4771	4771	4838	4838	4838	4838	4838	4838	4838	4838	4771	4771	4771	4771	4771	4771	4706	4771	4771	4771	4771	4771	4771	4771	4771	4771	4706	4706	4643	4643	4581	4581	4521	4521	4521	4521	4463	4463	4463	4406	4406	4406	4406	4406	4406	4406	4406	4406	4406	4406	4463	4463	4406	4406	4406	4406	4406	4406	4463	4581	4643	4643	4706	4706	4706	4643	4643	4643	4706	4643	4643	4643	4706	4706	4706	4706	4706	4706	4706	4706	4706	4706	4771	4771	4771	4706	4706	4706	4706	4706	4706	4706	4706	4706	4706	4706	4706	4706	4706	4706	4771	4706	4706	4706	4706	4706	4771	4706	4706	4706	4706	4706	4706	4706	4706	4706	4706	4706	4706	4706	4706	4643	4706	4706	4706	8146	8343	8146	8146	8146	8146	8146	8146	8146	8146	8146	8146	8146	8146	8146	8146	8146	8146	8146	8146	8146	8146	8343	8343	8343	8343	8343	8343	8343	8343	8343	8343	8343	8343	8343	8343	8343	8343	8343	8343	8343	8343	8343	8343	8343	8343	8343	8343	8343	8343	8343	8343	8343	8550	8343	8146	8146	8146	8343	8343	8343	8146	8146	8146	8146	8146	8146	8146	8146	8343	8343	8146	8146	8146	8146	8146	8146	8146	8146	8146	8146	8146	7959	7959	7959	7779	7779	0	0	0	0	0	0	0	0	0	0	0	0	0	0	0	0	0	0	0	0	0	0	0	0	0	0	0	0	0	0	0	0	0	0	0	0	0	0
0	0	0	775	777	777	788	789	789	793	795	795	795	797	806	808	808	812	814	814	815	821	823	827	829	833	837	839	839	841	845	848	848	848	858	860	862	867	869	871	878	880	880	889	891	894	896	898	901	901	903	903	903	903	930	932	932	932	937	937	937	940	955	961	963	966	972	974	974	977	983	985	991	994	997	1000	1014	1014	1023	1026	1033	1033	1039	1039	1042	1052	1055	1058	1064	1071	1074	1081	1085	1095	1098	1098	1102	1102	1102	1102	1105	1105	1123	1131	1131	0	0	0	0	0	0	0	0	4771	4838	4838	4838	4771	4771	4771	4771	4706	4706	4706	4706	4706	0	0	0	0	0	0	0	0	4771	4838	4838	4838	4838	4771	4771	4706	4706	4643	4643	4643	0	0	0	0	0	0	0	4838	4838	4838	4771	4771	4771	4771	4771	4771	4771	4771	0	8146	8146	8146	7959	7959	7959	8146	8146	8146	8146	8146	8146	8146	8146	8146	8146	8146	8146	8343	8343	8146	8146	8146	8146	8343	8146	8146	8146	8343	8146	8146	8146	8146	8146	8146	7959	7959	7959	8146	8146	8146	8146	8146	8146	8146	8146	8146	8146	8146	8146	8146	8146	8146	8146	8146	8146	8146	8146	8343	8343	8146	8343	8343	0	3186	3186	3216	3216	3216	3216	3216	3216	3216	3216	3246	3246	3246	3277	3277	3277	3277	3277	3277	3246	3246	3246	3246	3246	3246	3246	3246	3246	3246	3246	3216	3216	3216	3246	3216	3216	3216	3216	3186	3216	3216	3216	3216	3186	3186	3186	3216	3186	3216	3216	3246	3246	3246	3246	3246	3246	3246	3246	3277	3277	3277	3309	3309	3309	3309	3309	3309	3309	3309	3309	3309	3309	3277	3277	3309	3277	3277	3277	3277	0	8146	8146	8146	8343	8146	8146	8146	8146	8146	8343	8343	8343	8343	8550	8550	8550	8146	8146	8146	8146	4838	4771	4771	4771	4771	4771	4771	4838	4771	4771	4771	4771	4771	4771	4771	4771	4771	4771	4771	4838	4838	4838	4771	4771	4771	4771	4771	4771	4771	4771	4771	4771	4771	4771	4771	4706	4706	4706	4706	4706	4706	4771	4706	4771	4771	4771	4706	4706	4706	4771	4643	4643	4643	4706	4706	4706	4706	4706	4771	4706	4771	4771	4771	4771	4838	4838	4838	4838	4838	4838	4771	4771	4771	4771	4771	4771	4771	4706	4706	4771	4771	4771	4771	4771	4771	4771	4771	4706	4706	4706	4643	4643	4581	4581	4521	4521	4521	4463	4463	4463	4406	4406	4406	4406	4406	4406	4406	4406	4406	4406	4406	4406	4406	4406	4406	4406	4406	4406	4463	4581	4643	4643	4706	4706	4706	4706	4643	4643	4643	4643	4643	4643	4643	4643	4706	4706	4706	4706	4706	4706	4706	4706	4706	4706	4771	4771	4706	4706	4706	4706	4706	4706	4706	4706	4706	4706	4706	4706	4771	4771	4771	4771	4771	4771	4706	4706	4706	4771	4706	4706	4706	4706	4706	4706	4706	4706	4706	4706	4706	4706	4706	4706	4643	4706	4706	4706	4706	8343	8146	8146	8146	8146	8146	8146	8146	8146	8146	8146	8146	8146	8146	8146	8146	8146	8146	8146	8146	8146	8343	8343	8343	8343	8343	8343	8343	8343	8343	8343	8343	8343	8343	8343	8343	8343	8343	8550	8550	8550	8550	8550	8550	8343	8343	8343	8343	8343	8343	8343	8343	8343	8343	8343	8550	8550	8550	8343	8343	8343	8146	8146	8146	8146	8146	8146	8146	8343	8343	8343	8146	8146	8146	8146	8146	8146	8146	8146	8146	8146	8146	7959	7959	7779	7779	7779	0	0	0	0	0	0	0	0	0	0	0	0	0	0	0	0	0	0	0	0	0	0	0	0	0	0	0	0	0	0	0	0	0	0	0	0	0
0	0	0	775	777	777	791	791	791	793	795	795	798	800	804	806	808	810	812	812	815	823	825	827	829	831	831	839	843	843	845	848	848	850	858	858	862	867	869	873	878	880	880	889	891	894	894	898	901	901	903	903	908	908	930	932	932	932	935	937	937	940	961	963	966	969	972	974	974	977	983	985	991	994	997	1011	1017	1020	1030	1030	1033	1033	1036	1039	1042	1052	1055	1055	1064	1071	1074	1085	1091	1098	1098	1098	1102	1102	1102	1102	1105	1105	1123	1131	1131	0	0	0	0	0	0	0	0	4838	4838	4838	4838	4838	4771	4838	4838	4771	4771	4771	4771	4771	4771	0	0	0	0	0	0	0	4771	4771	4838	4838	4771	4771	4771	4706	4643	4643	4643	0	0	0	0	0	0	0	0	4838	4838	4838	4838	4771	4771	4838	4771	4771	4838	4838	0	8146	8146	8146	7959	7959	7959	8146	8146	8146	8146	8146	8146	8146	8146	8146	8146	8146	8146	8343	8343	8146	8146	8343	8343	8343	8343	8146	8146	8146	8146	8146	8146	8146	8146	8146	8146	8146	7959	8146	8146	8146	8146	8146	8146	8146	8146	8146	8146	8146	8146	8146	8146	8146	8146	8146	8146	8146	8146	8146	8146	8146	8146	8146	0	3216	3216	3216	3216	3216	3216	3216	3246	3216	3216	3246	3246	3246	3277	3277	3277	3277	3246	3277	3246	3246	3246	3216	3216	3216	3246	3246	3246	3246	3246	3246	3216	3216	3216	3216	3216	3216	3216	3216	3216	3216	3216	3216	3186	3186	3186	3186	3216	3216	3216	3246	3246	3246	3246	3246	3246	3246	3246	3277	3277	3277	3309	3309	3309	3309	3309	3309	3309	3309	3309	3309	3277	3277	3309	3309	3309	3277	3277	3277	8146	7959	7959	7959	7959	7959	7959	7959	8146	8146	8343	8343	8343	8550	8550	8550	8343	8343	8146	8343	8146	4771	4771	4771	4771	4838	4838	4771	4771	4771	4771	4771	4771	4771	4771	4771	4771	4771	4771	4771	4838	4771	4838	4771	4771	4771	4771	4771	4771	4771	4771	4771	4771	4771	4706	4706	4706	4706	4706	4706	4706	4706	4706	4771	4771	4771	4771	4706	4706	4706	4706	4706	4706	4771	4771	4706	4706	4706	4706	4706	4706	4771	4771	4771	4771	4838	4838	4838	4838	4838	4838	4771	4771	4771	4771	4771	4771	4771	4706	4706	4706	4706	4706	4706	4706	4771	4771	4771	4771	4706	4706	4706	4643	4581	4581	4581	4521	4521	4463	4463	4406	4406	4406	4406	4406	4406	4406	4406	4406	4406	4406	4406	4406	4406	4406	4406	4406	4406	4406	4406	4463	4581	4643	4706	4706	4706	4706	4706	4643	4643	4643	4643	4643	4643	4706	4706	4706	4706	4706	4706	4706	4706	4706	4706	4771	4706	4771	4706	4706	4706	4706	4706	4706	4706	4706	4706	4706	4706	4706	4771	4771	4771	4771	4771	4706	4706	4643	4771	4771	4771	4771	4706	4706	4706	4706	4706	4706	4706	4706	4706	4706	4706	4643	4643	4643	4643	4643	4643	8550	8343	8343	8146	8146	8146	8146	8146	8146	8146	8146	8146	7959	7959	8146	8146	8146	8146	8146	8146	8146	8343	8343	8343	8343	8343	8343	8343	8343	8343	8343	8343	8343	8343	8343	8343	8343	8550	8550	8550	8550	8550	8550	8550	8343	8343	8343	8343	8343	8343	8343	8343	8343	8343	8343	8343	8550	8550	8343	8343	8343	8146	8146	8146	8146	8146	8146	8146	8146	8146	8146	8146	8146	8146	8146	8146	8146	8343	8343	8146	8146	8146	7959	7959	7959	7779	7779	0	0	0	0	0	0	0	0	0	0	0	0	0	0	0	0	0	0	0	0	0	0	0	0	0	0	0	0	0	0	0	0	0	0	0	0	0
0	0	0	0	775	777	779	779	789	793	795	795	798	800	806	806	808	810	810	814	819	825	827	829	829	831	835	839	843	843	848	848	848	850	858	858	865	869	871	873	880	880	880	889	891	894	894	898	901	901	901	903	905	905	930	932	935	932	935	937	937	942	958	961	966	966	969	972	974	977	983	985	994	994	997	1014	1017	1017	1026	1030	1039	1039	1039	1042	1045	1055	1055	1055	1058	1068	1071	1071	1095	1098	1102	1102	1102	1102	1102	1102	1105	1109	1123	1127	1127	1131	0	0	0	0	0	0	0	4706	4706	4838	4838	4838	4838	4838	4838	4771	4771	4771	4706	4706	4706	4706	0	0	0	0	0	0	4771	4771	4771	4771	4771	4771	4771	4706	4643	4581	4581	0	0	0	0	0	0	0	0	4838	4838	4838	4771	4771	4706	4838	4771	4771	4771	8146	8146	8146	8146	8146	8146	7959	7959	8146	8146	8146	8146	8146	8146	8146	8146	8146	8146	8146	8146	8343	8343	8343	8146	8146	8343	8146	8146	8146	8146	8146	8146	8146	8146	8146	8146	8146	8146	8146	7959	8146	8146	8146	8146	8146	8146	8146	8146	8146	8146	8146	8146	8146	8146	8146	8146	8146	8146	8146	8146	8146	8146	8146	8146	8146	0	3216	3216	3216	3216	3216	3216	3216	3216	3216	3216	3246	3246	3246	3277	3277	3277	3277	3246	3246	3246	3246	3246	3216	3246	3246	3246	3246	3246	3246	3246	3216	3216	3216	3216	3216	3216	3216	3216	3216	3186	3216	3186	3186	3186	3186	3186	3186	3186	3216	3216	3216	3216	3216	3216	3246	3246	3277	3277	3277	3277	3277	3309	3309	3309	3309	3309	3309	3309	3309	3309	3309	3277	3277	3309	3309	3309	3309	3309	0	8146	7959	7959	8146	7959	7959	7959	7959	8146	8343	8343	8343	8343	8343	8343	8343	8343	8343	8343	8343	8343	4706	4706	4838	4771	4838	4838	4838	4838	4771	4771	4771	4771	4771	4771	4771	4771	4771	4771	4771	4771	4771	4771	4771	4771	4771	4771	4771	4771	4771	4771	4771	4706	4706	4706	4706	4706	4706	4706	4706	4706	4706	4706	4771	4771	4771	4706	4706	4706	4706	4706	4706	4706	4706	4771	4771	4706	4706	4706	4706	4706	4771	4771	4771	4771	4838	4838	4838	4838	4838	4838	4771	4771	4771	4771	4771	4771	4771	4706	4706	4706	4771	4771	4771	4771	4771	4771	4771	4706	4706	4771	4771	4643	4643	4581	4581	4521	4521	4463	4463	4406	4406	4406	4406	4406	4406	4406	4406	4406	4406	4406	4406	4406	4406	4406	4406	4406	4406	4406	4463	4521	4581	4643	4643	4643	4643	4643	4643	4643	4643	4643	4643	4706	4643	4706	4706	4706	4771	4771	4706	4706	4771	4706	4706	4706	4706	4771	4706	4771	4706	4706	4706	4706	4706	4706	4706	4706	4706	4706	4771	4706	4706	4771	4706	4706	4706	4706	4706	4706	4706	4706	4706	4706	4706	4706	4706	4706	4706	4706	4706	4706	4706	4706	4706	4706	4643	4643	4643	8343	8343	8146	8146	8146	8146	8146	8146	8146	8146	8146	8146	8146	8146	8146	8146	8146	8146	8146	8146	8146	8343	8343	8343	8343	8343	8343	8343	8343	8343	8343	8146	8343	8343	8343	8343	8343	8550	8550	8550	8550	8550	8550	8550	8550	8343	8343	8343	8343	8343	8343	8343	8343	8343	8343	8343	8343	8343	8343	8343	8146	8146	8146	8146	8146	8146	8146	8146	8146	8343	8146	8146	8146	8146	8146	8146	8146	8146	8343	8146	8146	8146	7959	7959	7959	7779	7779	0	0	0	0	0	0	0	0	0	0	0	0	0	0	0	0	0	0	0	0	0	0	0	0	0	0	0	0	0	0	0	0	0	0	0	0	0
0	0	0	0	779	779	788	788	789	791	791	793	802	802	806	808	808	812	815	819	821	825	827	829	829	833	835	839	843	845	848	848	850	852	856	856	860	869	871	873	880	880	880	887	889	891	891	898	901	901	903	905	908	908	930	930	935	932	935	937	937	948	955	958	966	969	969	972	974	977	980	983	988	991	994	1014	1017	1020	1026	1030	1033	1033	1036	1042	1045	1052	1055	1058	1061	1064	1068	1068	1098	1102	1105	1105	1102	1102	1105	1105	1105	1109	1123	1127	1127	1127	0	0	0	0	0	0	0	4706	4838	4838	4838	4838	4838	4838	4838	4838	4838	4838	4706	4706	4643	4643	0	0	0	0	0	0	0	4838	4771	4771	4706	4771	4706	4706	4643	4581	4643	4643	0	0	0	0	0	0	0	4706	4771	4771	4771	4706	4706	4771	4771	4771	4771	7959	7959	8146	8146	8146	7959	7959	7959	8146	8146	8146	7959	8146	8146	8146	8146	8146	8146	8146	8146	8343	8343	8343	8343	8343	8343	8343	8343	8146	8146	8343	8343	8146	8146	8146	8146	8146	8146	8146	8146	8146	8146	8146	8146	8146	8146	8146	8146	8146	8146	8146	8146	8146	8146	8146	8146	8146	8146	8146	8146	8146	8146	8146	8146	8146	0	3186	3186	3186	3216	3216	3216	3216	3216	3216	3216	3246	3246	3246	3246	3277	3277	3277	3246	3246	3246	3246	3246	3216	3246	3246	3246	3216	3246	3216	3216	3216	3216	3186	3216	3216	3186	3186	3186	3186	3216	3186	3186	3186	3186	3186	3186	3186	3186	3186	3186	3216	3216	3216	3216	3216	3246	3277	3277	3277	3277	3277	3309	3277	3277	3309	3309	3309	3309	3309	3309	3309	3277	3277	3309	3309	3309	3309	3309	0	8146	8146	7959	8146	7959	7959	8146	7959	8146	8343	8343	8343	8343	8343	8343	8343	8343	8343	8343	8343	8146	8146	4838	4838	4838	4838	4838	4838	4838	4771	4771	4771	4771	4771	4771	4771	4771	4771	4771	4771	4771	4771	4771	4771	4771	4771	4771	4771	4771	4771	4771	4771	4706	4706	4706	4706	4706	4706	4706	4706	4706	4706	4771	4771	4771	4771	4771	4706	4706	4771	4771	4771	4771	4771	4771	4771	4706	4706	4706	4706	4706	4771	4706	4771	4771	4771	4771	4771	4771	4771	4771	4771	4771	4706	4706	4706	4706	4771	4771	4771	4771	4771	4771	4771	4771	4771	4771	4771	4771	4771	4771	4771	4706	4643	4581	4581	4521	4521	4463	4463	4463	4463	4406	4406	4406	4406	4406	4406	4406	4406	4406	4406	4406	4406	4406	4350	4406	4406	4406	4463	4521	4521	4643	4643	4706	4643	4643	4643	4643	4643	4643	4643	4643	4643	4706	4706	4706	4771	4771	4771	4771	4771	4706	4706	4706	4706	4706	4706	4706	4706	4706	4706	4706	4706	4706	4706	4706	4706	4706	4706	4706	4706	4771	4706	4706	4706	4706	4706	4706	4706	4706	4706	4706	4643	4706	4706	4706	4706	4706	4706	4706	4706	4706	4706	4706	4706	4706	4706	8146	8146	8146	8146	8146	8146	8146	8146	8146	8146	8146	8146	8146	8146	8146	8146	8146	8146	8146	8146	8146	8343	8343	8343	8343	8343	8343	8343	8343	8343	8343	8343	8343	8343	8343	8343	8343	8550	8550	8550	8550	8550	8550	8550	8550	8343	8550	8550	8343	8343	8343	8343	8343	8343	8343	8343	8343	8343	8343	8146	8146	8146	8146	7959	7959	7959	8146	8146	8146	8146	8146	7959	7959	8146	8343	7959	7959	8146	8146	8146	8146	8146	8146	8146	8146	7779	7779	0	0	0	0	0	0	0	0	0	0	0	0	0	0	0	0	0	0	0	0	0	0	0	0	0	0	0	0	0	0	0	0	0	0	0	0	0
0	0	0	0	784	786	788	789	791	793	793	800	800	800	806	808	808	810	815	821	823	827	827	829	829	833	837	839	845	845	848	848	850	854	858	858	862	869	871	873	878	880	882	887	889	891	891	896	901	903	905	908	908	910	930	930	935	935	937	940	942	948	953	958	963	966	969	972	974	977	980	980	985	991	991	1017	1017	1020	1026	1026	1033	1033	1033	1039	1045	1055	1055	1058	1061	1061	1068	1078	1098	1098	1098	1102	1105	1102	1105	1105	1109	1109	1113	1123	1123	1123	0	0	0	0	0	0	0	0	4838	4838	4838	4838	4838	4838	4838	4838	4838	4771	4706	4706	4643	4643	0	0	0	0	0	0	0	4906	4838	4771	4771	4771	4771	4706	4643	4643	4643	4643	0	0	0	0	0	0	0	4706	4771	4771	4771	4771	4706	4771	4771	4771	8146	7959	7959	7959	8146	8146	7959	7959	7959	8146	8146	8146	7959	7959	8146	8146	8146	8146	8146	8146	8146	8343	8343	8343	8343	8343	8343	8343	8343	8343	8343	8343	8343	8146	8146	8146	8146	8146	8146	8146	8146	8146	8146	8146	8146	8146	8146	8146	8146	8146	8146	8146	8146	8146	7959	8146	8146	8146	8146	8146	8146	8146	8146	7959	8146	8146	0	3216	3216	3186	3216	3216	3216	3216	3216	3216	3216	3216	3246	3246	3277	3277	3277	3277	3246	3246	3246	3246	3246	3216	3246	3246	3216	3216	3216	3216	3216	3216	3186	3186	3186	3216	3186	3186	3186	3186	3186	3186	3186	3186	3186	3186	3186	3186	3186	3186	3186	3216	3216	3216	3246	3246	3246	3246	3246	3246	3277	3277	3277	3277	3277	3277	3309	3309	3277	3309	3309	3277	3277	3277	3309	3309	3309	3309	3309	0	8146	8146	8146	8146	7959	7959	8146	7959	8146	8146	8146	8146	8343	8343	8343	8343	8343	8343	8146	8146	8146	4838	4838	4838	4838	4838	4838	4838	4838	4771	4771	4771	4771	4771	4771	4771	4771	4771	4771	4771	4771	4771	4771	4771	4771	4771	4771	4771	4771	4771	4771	4771	4706	4706	4706	4706	4706	4706	4706	4706	4706	4706	4771	4771	4771	4771	4771	4706	4771	4771	4771	4706	4706	4771	4706	4706	4706	4706	4706	4706	4643	4706	4706	4706	4706	4771	4771	4771	4771	4771	4771	4706	4706	4771	4706	4706	4771	4771	4771	4771	4771	4771	4771	4771	4771	4771	4771	4771	4706	4706	4706	4706	4643	4643	4581	4521	4521	4521	4463	4463	4406	4406	4406	4406	4406	4406	4406	4406	4406	4406	4406	4406	4406	4406	4350	4350	4350	4350	4406	4406	4521	4581	4643	4643	4643	4643	4643	4643	4643	4643	4643	4643	4643	4643	4706	4706	4771	4771	4771	4771	4771	4771	4771	4771	4706	4706	4706	4706	4771	4706	4706	4706	4706	4706	4706	4706	4706	4706	4706	4771	4771	4706	4706	4706	4706	4771	4771	4706	4706	4706	4706	4706	4643	4643	4643	4643	4706	4706	4706	4706	4706	4706	4706	4706	4706	4771	4838	4838	4838	8343	8146	8146	8146	8146	8146	8146	8146	8146	8146	8146	8146	8146	8146	8146	8146	8146	8146	8146	8146	8343	8343	8343	8343	8343	8343	8343	8343	8343	8343	8343	8343	8343	8343	8343	8343	8550	8550	8550	8550	8550	8550	8550	8550	8550	8550	8550	8343	8343	8343	8343	8343	8343	8343	8343	8343	8146	8146	8146	8343	7959	7959	8146	8146	8146	8146	7959	7959	7959	8146	7959	8343	8343	8343	8146	8146	8146	8146	8343	8146	8146	8146	8343	8343	7779	7779	0	0	0	0	0	0	0	0	0	0	0	0	0	0	0	0	0	0	0	0	0	0	0	0	0	0	0	0	0	0	0	0	0	0	0	0	0
0	0	0	0	786	788	789	791	793	795	797	800	800	802	806	808	810	812	815	821	823	827	827	827	829	831	835	839	843	845	848	848	850	856	860	860	865	869	869	871	873	880	882	887	889	889	891	894	898	903	905	908	910	910	927	930	935	937	937	940	940	945	950	953	961	966	972	972	974	977	980	980	980	985	985	1020	1020	1020	1023	1023	1033	1036	1039	1042	1045	1045	1055	1055	1061	1061	1088	1098	1098	1098	1098	1102	1105	1105	1109	1109	1109	1113	1116	1120	1123	1123	0	0	0	0	0	0	0	0	4838	4838	4838	4838	4838	4838	4838	4838	4771	4771	4771	4771	4706	4706	0	0	0	0	0	0	0	4906	4771	4706	4706	4706	4706	4706	4643	4643	4643	0	0	0	0	0	0	0	0	4643	4706	4771	4771	4771	4706	4771	4771	4771	8146	8146	8146	8146	8146	8146	8146	7959	7959	7959	8146	8146	8146	8146	8146	8146	8146	8146	8146	8146	8146	8146	8343	8146	8343	8343	8343	8343	8146	8343	8146	8146	8146	8146	8146	8146	8146	8146	8146	8146	8146	8146	8146	8146	8146	8146	8146	8146	8146	8146	8146	8146	8146	8146	7959	7959	7959	8146	8146	8146	8146	7959	7959	7959	8146	8146	0	3216	3216	3186	3186	3216	3216	3216	3216	3216	3216	3246	3216	3246	3246	3277	3246	3246	3246	3246	3246	3246	3246	3216	3246	3246	3216	3216	3216	3216	3216	3186	3186	3186	3186	3216	3186	3186	3186	3186	3186	3186	3186	3186	3186	3186	3216	3186	3186	3186	3186	3216	3216	3216	3246	3246	3246	3246	3246	3246	3277	3277	3277	3277	3277	3277	3309	3277	3277	3277	3277	3277	3277	3277	3309	3309	3309	3309	3309	0	8146	8146	8146	8146	7959	7959	7959	7959	8146	8146	8343	8146	8343	8343	8343	8343	8343	8343	8343	8343	8146	4838	4838	4838	4838	4838	4838	4771	4838	4771	4771	4771	4771	4771	4771	4771	4771	4771	4771	4771	4771	4771	4771	4771	4771	4771	4771	4771	4771	4771	4771	4771	4706	4706	4706	4706	4706	4706	4706	4706	4706	4706	4771	4771	4771	4771	4771	4771	4771	4771	4771	4771	4771	4771	4771	4771	4706	4706	4643	4643	4643	4706	4706	4706	4706	4706	4771	4771	4771	4771	4771	4706	4771	4771	4771	4706	4771	4771	4771	4706	4706	4771	4771	4771	4771	4771	4771	4771	4771	4706	4706	4706	4643	4643	4581	4581	4581	4521	4463	4463	4463	4463	4406	4406	4406	4406	4406	4406	4406	4406	4406	4350	4350	4350	4350	4350	4350	4350	4406	4406	4521	4581	4643	4643	4643	4643	4643	4643	4643	4643	4643	4643	4643	4643	4706	4706	4771	4771	4771	4771	4771	4771	4771	4771	4706	4706	4706	4706	4771	4706	4706	4706	4706	4706	4706	4706	4706	4706	4706	4706	4706	4706	4706	4706	4706	4771	4706	4706	4706	4706	4706	4706	4643	4643	4643	4643	4643	4643	4643	4706	4706	4706	4706	4706	4771	4838	4906	4906	4906	8146	8343	8146	8146	8146	8146	8146	7959	7959	8146	8146	7959	7959	8146	8146	8146	8146	8146	8146	8146	8343	8343	8343	8343	8343	8343	8343	8343	8343	8343	8343	8343	8343	8343	8343	8343	8550	8343	8550	8343	8550	8550	8550	8550	8550	8550	8550	8550	8550	8343	8343	8343	8343	8343	8343	8343	8146	8146	8146	8343	8146	7959	8146	8146	8146	8146	7959	7959	8343	8343	8146	8343	8343	8343	8146	7959	8146	8146	8146	8146	8146	8146	8343	8343	0	0	0	0	0	0	0	0	0	0	0	0	0	0	0	0	0	0	0	0	0	0	0	0	0	0	0	0	0	0	0	0	0	0	0	0	0	0	0
0	0	0	0	786	788	791	791	793	795	797	800	800	802	808	810	810	812	815	819	823	827	827	829	831	833	835	839	841	843	848	848	850	856	860	860	865	869	871	871	873	878	882	887	891	891	891	891	896	905	908	908	910	920	927	930	932	937	937	940	942	948	950	953	958	966	969	972	974	977	980	980	980	985	985	1020	1020	1020	1023	1026	1033	1033	1039	1039	1042	1052	1055	1055	1055	1071	1088	1095	1095	1098	1098	1098	1102	1102	1105	1105	1109	1109	1120	1123	1123	1123	0	0	0	0	0	0	0	0	4838	4838	4838	4838	4838	4838	4838	4838	4771	4771	4771	4771	4771	4706	0	0	0	0	0	0	4838	4838	4706	4706	4706	4771	4706	4706	4581	4643	4643	0	0	0	0	0	0	0	4706	4706	4706	4706	4771	4706	4643	4706	4771	4771	4771	8146	7959	7959	7959	7959	7959	7959	7959	8146	8146	8146	8146	8146	8146	8146	8146	8146	8146	8146	8146	8146	8146	8146	8146	8146	8146	8146	8146	8146	8146	8146	8146	8146	8146	8146	8146	8146	8146	8146	8146	8146	8146	8146	8146	8146	8146	8146	8146	8146	8146	8146	8146	8146	7959	7959	7959	7959	7959	7959	7959	7959	7959	7959	7779	7779	0	0	3216	3216	3216	3216	3216	3216	3216	3216	3216	3216	3216	3246	3277	3246	3246	3246	3246	3246	3246	3246	3246	3216	3246	3216	3216	3216	3216	3216	3216	3186	3186	3186	3186	3186	3186	3186	3186	3186	3186	3186	3186	3186	3186	3186	3216	3186	3186	3186	3186	3216	3216	3216	3246	3246	3246	3246	3246	3246	3277	3246	3277	3277	3277	3277	3277	3277	3277	3277	3277	3277	3277	3277	3309	3309	3309	3309	3309	0	0	8146	8146	8146	8146	7959	8146	8146	8146	8343	8343	8343	8343	8550	8550	8343	8343	8146	8146	8146	7959	4838	4838	4838	4771	4838	4838	4771	4771	4771	4771	4771	4771	4771	4771	4771	4771	4771	4771	4771	4771	4771	4771	4771	4771	4771	4771	4771	4771	4771	4771	4771	4771	4706	4706	4706	4706	4706	4706	4706	4706	4706	4706	4771	4771	4771	4771	4771	4771	4771	4771	4771	4706	4771	4706	4706	4706	4706	4706	4706	4643	4643	4706	4706	4706	4706	4706	4771	4771	4771	4771	4771	4771	4771	4771	4771	4771	4771	4771	4771	4771	4771	4771	4771	4771	4771	4771	4771	4771	4706	4706	4706	4643	4643	4581	4581	4581	4521	4463	4463	4406	4406	4406	4406	4406	4350	4406	4406	4406	4350	4350	4350	4350	4350	4350	4350	4350	4350	4406	4406	4521	4581	4643	4643	4643	4643	4643	4643	4643	4643	4643	4643	4643	4643	4706	4771	4771	4771	4771	4771	4771	4771	4771	4771	4706	4706	4706	4706	4771	4771	4706	4771	4706	4706	4706	4706	4706	4706	4706	4706	4706	4706	4771	4771	4706	4706	4706	4706	4706	4706	4706	4706	4643	4643	4643	4643	4643	4643	4706	4706	4706	4706	4706	4706	4771	4838	4906	4906	4906	8343	8343	8146	8146	8146	8146	8146	7959	7959	8146	7959	7959	7959	7959	8146	8146	8146	8146	8146	8146	8343	8343	8343	8343	8146	8146	8146	8146	8343	8343	8343	8343	8343	8343	8343	8550	8550	8550	8550	8550	8550	8767	8550	8550	8550	8550	8550	8550	8343	8343	8343	8343	8343	8343	8343	8343	8343	8343	8343	8343	8343	8146	8343	8146	8343	8146	8146	8146	8343	8343	8343	8343	8343	8343	8343	8343	8146	8146	8146	8146	8343	8343	8343	0	0	0	0	0	0	0	0	0	0	0	0	0	0	0	0	0	0	0	0	0	0	0	0	0	0	0	0	0	0	0	0	0	0	0	0	0	0	0	0
0	0	0	780	782	788	789	791	795	795	798	800	802	804	810	810	812	814	817	821	825	827	829	829	831	835	837	839	843	845	848	848	852	856	858	858	862	869	869	871	873	878	882	887	891	891	891	891	898	905	908	910	917	920	925	927	930	932	937	937	940	948	953	955	958	963	966	972	977	977	983	983	985	985	991	1017	1020	1023	1026	1026	1033	1036	1036	1039	1042	1052	1055	1058	1068	1071	1085	1095	1095	1098	1098	1098	1102	1102	1105	1109	1113	1116	1113	1120	1123	1123	0	0	0	0	0	0	0	0	4838	4838	4838	4838	4838	4838	4838	4838	4771	4771	4771	4771	4771	4771	0	0	0	0	0	4838	4771	4838	4643	4643	4706	4706	4706	4706	4581	4581	4581	0	0	0	0	0	0	0	4706	4706	4706	4706	4706	4706	4643	4643	4771	4771	4771	4771	8146	8146	7959	7959	8146	7959	7959	8146	8343	8343	8146	8146	8146	8146	8146	8146	8146	8146	8146	8146	8146	8146	8146	8146	8146	8146	8146	8146	8146	8146	8146	8146	8146	8146	8146	8146	8146	8146	8146	8146	8146	8146	8146	8146	8146	8146	8146	8146	8146	8146	8146	8146	7959	7959	7959	8146	8146	7959	7959	7959	7959	7959	7959	8146	8146	0	3216	3186	3216	3216	3216	3216	3216	3216	3216	3216	3216	3246	3246	3246	3246	3246	3246	3246	3246	3216	3216	3216	3216	3216	3216	3216	3216	3216	3216	3186	3186	3186	3186	3186	3186	3186	3186	3186	3186	3216	3186	3186	3186	3186	3186	3186	3186	3186	3186	3186	3216	3216	3246	3246	3246	3246	3246	3246	3246	3246	3277	3277	3277	3277	3277	3277	3277	3277	3277	3277	3277	3277	3309	3309	3309	3309	3309	0	0	8146	8146	8146	8146	8146	8146	8146	8343	8550	8550	8550	8550	8767	8550	8550	8343	8146	8146	8146	7779	4838	4838	4838	4771	4838	4838	4771	4771	4771	4771	4771	4771	4771	4771	4771	4771	4771	4771	4771	4771	4771	4771	4771	4771	4771	4771	4771	4771	4771	4771	4771	4771	4706	4706	4706	4706	4706	4706	4706	4706	4706	4706	4771	4771	4771	4771	4771	4771	4771	4771	4771	4771	4771	4771	4771	4706	4706	4706	4643	4643	4706	4706	4706	4706	4706	4706	4771	4771	4771	4771	4771	4771	4771	4771	4771	4771	4771	4771	4706	4771	4771	4771	4771	4771	4771	4771	4771	4771	4706	4706	4706	4643	4643	4581	4581	4521	4521	4463	4463	4406	4406	4406	4406	4406	4350	4350	4350	4350	4350	4350	4350	4350	4350	4350	4350	4350	4406	4406	4406	4521	4581	4643	4643	4643	4643	4643	4643	4643	4643	4643	4643	4643	4643	4706	4706	4771	4771	4771	4771	4771	4771	4771	4706	4706	4706	4706	4706	4706	4706	4706	4706	4706	4706	4706	4706	4706	4643	4643	4643	4706	4706	4706	4706	4706	4706	4706	4706	4706	4706	4706	4706	4706	4643	4643	4643	4643	4706	4706	4706	4706	4706	4706	4706	4771	4838	4906	4906	8343	8343	8146	8146	8146	8146	8146	8146	7959	7959	7959	7959	7959	7959	8146	8146	8146	8146	8146	8146	8146	8343	8343	8146	8146	8146	8146	8146	8146	8146	8343	8343	8343	8343	8343	8550	8550	8550	8550	8550	8550	8550	8767	8550	8343	8550	8550	8550	8550	8550	8343	8343	8146	8343	8146	8343	8146	8146	8343	8343	8343	8146	7959	8146	8146	8146	8146	8146	7959	8343	8343	8146	8146	8146	8146	8343	8146	8146	8146	8343	8343	8343	8343	8343	8343	0	0	0	0	0	0	0	0	0	0	0	0	0	0	0	0	0	0	0	0	0	0	0	0	0	0	0	0	0	0	0	0	0	0	0	0	0	0	0
